# .PCD v0.7 - Point Cloud Data file format
VERSION 0.7
FIELDS x y z rgba
SIZE 4 4 4 4
TYPE F F F U
COUNT 1 1 1 1
WIDTH 1017
HEIGHT 1
VIEWPOINT 0 0 0 1 0 0 0
POINTS 1017
DATA ascii
2.8045461 -1.2241105 0.81993878 0
2.7808101 -1.2253239 0.81424475 0
2.7729857 -1.233453 0.81320947 0
2.7699733 -1.2431325 0.70094746 0
2.7543483 -1.2372754 0.80906838 0
2.7605693 -1.2516689 0.8121742 0
2.730449 -1.2472161 0.58349395 0
2.7399597 -1.2527165 0.69554865 0
2.7596965 -1.2629052 0.81320947 0
2.7373397 -1.2630895 0.69599855 0
2.7554936 -1.2720497 0.81320947 0
2.7174294 -1.2631186 0.47462222 0
2.729017 -1.2690839 0.58502042 0
2.7331359 -1.2721599 0.69599855 0
2.7475343 -1.2800288 0.8121742 0
2.7103522 -1.2719299 0.58196747 0
2.7392616 -1.2866637 0.69869798 0
2.7275383 -1.2817382 0.80751544 0
2.6884415 -1.2708205 0.36512056 0
2.7051978 -1.2798966 0.47399649 0
2.6954722 -1.2758712 0.57967776 0
2.7314577 -1.2940718 0.69779819 0
2.7405031 -1.2995285 0.81269181 0
2.6953654 -1.2867783 0.4730579 0
2.6945453 -1.2869644 0.580441 0
2.7128587 -1.2968744 0.69419897 0
2.7289798 -1.3057516 0.81062132 0
2.677012 -1.2877833 0.25989842 0
2.6777155 -1.2886974 0.36487687 0
2.6801791 -1.2910355 0.47118065 0
2.6968842 -1.3002424 0.58196747 0
2.708087 -1.3068089 0.69419897 0
2.733104 -1.319469 0.81320947 0
2.6819022 -1.3028402 0.36609554 0
2.6756563 -1.3003833 0.47118065 0
2.6958601 -1.3113658 0.58273071 0
2.7140217 -1.321372 0.69689834 0
2.7111137 -1.3205417 0.80803311 0
2.6713459 -1.306945 0.15585649 0
2.6518519 -1.298555 0.25832963 0
2.6740017 -1.3099798 0.36560807 0
2.6781955 -1.3131939 0.47243217 0
2.6773956 -1.3133813 0.57967776 0
2.7148726 -1.3329414 0.69824809 0
2.7134228 -1.3334053 0.81010365 0
2.6685586 -1.3171456 0.15596117 0
2.6475313 -1.3073416 0.25832963 0
2.6551759 -1.3122694 0.36365816 0
2.6771364 -1.3242861 0.4730579 0
2.6692755 -1.3209777 0.57891452 0
2.7084572 -1.3415451 0.69779819 0
2.7052903 -1.3411527 0.80906838 0
2.6354311 -1.311107 0.051379886 0
2.6534212 -1.3223686 0.25937548 0
2.650579 -1.3215299 0.36365816 0
2.6724975 -1.3336231 0.4730579 0
2.6679287 -1.3325065 0.57967776 0
2.6895773 -1.3444922 0.69419897 0
2.7109592 -1.3557723 0.8121742 0
2.6233726 -1.3182718 0.15386772 0
2.636328 -1.3253584 0.25815532 0
2.6474905 -1.3321279 0.36390188 0
2.6534774 -1.3363013 0.47055492 0
2.6755342 -1.3479947 0.58234906 0
2.6848676 -1.3538724 0.69419897 0
2.6990731 -1.3622175 0.81010365 0
2.6170619 -1.3254147 0.051205363 0
2.6205368 -1.3283241 0.1539724 0
2.6281319 -1.3327506 0.25780669 0
2.6499052 -1.3449552 0.36487687 0
2.6452742 -1.3437663 0.46992919 0
2.6655622 -1.3546574 0.58120424 0
2.6835995 -1.3650031 0.69509876 0
2.5770857 -1.3113915 -0.05047236 0
2.6874156 -1.3681251 0.80803311 0
2.5910497 -1.3236252 0.050786503 0
2.6214526 -1.3397335 0.15428641 0
2.6234636 -1.3419164 0.25780669 0
2.6398933 -1.351483 0.36414564 0
2.6478364 -1.3561327 0.47118065 0
2.6538289 -1.3603715 0.57967776 0
2.682286 -1.3761413 0.69599855 0
2.6828637 -1.3770294 0.80803311 0
2.5866461 -1.3322102 0.050786503 0
2.614985 -1.3479608 0.15418173 0
2.6187634 -1.3510658 0.25780669 0
2.6230493 -1.3538567 0.36243945 0
2.6501067 -1.3689939 0.47243217 0
2.6475589 -1.3682631 0.57929617 0
2.6829007 -1.3877145 0.6973483 0
2.5947397 -1.342688 -0.050995931 0
2.6814718 -1.3881621 0.80906838 0
2.5944016 -1.3476838 0.051030833 0
2.5980949 -1.350178 0.15344904 0
2.6248741 -1.3652587 0.25885254 0
2.6235898 -1.3657544 0.36317068 0
2.6402962 -1.3750371 0.47149354 0
2.6375439 -1.3747741 0.57815129 0
2.6659458 -1.3907619 0.69419897 0
2.5884998 -1.35036 -0.050961025 0
2.680279 -1.3988342 0.81010365 0
2.5846043 -1.3534968 0.050926123 0
2.589828 -1.3573846 0.1532397 0
2.6095064 -1.3688599 0.25780669 0
2.6243193 -1.3772142 0.36390188 0
2.630234 -1.3814893 0.47055492 0
2.6486118 -1.3917319 0.58158582 0
2.6578698 -1.3977807 0.69329917 0
2.5589948 -1.3463522 -0.05047236 0
2.6753798 -1.4081817 0.81010365 0
2.5763273 -1.3606427 0.050856311 0
2.5903716 -1.3692166 0.15355371 0
2.5943849 -1.3719174 0.25676081 0
2.6265142 -1.3900808 0.36487687 0
2.6219044 -1.3888129 0.46992919 0
2.6333294 -1.3954532 0.57929617 0
2.6633039 -1.4125282 0.69599855 0
2.5542796 -1.3552765 -0.05047236 0
2.6602099 -1.4120772 0.80699778 0
2.568032 -1.3677473 0.050786503 0
2.5961511 -1.3838873 0.15418173 0
2.5860643 -1.3790901 0.25641218 0
2.6198947 -1.3983059 0.36463311 0
2.6240101 -1.4016794 0.47118065 0
2.624979 -1.4027859 0.57853287 0
2.6600754 -1.4227353 0.6964485 0
2.5583487 -1.3689015 -0.050646886 0
2.6518583 -1.4195311 0.8059625 0
2.5614805 -1.3757571 0.0507516 0
2.5842679 -1.3891585 0.15376306 0
2.5917633 -1.3937707 0.25745806 0
2.5975177 -1.3980345 0.36219573 0
2.6260579 -1.4145777 0.47243217 0
2.6148818 -1.4091464 0.57738805 0
2.6585231 -1.4338622 0.6973483 0
2.5588346 -1.3806721 -0.0507516 0
2.6536872 -1.4324499 0.80803311 0
2.5636959 -1.3884991 0.050891217 0
2.5723796 -1.3943638 0.15334436 0
2.5953937 -1.408011 0.25832963 0
2.5891325 -1.4051992 0.36170825 0
2.6141605 -1.4199642 0.47118065 0
2.6131489 -1.4205961 0.57815129 0
2.6378441 -1.4352144 0.69329917 0
2.552243 -1.38864 -0.050716694 0
2.6554577 -1.4453984 0.81010365 0
2.565609 -1.4017212 0.051030833 0
2.5710018 -1.4052503 0.15355371 0
2.5852191 -1.4141936 0.25780669 0
2.5961533 -1.4213521 0.36341441 0
2.602258 -1.425285 0.46992919 0
2.6167822 -1.4344277 0.58005941 0
2.6362352 -1.4462881 0.69419897 0
2.5438735 -1.3956169 -0.050646886 0
2.6503961 -1.454659 0.81010365 0
2.5556917 -1.4073278 0.050926123 0
2.5625825 -1.4122881 0.15334436 0
2.5767779 -1.4212844 0.25745806 0
2.5966396 -1.4328309 0.36414564 0
2.5972669 -1.4343598 0.46992919 0
2.612011 -1.4430975 0.58005941 0
2.6365409 -1.4578512 0.69554865 0
2.5319872 -1.4006163 -0.050507262 0
2.6385415 -1.4601601 0.80803311 0
2.5420225 -1.4113868 0.0507516 0
2.566366 -1.4260751 0.15386772 0
2.5685678 -1.4278853 0.25710943 0
2.5864182 -1.4389908 0.36341441 0
2.595696 -1.4453393 0.47055492 0
2.5949521 -1.4455185 0.57738805 0
2.6331379 -1.4679943 0.69599855 0
2.541054 -1.4172385 -0.050786503 0
2.630054 -1.4674788 0.80699778 0
2.5283558 -1.4153676 0.050577074 0
2.5578876 -1.4330724 0.15365838 0
2.567044 -1.4387908 0.25745806 0
2.5779171 -1.4460679 0.36292693 0
2.5992475 -1.4592261 0.47211927 0
2.586467 -1.4526449 0.57662481 0
2.6246002 -1.4752672 0.69509876 0
2.5256338 -1.4202191 -0.050577074 0
2.6265993 -1.4775976 0.80751544 0
2.5408144 -1.4340131 0.050926123 0
2.5476527 -1.4390454 0.15334436 0
2.5724132 -1.4536239 0.25850391 0
2.5693979 -1.4531035 0.36243945 0
2.5855424 -1.4634254 0.47055492 0
2.5916309 -1.4674686 0.57891452 0
2.612653 -1.4805765 0.69329917 0
2.5224001 -1.4300127 -0.050611977 0
2.6315079 -1.4924755 0.81062132 0
2.541007 -1.4458402 0.051030833 0
2.542614 -1.4479297 0.15334436 0
2.5603991 -1.4586495 0.25780669 0
2.5712075 -1.4659961 0.36341441 0
2.576987 -1.4704835 0.46992919 0
2.5899026 -1.4784528 0.57967776 0
2.6007004 -1.4858205 0.69149953 0
2.4982958 -1.4278936 -0.050228026 0
2.617897 -1.4968578 0.80803311 0
2.5238028 -1.4477364 0.050786503 0
2.5395308 -1.4573474 0.15344904 0
2.5483809 -1.4636089 0.25710943 0
2.5695167 -1.476941 0.36390188 0
2.5755215 -1.4809905 0.47055492 0
2.5813229 -1.4855256 0.57891452 0
2.6092696 -1.502215 0.69509876 0
2.4970126 -1.4381665 -0.050297838 0
2.6045496 -1.5007083 0.8054449 0
2.5189881 -1.4560975 0.050786503 0
2.543329 -1.47076 0.1539724 0
2.5400643 -1.4700557 0.25676081 0
2.5611694 -1.4834639 0.36341441 0
2.5654685 -1.4865518 0.46961632 0
2.5729859 -1.4921077 0.57815129 0
2.6059594 -1.5118375 0.69554865 0
2.5026069 -1.4524616 -0.050507262 0
2.5962172 -1.5073969 0.80440962 0
2.5037785 -1.4584039 0.050577074 0
2.5381796 -1.4796289 0.1539724 0
2.5386178 -1.4804782 0.25710943 0
2.5493786 -1.4879464 0.36243945 0
2.5653811 -1.4984872 0.47055492 0
2.5697186 -1.5016223 0.57853287 0
2.5922554 -1.5160058 0.69329917 0
2.5044255 -1.4652278 -0.050646886 0
2.6059451 -1.525233 0.80906838 0
2.5124674 -1.4752349 0.050856311 0
2.5261116 -1.4844323 0.15355371 0
2.54374 -1.4953887 0.25815532 0
2.5424581 -1.4958297 0.36219573 0
2.5669436 -1.5114418 0.47180638 0
2.5627697 -1.5095868 0.57815129 0
2.5886264 -1.5260348 0.69374907 0
2.488961 -1.4678658 -0.050437454 0
2.5956135 -1.5313749 0.80751544 0
2.5073025 -1.4839959 0.050856311 0
2.5191958 -1.492223 0.15344904 0
2.5299346 -1.4991804 0.25728375 0
2.5440507 -1.5087459 0.36317068 0
2.5480626 -1.5123273 0.46930346 0
2.5642371 -1.5225327 0.57967776 0
2.5765829 -1.5310794 0.69194949 0
2.4786651 -1.4734796 -0.05033274 0
2.5985544 -1.5453633 0.81010365 0
2.5021071 -1.4927391 0.050856311 0
2.5156868 -1.5020318 0.15355371 0
2.5229754 -1.5069808 0.25710943 0
2.538769 -1.517617 0.36317068 0
2.542768 -1.5212123 0.46930346 0
2.558907 -1.5314744 0.57967776 0
2.5762382 -1.5430683 0.69329917 0
2.4803681 -1.4862342 -0.05047236 0
2.5765748 -1.5444921 0.80492729 0
2.486599 -1.495281 0.050646886 0
2.5189846 -1.5159532 0.15407708 0
2.5159926 -1.5147507 0.25693512 0
2.5368564 -1.5285186 0.36365816 0
2.5425172 -1.5331392 0.47024205 0
2.5434594 -1.5343127 0.57738805 0
2.5808456 -1.5580945 0.69599855 0
2.4734533 -1.4938492 -0.050437454 0
2.576128 -1.5564737 0.80648017 0
2.4779441 -1.5018789 0.050577074 0
2.5085547 -1.5216295 0.15376306 0
2.51069 -1.523524 0.25693512 0
2.5230219 -1.5322125 0.36243945 0
2.5439024 -1.5461087 0.47149354 0
2.5380881 -1.5431817 0.57738805 0
2.5720615 -1.565068 0.69509876 0
2.4699321 -1.5035141 -0.05047236 0
2.572329 -1.5664613 0.80699778 0
2.4863384 -1.5188589 0.050856311 0
2.4947076 -1.5251676 0.1532397 0
2.5172546 -1.5395554 0.25815532 0
2.5091925 -1.5358286 0.36122078 0
2.5317519 -1.5508517 0.47024205 0
2.5393815 -1.5561349 0.57891452 0
2.5599382 -1.5699614 0.69329917 0
2.4612598 -1.5100349 -0.050402552 0
2.5767243 -1.5814942 0.81010365 0
2.484427 -1.5296254 0.050926123 0
2.4893687 -1.5338665 0.1532397 0
2.510169 -1.5472876 0.25798097 0
2.513953 -1.5508312 0.36268318 0
2.5212808 -1.5565667 0.46930346 0
2.5489674 -1.5742742 0.58234906 0
2.5560999 -1.5799122 0.69374907 0
2.4491704 -1.5144105 -0.050262932 0
2.5695455 -1.5894628 0.80958605 0
2.4722757 -1.534071 0.050786503 0
2.4890895 -1.5457076 0.15355371 0
2.489521 -1.5465778 0.25641218 0
2.5118961 -1.5616932 0.36317068 0
2.5124772 -1.5632709 0.4686777 0
2.528456 -1.5738251 0.57891452 0
2.5505693 -1.5888252 0.69374907 0
2.4455664 -1.524008 -0.050297838 0
2.5525057 -1.5912684 0.8059625 0
2.4669058 -1.5426915 0.050786503 0
2.4836788 -1.5543869 0.15355371 0
2.4824185 -1.5542011 0.25623786 0
2.5064294 -1.5704521 0.36317068 0
2.515373 -1.5772787 0.47024205 0
2.5279362 -1.5857712 0.58005941 0
2.5532601 -1.6028992 0.69599855 0
2.4470053 -1.5367897 -0.050437454 0
2.5502071 -1.6022239 0.80699778 0
2.4581225 -1.5491608 0.050716694 0
2.4866843 -1.5683742 0.15407708 0
2.4854035 -1.5681728 0.25710943 0
2.497575 -1.5770717 0.36268318 0
2.5148616 -1.5892152 0.47118065 0
2.5140882 -1.5893403 0.57815129 0
2.5492961 -1.6128441 0.6964485 0
2.4416261 -1.5453217 -0.050437454 0
2.5478635 -1.6131831 0.80803311 0
2.4594519 -1.5620202 0.050856311 0
2.4677098 -1.5684738 0.1532397 0
2.4815958 -1.5779079 0.25728375 0
2.4853561 -1.5815173 0.36170825 0
2.5109653 -1.599045 0.47149354 0
2.5118363 -1.6002164 0.57891452 0
2.5337915 -1.6154469 0.69374907 0
2.4463327 -1.5602871 -0.050646886 0
2.5471027 -1.6251844 0.80958605 0
2.4542584 -1.5701675 0.050856311 0
2.4624951 -1.5766487 0.1532397 0
2.4813828 -1.5893524 0.25780669 0
2.4834402 -1.5918931 0.36219573 0
2.4973352 -1.60203 0.46992919 0
2.5098207 -1.6106577 0.57967776 0
2.5251412 -1.6217343 0.69284928 0
2.4293685 -1.5608246 -0.050402552 0
2.5416992 -1.6336219 0.80958605 0
2.4504433 -1.5798084 0.050891217 0
2.4636893 -1.5895658 0.15365838 0
2.4691238 -1.5936825 0.25710943 0
2.4862058 -1.6059375 0.36341441 0
2.4884102 -1.608593 0.46930346 0
2.5074804 -1.6215411 0.580441 0
2.5276451 -1.6358328 0.69509876 0
2.4222269 -1.5682083 -0.050367646 0
2.5294952 -1.6382834 0.80751544 0
2.4415603 -1.5861735 0.050821409 0
2.4631493 -1.6014222 0.1539724 0
2.4551945 -1.5968602 0.25623786 0
2.4789212 -1.6135234 0.36317068 0
2.4894006 -1.6215819 0.47055492 0
2.4902911 -1.6227809 0.57776964 0
2.5268164 -1.6478395 0.6964485 0
2.4284616 -1.5843024 -0.050611977 0
2.5205259 -1.6449913 0.80648017 0
2.429316 -1.5903053 0.050681788 0
2.4625564 -1.6132939 0.15428641 0
2.4612706 -1.6130654 0.25745806 0
2.4682941 -1.6189005 0.36243945 0
2.4903307 -1.6345973 0.47180638 0
2.4862523 -1.6325414 0.57815129 0
2.5194206 -1.6555793 0.69599855 0
2.4245875 -1.593868 -0.050646886 0
2.5244529 -1.6601484 0.80958605 0
2.4354348 -1.6064835 0.050926123 0
2.4419084 -1.6119769 0.15334436 0
2.4556251 -1.6216471 0.25745806 0
2.4626281 -1.6275067 0.36243945 0
2.4846098 -1.6432804 0.47180638 0
2.4903624 -1.6477098 0.580441 0
2.507127 -1.6600603 0.69419897 0
2.4173419 -1.6012175 -0.050611977 0
2.5283048 -1.6753528 0.81269181 0
2.4281468 -1.613868 0.050891217 0
2.4329407 -1.6182787 0.15313502 0
2.4516079 -1.6313126 0.25763237 0
2.4602368 -1.6382935 0.36292693 0
2.4689956 -1.6453705 0.46992919 0
2.4845955 -1.6563929 0.580441 0
2.4996958 -1.6677202 0.69374907 0
2.4017584 -1.6029851 -0.050402552 0
2.5192282 -1.6820226 0.81165653 0
2.4224987 -1.6223336 0.050891217 0
2.4339135 -1.6312093 0.15355371 0
2.442589 -1.6376415 0.25728375 0
2.4676902 -1.6557194 0.36487687 0
2.4599574 -1.6517767 0.46930346 0
2.482058 -1.6672449 0.58120424 0
2.4987109 -1.6796973 0.69509876 0
2.3928297 -1.6091273 -0.05033274 0
2.4925039 -1.6767881 0.80492729 0
2.4068751 -1.6240689 0.050681788 0
2.4381359 -1.6464016 0.15418173 0
2.4302537 -1.6416966 0.25658652 0
2.4536729 -1.6587644 0.36365816 0
2.460721 -1.6647809 0.47055492 0
2.4632161 -1.6670958 0.57815129 0
2.4960594 -1.6905948 0.69599855 0
2.39382 -1.6219568 -0.05047236 0
2.4866354 -1.6854784 0.80492729 0
2.4011912 -1.6324607 0.050681788 0
2.4293599 -1.6522312 0.1539724 0
2.432744 -1.655775 0.25745806 0
2.4396646 -1.6617315 0.36243945 0
2.4617167 -1.6773812 0.47180638 0
2.4606259 -1.6778961 0.57891452 0
2.4901431 -1.6992971 0.69599855 0
2.3983386 -1.6366489 -0.050681788 0
2.4937966 -1.7024287 0.80906838 0
2.4073148 -1.6483227 0.050926123 0
2.4202826 -1.6584431 0.15376306 0
2.4351652 -1.6698905 0.25832963 0
2.4325035 -1.6686898 0.36219573 0
2.4558465 -1.6859637 0.47180638 0
2.4550481 -1.6860465 0.57891452 0
2.4748583 -1.700923 0.69329917 0
2.3909633 -1.6438779 -0.050646886 0
2.4989808 -1.7187866 0.81269181 0
2.4015462 -1.6567158 0.050926123 0
2.4079044 -1.6623427 0.15334436 0
2.4230564 -1.6734278 0.25763237 0
2.434829 -1.6828136 0.36341441 0
2.4401987 -1.687784 0.46992919 0
2.4620636 -1.7035425 0.58196747 0
2.47211 -1.7117703 0.69419897 0
2.3720598 -1.6431047 -0.050367646 0
2.4866145 -1.7230978 0.81062132 0
2.3891804 -1.6605234 0.050786503 0
2.4086456 -1.6752995 0.15376306 0
2.4139295 -1.6795996 0.25728375 0
2.4403436 -1.6992431 0.36512056 0
2.4375339 -1.6985502 0.47055492 0
2.4496598 -1.7076355 0.580441 0
2.4693162 -1.7226189 0.69509876 0
2.3613901 -1.6479414 -0.050262932 0
2.4758325 -1.7284497 0.80906838 0
2.3833694 -1.6688533 0.050786503 0
2.4093256 -1.6882817 0.15418173 0
2.4031572 -1.6845846 0.25676081 0
2.4278967 -1.703191 0.36414564 0
2.4332066 -1.7081835 0.47086781 0
2.4372578 -1.7116627 0.57891452 0
2.4696655 -1.73571 0.69689834 0
2.3621669 -1.6607747 -0.050402552 0
2.4682038 -1.7359701 0.80855072 0
2.3709934 -1.672552 0.050646886 0
2.4017861 -1.6955296 0.15407708 0
2.4086547 -1.7010083 0.25798097 0
2.41221 -1.7047814 0.36268318 0
2.4385183 -1.7246511 0.4730579 0
2.431268 -1.7201599 0.57891452 0
2.4635918 -1.7443202 0.69689834 0
2.3596191 -1.6713216 -0.05047236 0
2.4700103 -1.7501596 0.81113893 0
2.3749208 -1.6877681 0.050856311 0
2.3828321 -1.6946427 0.1532397 0
2.4043257 -1.7105609 0.25815532 0
2.4030104 -1.7108886 0.36219573 0
2.429266 -1.7308601 0.47243217 0
2.4284463 -1.7309151 0.57967776 0
2.447969 -1.7461194 0.69419897 0
2.3570261 -1.6818712 -0.050542168 0
2.4701755 -1.7632605 0.81320947 0
2.3771446 -1.7018682 0.051030833 0
2.3833961 -1.7076029 0.15365838 0
2.3918629 -1.7143005 0.25745806 0
2.406702 -1.7262081 0.36365816 0
2.4151855 -1.7335697 0.47086781 0
2.4255788 -1.7416716 0.580441 0
2.448189 -1.7592024 0.69599855 0
2.3381512 -1.6807507 -0.050262932 0
2.4561636 -1.7662328 0.81062132 0
2.3679459 -1.7078164 0.050961025 0
2.379041 -1.717081 0.15376306 0
2.3874795 -1.7238053 0.25763237 0
2.4135339 -1.7438995 0.36560807 0
2.4059179 -1.7396748 0.47024205 0
2.4226661 -1.7524294 0.58120424 0
2.4420335 -1.7677373 0.69599855 0
2.3419878 -1.6959394 -0.05047236 0
2.4515479 -1.7759291 0.81113893 0
2.3554988 -1.7113701 0.050821409 0
2.3794942 -1.730073 0.15418173 0
2.3814476 -1.7321287 0.25763237 0
2.3945923 -1.742968 0.36365816 0
2.4062176 -1.7527148 0.47149354 0
2.4101872 -1.7562504 0.57967776 0
2.4437208 -1.7819917 0.69824809 0
2.348978 -1.7135324 -0.0507516 0
2.443773 -1.783337 0.81062132 0
2.3414423 -1.7136767 0.050646886 0
2.3734405 -1.7383684 0.15418173 0
2.3802083 -1.7439637 0.25815532 0
2.3820901 -1.7466208 0.36268318 0
2.4096403 -1.7681152 0.47337076 0
2.404042 -1.7646527 0.57967776 0
2.4421973 -1.7939723 0.69959778 0
2.3284798 -1.7110639 -0.050437454 0
2.4359765 -1.7907121 0.81010365 0
2.3467131 -1.7301458 0.050891217 0
2.3577151 -1.7395282 0.15355371 0
2.3805184 -1.7569941 0.25885254 0
2.3727853 -1.7525665 0.36219573 0
2.4002769 -1.7741671 0.472745 0
2.404182 -1.7777027 0.58120424 0
2.4202552 -1.7908947 0.69509876 0
2.3369582 -1.7298892 -0.0507516 0
2.4390264 -1.8061025 0.81320947 0
2.3502917 -1.7454807 0.051100649 0
2.348727 -1.7449549 0.15334436 0
2.3711729 -1.7629156 0.25850391 0
2.3809869 -1.771503 0.36438939 0
2.3912108 -1.779758 0.47211927 0
2.4011109 -1.7884295 0.58196747 0
2.417114 -1.8016611 0.69599855 0
2.3263986 -1.7340441 -0.050646886 0
2.4330237 -1.8141806 0.81320947 0
2.3380849 -1.7484746 0.050961025 0
2.3522162 -1.7603227 0.1539724 0
2.3618155 -1.7687931 0.25815532 0
2.3830428 -1.7853401 0.36560807 0
2.3786616 -1.7833544 0.47086781 0
2.3951671 -1.7963822 0.58196747 0
2.4142432 -1.8120062 0.69689834 0
2.3059394 -1.7313482 -0.05033274 0
2.4143188 -1.8133808 0.80906838 0
2.3271756 -1.7530159 0.050856311 0
2.349556 -1.7705172 0.15418173 0
2.3495739 -1.7718171 0.25745806 0
2.3736272 -1.7912557 0.36512056 0
2.3853474 -1.800754 0.47337076 0
2.3873155 -1.8035483 0.58158582 0
2.4156759 -1.8262986 0.69914788 0
2.3161366 -1.751045 -0.050681788 0
2.4206185 -1.8306996 0.81320947 0
2.3149765 -1.7558897 0.050716694 0
2.3433611 -1.7787081 0.15418173 0
2.3560674 -1.7896487 0.25885254 0
2.361352 -1.7943131 0.36414564 0
2.3821919 -1.811461 0.47399649 0
2.3766341 -1.8078891 0.580441 0
2.4127078 -1.8366601 0.70004767 0
2.3195558 -1.7663883 -0.050891217 0
2.4111402 -1.8367965 0.8121742 0
2.3228245 -1.7752911 0.051030833 0
2.3257213 -1.7787914 0.15344904 0
2.3513882 -1.7990729 0.25902686 0
2.3516073 -1.8005424 0.36365816 0
2.3739686 -1.8189783 0.47368363 0
2.3762248 -1.8213652 0.58196747 0
2.3997748 -1.8407464 0.69824809 0
2.3019607 -1.7663567 -0.050646886 0
2.4105215 -1.8503268 0.81424475 0
2.3197827 -1.7858282 0.051100649 0
2.3242447 -1.7905556 0.15376306 0
2.3419378 -1.8048375 0.25867823 0
2.3547394 -1.8160136 0.36512056 0
2.3629134 -1.8236332 0.472745 0
2.3791761 -1.8368472 0.58425713 0
2.3887084 -1.8455377 0.69689834 0
2.2910345 -1.7707126 -0.050542168 0
2.4071045 -1.8610929 0.81528002 0
2.3056333 -1.7877883 0.050926123 0
2.3258698 -1.8047796 0.15428641 0
2.327754 -1.806893 0.25780669 0
2.3546567 -1.8290933 0.36609554 0
2.3565333 -1.8318703 0.472745 0
2.3696506 -1.8427306 0.58349395 0
2.3899415 -1.8598487 0.69914788 0
2.2801058 -1.7750138 -0.050437454 0
2.3883998 -1.8599882 0.81113893 0
2.296227 -1.7933635 0.050856311 0
2.3211293 -1.8141176 0.15439108 0
2.3245718 -1.8174617 0.25815532 0
2.3451309 -1.8348552 0.36560807 0
2.3563459 -1.8449562 0.47399649 0
2.3570213 -1.8461487 0.58196747 0
2.3895698 -1.8729887 0.70094746 0
2.2786169 -1.7866638 -0.050542168 0
2.3818929 -1.8683139 0.81113893 0
2.2899528 -1.8013681 0.050856311 0
2.3132133 -1.8209733 0.15428641 0
2.3213441 -1.82803 0.25850391 0
2.3324752 -1.8381151 0.36463311 0
2.3529935 -1.8556165 0.47462222 0
2.3505626 -1.8543651 0.58196747 0
2.3845465 -1.8825257 0.70139736 0
2.2849209 -1.8045217 -0.050821409 0
2.382936 -1.8826046 0.81372708 0
2.2914875 -1.8155596 0.051030833 0
2.3021481 -1.8253143 0.1539724 0
2.3196318 -1.8398362 0.25902686 0
2.3291543 -1.8487138 0.36512056 0
2.3434083 -1.8613615 0.47399649 0
2.3502238 -1.867444 0.58349395 0
2.3703344 -1.8847736 0.69914788 0
2.2739131 -1.8087522 -0.050716694 0
2.3869319 -1.8993316 0.81735063 0
2.2945147 -1.8310312 0.051240265 0
2.2957625 -1.8333392 0.1539724 0
2.3147521 -1.8491657 0.25920117 0
2.3288891 -1.8617913 0.36609554 0
2.3338115 -1.8670622 0.47337076 0
2.3467565 -1.8780897 0.58425713 0
2.3637407 -1.8930362 0.69914788 0
2.3817947 -1.90886 0.81786817 0
2.2849915 -1.8365239 0.051170457 0
2.2940178 -1.8450968 0.15428641 0
2.3051786 -1.8547364 0.25885254 0
2.3254685 -1.8723991 0.36658302 0
2.3242037 -1.8727185 0.472745 0
2.3401864 -1.88627 0.58425713 0
2.3631859 -1.9061697 0.70094746 0
2.3660977 -1.9098819 0.81476241 0
2.2692416 -1.8369397 0.050961025 0
2.2925432 -1.8564649 0.15460044 0
2.2971425 -1.8615174 0.25867823 0
2.3204601 -1.8817556 0.36682677 0
2.3302534 -1.8903712 0.47524795 0
2.3335879 -1.8944274 0.58425713 0
2.365593 -1.9217796 0.7036469 0
2.3597512 -1.9177178 0.81476241 0
2.2662375 -1.8469813 0.051030833 0
2.2906921 -1.8682427 0.15491444 0
2.2968049 -1.8745636 0.25937548 0
2.306519 -1.8831629 0.36560807 0
2.3267 -1.9009936 0.47587368 0
2.3212125 -1.8971858 0.58273071 0
2.35619 -1.9271461 0.70274711 0
2.3590224 -1.9308375 0.81683296 0
2.2659593 -1.8599557 0.051170457 0
2.2752228 -1.8682241 0.15428641 0
2.2951939 -1.8859648 0.25989842 0
2.298398 -1.8899416 0.36536431 0
2.3158069 -1.9049342 0.47493511 0
2.3236704 -1.9127631 0.58502042 0
2.3464406 -1.9328809 0.70184726 0
2.3555884 -1.9411068 0.81786817 0
2.2659447 -1.872555 0.051310074 0
2.2702267 -1.8774277 0.15439108 0
2.2901318 -1.8952352 0.26007274 0
2.2982345 -1.9026164 0.36633927 0
2.3030584 -1.9079653 0.47368363 0
2.3233614 -1.925469 0.5865469 0
2.3355179 -1.9369193 0.70049757 0
2.3458252 -1.9468498 0.81683296 0
2.2547836 -1.8766156 0.051205363 0
2.2697983 -1.8904536 0.15480977 0
2.2761807 -1.8964423 0.25920117 0
2.2976778 -1.9157121 0.36731425 0
2.2979012 -1.9172585 0.47399649 0
2.3136115 -1.9310514 0.58578366 0
2.3407078 -1.9550539 0.70409679 0
2.339015 -1.9550265 0.81683296 0
2.242089 -1.8793364 0.051065743 0
2.2693064 -1.9034992 0.15522847 0
2.2661624 -1.90221 0.25885254 0
2.2924969 -1.9249974 0.36755794 0
2.2972438 -1.9303509 0.47524795 0
2.3005078 -1.934464 0.58425713 0
2.3379996 -1.9673839 0.70544648 0
2.3321764 -1.9631793 0.81683296 0
2.2351859 -1.8875417 0.051065743 0
2.2611225 -1.9101201 0.1551238 0
2.2716813 -1.9203991 0.26024702 0
2.2808795 -1.9295408 0.36682677 0
2.3010471 -1.9472907 0.47743803 0
2.290745 -1.9399451 0.58349395 0
2.3281448 -1.9730135 0.70454669 0
2.334151 -1.9788039 0.81993878 0
2.2380555 -1.9027147 0.051275171 0
2.2498775 -1.9141186 0.15480977 0
2.2710321 -1.9334836 0.26094431 0
2.2729573 -1.9358065 0.36658302 0
2.2912288 -1.9527484 0.4768123 0
2.2962511 -1.9577209 0.5865469 0
2.315659 -1.9756634 0.70274711 0
2.3360448 -1.9944655 0.8230446 0
2.2344382 -1.9131166 0.05134498 0
2.2431822 -1.9219606 0.15480977 0
2.2600698 -1.9371139 0.26042137 0
2.2691996 -1.9463136 0.3670705 0
2.2799017 -1.9568746 0.47587368 0
2.2953618 -1.9708399 0.58807337 0
2.3102267 -1.9850048 0.703197 0
2.326139 -2.0000887 0.82200933 0
2.2232032 -1.9169871 0.051240265 0
2.2455323 -1.9376078 0.1554378 0
2.251786 -1.9436893 0.26024702 0
2.2699032 -1.9607109 0.36828917 0
2.2730567 -1.9648209 0.47587368 0
2.2884681 -1.9788401 0.58807337 0
2.3106518 -1.9994324 0.70544648 0
2.3089201 -1.9993442 0.81838584 0
2.218008 -1.9260467 0.051275171 0
2.2417705 -1.9480543 0.15564716 0
2.2404766 -1.9476166 0.25972411 0
2.2600498 -1.9660167 0.3678017 0
2.2736342 -1.9792285 0.47743803 0
2.269702 -1.9765021 0.58502042 0
2.3154118 -2.0177283 0.70904571 0
2.299015 -2.0048523 0.81735063 0
2.208261 -1.9311446 0.051205363 0
2.2349567 -1.9558679 0.15564716 0
2.2366626 -1.9580503 0.26007274 0
2.247201 -1.9686613 0.36682677 0
2.2726531 -1.9923615 0.47868952 0
2.2657411 -1.9870017 0.58578366 0
2.2981017 -2.0168006 0.70589644 0
2.2978089 -2.0179639 0.81942111 0
2.2105103 -1.9467709 0.051414788 0
2.2119737 -1.9487451 0.15449576 0
2.2432649 -1.9777037 0.26164153 0
2.2432923 -1.9791203 0.36731425 0
2.2645526 -1.9985801 0.47837666 0
2.2646773 -2.0000968 0.58731008 0
2.2866671 -2.0209386 0.70454669 0
2.3026831 -2.0358093 0.82356226 0
2.2070353 -1.9567436 0.051484596 0
2.2141221 -1.9644077 0.1551238 0
2.2348576 -1.9841994 0.26146722 0
2.244138 -1.9931394 0.36853293 0
2.2531333 -2.0025356 0.47743803 0
2.2668359 -2.0154226 0.58959985 0
2.2843206 -2.0323966 0.70589644 0
2.2926772 -2.0412657 0.82252699 0
2.1986997 -1.9631041 0.051449694 0
2.2150435 -1.9783915 0.15564716 0
2.2223234 -1.9862885 0.26076996 0
2.2460446 -2.0089011 0.36999539 0
2.2435358 -2.0073621 0.4768123 0
2.262712 -2.0259421 0.59036303 0
2.2801151 -2.0429585 0.70679623 0
2.2772641 -2.0411208 0.81942111 0
2.1906905 -1.9690475 0.051414788 0
2.215549 -1.9927894 0.15617052 0
2.2138958 -1.9927009 0.26059568 0
2.2393706 -2.0163383 0.36999539 0
2.2394502 -2.0178258 0.47743803 0
2.2457733 -2.0242333 0.58769172 0
2.2791159 -2.0557292 0.70859581 0
2.2758617 -2.0542355 0.82149172 0
2.1812871 -1.9764831 0.051379886 0
2.2093606 -2.0026233 0.15627518 0
2.2121308 -2.0065413 0.2612929 0
2.2239091 -2.0186405 0.36877668 0
2.2404606 -2.0343773 0.47931525 0
2.2419887 -2.0371931 0.58883661 0
2.267962 -2.0622396 0.70769602 0
2.2736733 -2.0681584 0.82356226 0
2.1806302 -1.989096 0.051519506 0
2.1905556 -1.9995512 0.1554378 0
2.2154105 -2.0236571 0.2625131 0
2.2069447 -2.0166306 0.3670705 0
2.2333455 -2.0421855 0.47931525 0
2.2381177 -2.047267 0.58959985 0
2.2567985 -2.0658016 0.70634627 0
2.2692895 -2.0786922 0.82459748 0
2.1780918 -2.0007544 0.05162422 0
2.1809719 -2.0041015 0.15522847 0
2.2057545 -2.0282953 0.26216447 0
2.2144992 -2.0377636 0.36950788 0
2.2236545 -2.0469046 0.47868952 0
2.238178 -2.0617173 0.59150791 0
2.2510066 -2.0749876 0.70679623 0
2.2680645 -2.0914445 0.82666808 0
2.1729131 -2.0093236 0.051659122 0
2.1812923 -2.0184848 0.15575182 0
2.1913517 -2.0292139 0.2612929 0
2.2164676 -2.05319 0.37097031 0
2.2135985 -2.0519686 0.47806379 0
2.2284493 -2.0664585 0.59074467 0
2.2512555 -2.0890687 0.70904571 0
2.2550879 -2.0940902 0.82459748 0
2.1614957 -2.0128078 0.051554412 0
2.1844616 -2.0356183 0.15648453 0
2.1875253 -2.0391867 0.26164153 0
2.2034807 -2.0554981 0.36999539 0
2.2150862 -2.0677705 0.47994098 0
2.2183528 -2.0715449 0.58998144 0
2.2539163 -2.1062279 0.71219504 0
2.2491753 -2.1032689 0.82511514 0
2.1544566 -2.0203407 0.051554412 0
2.1758859 -2.0418642 0.15637985 0
2.1843936 -2.0512824 0.26216447 0
2.1905048 -2.0577407 0.3690204 0
2.2107332 -2.078196 0.48056671 0
2.2107453 -2.0796616 0.58998144 0
2.2405059 -2.1091321 0.71039546 0
2.2502584 -2.1190536 0.82822096 0
2.1499445 -2.0309701 0.05162422 0
2.1640334 -2.0457094 0.15606584 0
2.1801152 -2.0616324 0.2625131 0
2.1858318 -2.0684841 0.36950788 0
2.2059703 -2.0890014 0.48119247 0
2.2105989 -2.0941167 0.59188956 0
2.23313 -2.1169398 0.71039546 0
2.250886 -2.1352642 0.83132678 0
2.1500862 -2.0453537 0.051798742 0
2.1554329 -2.0518739 0.15596117 0
2.1772342 -2.0733519 0.26303601 0
2.1872208 -2.0843184 0.37097031 0
2.1929464 -2.0912359 0.47994098 0
2.2132194 -2.1113062 0.59456086 0
2.2229073 -2.1220307 0.7094956 0
2.2406249 -2.1404395 0.83029151 0
2.1414893 -2.0514631 0.051763836 0
2.155827 -2.0659196 0.15648453 0
2.1642315 -2.0754232 0.26233879 0
2.1827962 -2.0946896 0.37145779 0
2.1888497 -2.1012325 0.48056671 0
2.2030044 -2.1162987 0.59379762 0
2.2228839 -2.136142 0.71174508 0
2.2279446 -2.1425014 0.82822096 0
2.1289172 -2.0530009 0.05162422 0
2.1575887 -2.0813773 0.15711255 0
2.1544704 -2.0798211 0.26199016 0
2.175838 -2.1019163 0.37145779 0
2.1818697 -2.1084793 0.48056671 0
2.1945632 -2.1222279 0.59341598 0
2.2213905 -2.1489215 0.71354473 0
2.2208276 -2.1498778 0.82822096 0
2.1235321 -2.0614419 0.051659122 0
2.1445801 -2.083329 0.15669388 0
2.1575634 -2.096674 0.26321036 0
2.1631634 -2.1035845 0.37048283 0
2.1844065 -2.1257265 0.48275682 0
2.1861067 -2.1281242 0.59303439 0
2.2152719 -2.1580222 0.71399468 0
2.2216096 -2.1657083 0.83132678 0
2.1191835 -2.0716379 0.051728934 0
2.1315837 -2.0852158 0.15627518 0
2.1587756 -2.1125534 0.26425621 0
2.158644 -2.1139002 0.37097031 0
2.1783838 -2.1347208 0.48306966 0
2.1856744 -2.1426139 0.59494245 0
2.2007697 -2.1589184 0.71174508 0
2.2195508 -2.1788633 0.83339739 0
2.1247647 -2.0916481 0.052043077 0
2.1257148 -2.0940454 0.15637985 0
2.14855 -2.1172793 0.26390758 0
2.1583192 -2.1283917 0.37218902 0
2.1638887 -2.1353745 0.48150533 0
2.1837711 -2.1557472 0.59646893 0
2.1946065 -2.1679568 0.71219504 0
2.2119317 -2.1865976 0.83339739 0
2.1146102 -2.0962367 0.051973268 0
2.1226461 -2.1056726 0.15669388 0
2.1379473 -2.1223323 0.26355895 0
2.1565106 -2.1415074 0.37316394 0
2.1564217 -2.1429148 0.48150533 0
2.1758552 -2.1637368 0.59646893 0
2.1921713 -2.1814845 0.71399468 0
2.1988089 -2.1888535 0.83132678 0
2.1040828 -2.1011469 0.05190346 0
2.1304545 -2.1289678 0.15784526 0
2.1248896 -2.1241479 0.2628617 0
2.1486471 -2.1493971 0.37316394 0
2.1541374 -2.1563942 0.48275682 0
2.16274 -2.1657615 0.59494245 0
2.1928022 -2.1973994 0.71669406 0
2.1934998 -2.1996336 0.83236206 0
2.0967357 -2.1084788 0.05190346 0
2.1201944 -2.133558 0.15763591 0
2.1244829 -2.1386199 0.2637333 0
2.1327403 -2.1484315 0.37170154 0
2.1549437 -2.1723146 0.48463401 0
2.1551669 -2.1732976 0.59494245 0
2.1851187 -2.2050407 0.71669406 0
2.1939642 -2.2155132 0.83546793 0
2.1006036 -2.1271679 0.052182697 0
2.1060922 -2.1334703 0.15711255 0
2.1198034 -2.1488595 0.2640819 0
2.128015 -2.1586907 0.37218902 0
2.1491151 -2.180856 0.48494691 0
2.1530776 -2.186403 0.59646893 0
2.17506 -2.2094972 0.71579427 0
2.1879601 -2.2241535 0.8359856 0
2.093538 -2.1341219 0.052182697 0
2.0976074 -2.1390166 0.15700789 0
2.1182437 -2.1615691 0.26477915 0
2.1264002 -2.1714084 0.37316394 0
2.1377256 -2.1837358 0.48400828 0
2.154053 -2.2019515 0.5987587 0
2.1677213 -2.2166977 0.71579427 0
2.1805725 -2.2313969 0.8359856 0
2.089241 -2.1439171 0.052252505 0
2.0943081 -2.1506183 0.1573219 0
2.1013355 -2.1585882 0.26355895 0
2.1371825 -2.1969454 0.37633255 0
2.1273363 -2.1883516 0.48338255 0
2.146739 -2.2090824 0.5987587 0
2.1694734 -2.2340372 0.71894354 0
2.1700795 -2.2362223 0.83495027 0
2.0761819 -2.1454487 0.052112885 0
2.1062264 -2.1780162 0.15878731 0
2.1058702 -2.1791699 0.26512775 0
2.1267424 -2.2015369 0.37584507 0
2.1279163 -2.2042916 0.48525977 0
2.1359017 -2.2141097 0.5979954 0
2.1626234 -2.2433765 0.71939349 0
2.1649413 -2.2465658 0.8359856 0
2.0683048 -2.1530435 0.052112885 0
2.0885472 -2.1756353 0.15805461 0
2.106528 -2.195133 0.26617363 0
2.106293 -2.1964221 0.37365144 0
2.1252899 -2.2177806 0.48651123 0
2.1308763 -2.2243874 0.5987587 0
2.1574745 -2.2537272 0.72029328 0
2.1620345 -2.2600694 0.83805609 0
2.0690582 -2.168932 0.052322313 0
2.0781839 -2.1800213 0.15784526 0
2.1029766 -2.2067997 0.26669657 0
2.0999823 -2.2051985 0.37389517 0
2.1188972 -2.2266169 0.48682413 0
2.1271579 -2.2360792 0.59990352 0
2.1428812 -2.2541826 0.71804374 0
2.1594543 -2.273205 0.84012663 0
2.069726 -2.1848514 0.052531745 0
2.0636964 -2.1800101 0.1573219 0
2.100738 -2.2199154 0.2673938 0
2.0990915 -2.219727 0.37511387 0
2.1043282 -2.2268212 0.48525977 0
2.1287773 -2.2534811 0.60257488 0
2.1403503 -2.2673171 0.71984333 0
2.1541574 -2.2835395 0.84116197 0
2.0620868 -2.1920629 0.052531745 0
2.0711219 -2.2032077 0.15847328 0
2.0847902 -2.2185235 0.26634794 0
2.1008427 -2.2371702 0.37682006 0
2.1005974 -2.2384741 0.48619837 0
2.1208982 -2.2608981 0.60257488 0
2.1350887 -2.2776182 0.72074318 0
2.1422114 -2.2868156 0.83960903 0
2.043884 -2.1872005 0.052252505 0
2.0610781 -2.2071443 0.15826395 0
2.0692642 -2.216686 0.26530206 0
2.0920587 -2.2426729 0.3765763 0
2.0985506 -2.2512076 0.48744985 0
2.113389 -2.2679188 0.60257488 0
2.1315079 -2.288964 0.72209287 0
2.1346161 -2.2939067 0.83960903 0
2.0348766 -2.1928558 0.052217599 0
2.0615094 -2.2231123 0.15889199 0
2.0696411 -2.2326629 0.26634794 0
2.0788214 -2.244137 0.37560135 0
2.098731 -2.2672169 0.48932707 0
2.1027927 -2.2723999 0.60181159 0
2.1301203 -2.3035445 0.72434241 0
2.1344624 -2.3098569 0.84271485 0
2.0394053 -2.2131805 0.052531745 0
2.0429132 -2.2185411 0.15805461 0
2.0807259 -2.260396 0.26878831 0
2.072319 -2.2528408 0.37584507 0
2.0894673 -2.2730749 0.48901421 0
2.1068032 -2.292737 0.60524619 0
2.1141582 -2.3023534 0.72164297 0
2.1342232 -2.325834 0.84582067 0
2.0343673 -2.2232363 0.052601553 0
2.0418959 -2.2330282 0.15857796 0
2.0647573 -2.2588217 0.26774243 0
2.0711365 -2.2673891 0.37706378 0
2.0775247 -2.2759776 0.48807558 0
2.0974636 -2.2986269 0.60486454 0
2.1087346 -2.3125992 0.72254276 0
2.0212152 -2.2244041 0.052461933 0
2.0358222 -2.2412655 0.15868263 0
2.0541818 -2.2630649 0.2673938 0
2.0752125 -2.2878377 0.37925744 0
2.0712929 -2.284318 0.48838848 0
2.0894275 -2.3059344 0.60486454 0
2.1058815 -2.3257246 0.72434241 0
2.0151677 -2.232579 0.052496839 0
2.0400262 -2.2617061 0.15962468 0
2.0476041 -2.2717011 0.26756814 0
2.0596414 -2.2858584 0.37779501 0
2.0725589 -2.3018103 0.49057853 0
2.0830827 -2.3143096 0.60524619 0
2.1059766 -2.341388 0.72704178 0
2.0294538 -2.2658379 0.15941535 0
2.0387304 -2.2769945 0.2673938 0
2.0503261 -2.2915547 0.37755126 0
2.0658283 -2.3105032 0.49089143 0
2.0684497 -2.3142478 0.60333806 0
2.0188775 -2.2699232 0.15920599 0
2.0409596 -2.2963653 0.26878831 0
2.0449517 -2.3016658 0.37803873 0
2.0603735 -2.3206546 0.49151716 0
2.0755892 -2.3394363 0.60791749 0
2.0122635 -2.2784536 0.15931067 0
2.0302949 -2.3004882 0.26843968 0
2.043067 -2.3165894 0.37925744 0
2.047035 -2.3219051 0.49026567 0
2.0086486 -2.2896183 0.15962468 0
2.0160878 -2.2997169 0.26756814 0
2.0392978 -2.327831 0.37998864 0
2.0445299 -2.334625 0.49151716 0
2.0111392 -2.3086636 0.16046207 0
2.0110674 -2.3093951 0.26791674 0
2.0328705 -2.3360782 0.38023239 0
2.0389605 -2.3447287 0.49214289 0
2.0069878 -2.3202014 0.16077606 0
2.0069036 -2.3209221 0.26843968 0
2.0221078 -2.3401561 0.37974492 0
1.984562 -2.3105268 0.15962468 0
2.007875 -2.3384948 0.26965985 0
2.013927 -2.3472004 0.37974492 0
1.9855571 -2.3280773 0.16035739 0
2.0018754 -2.348871 0.27000847 0
2.0147328 -2.3647931 0.38145107 0
1.9825813 -2.3410909 0.16077606 0
1.989803 -2.3512821 0.26948556 0
1.9735214 -2.3461242 0.1606714 0
1.9794307 -2.3548172 0.26913694 0
1.9730021 -2.3621962 0.16129944 0
1.9818267 -2.3736033 0.27053142 0
1.9592319 -2.3632612 0.16088074 0
1.9492879 -2.3688841 0.16077606 0
1.9435344 -2.3787675 0.16098543 0
