# .PCD v0.7 - Point Cloud Data file format
VERSION 0.7
FIELDS x y z rgba
SIZE 4 4 4 4
TYPE F F F U
COUNT 1 1 1 1
WIDTH 496
HEIGHT 1
VIEWPOINT 0 0 0 1 0 0 0
POINTS 496
DATA ascii
4.1623721 -2.5000167 0.42479706 0
4.1139317 -2.4728768 0.58936024 0
4.1445045 -2.506048 0.084539458 0
4.1317458 -2.5003035 0.25309673 0
4.0758729 -2.4713538 0.75495279 0
4.1482315 -2.5191901 -0.084713981 0
4.1113882 -2.5066483 0.084050797 0
4.1052618 -2.5058625 0.4207879 0
4.0808849 -2.4929383 0.58716655 0
4.0756483 -2.4907167 0.75651717 0
4.1217961 -2.531781 0.084434748 0
4.115891 -2.530133 0.2532014 0
4.1066718 -2.5264416 0.42183378 0
4.0709047 -2.5054169 0.58692282 0
4.0669298 -2.5049279 0.75651717 0
4.1407547 -2.554388 -0.084923409 0
4.1231351 -2.5524688 0.084644176 0
4.0951495 -2.5371215 0.25246868 0
4.0898037 -2.5347974 0.42096224 0
4.0722556 -2.5258896 0.58838522 0
4.0447345 -2.5107746 0.75401419 0
4.1131325 -2.5572121 -0.084539458 0
4.1057172 -2.561553 0.084469646 0
4.0930448 -2.5556321 0.25288737 0
4.0691023 -2.5416698 0.41974208 0
4.0701475 -2.5442982 0.58936024 0
4.0359459 -2.524878 0.75401419 0
4.1007919 -2.5694306 -0.084469646 0
4.0865932 -2.5694826 0.084260218 0
4.0828571 -2.5681279 0.2527827 0
4.0602055 -2.5558581 0.41974208 0
4.0494838 -2.5510833 0.58765399 0
4.0375776 -2.5445671 0.75589144 0
4.0956311 -2.58515 -0.084539458 0
4.0696039 -2.5776701 0.084085695 0
4.0772414 -2.5845022 0.25299203 0
4.0529413 -2.5710824 0.41991636 0
4.0309463 -2.558116 0.58619159 0
4.0286708 -2.5586455 0.75589144 0
4.0899563 -2.6015773 -0.084609263 0
4.0706944 -2.5983152 0.084295124 0
4.0496807 -2.5868921 0.25184065 0
4.0511084 -2.5887995 0.42061362 0
4.023664 -2.5732403 0.58643532 0
4.0213785 -2.5737572 0.75620425 0
4.0791664 -2.6147587 -0.084574364 0
4.071691 -2.6189995 0.084504552 0
4.0456638 -2.6042554 0.25215468 0
4.0365677 -2.6003933 0.42009068 0
4.0230002 -2.5926464 0.58765399 0
3.9941094 -2.5760014 0.75276273 0
4.0616164 -2.6235569 -0.084399842 0
4.0419302 -2.6208501 0.084085695 0
4.0348735 -2.6172743 0.25205001 0
4.0224528 -2.611213 0.41956773 0
4.0168004 -2.6095374 0.5881415 0
3.9850934 -2.5899282 0.75276273 0
4.0457296 -2.6333549 -0.084260218 0
4.0265203 -2.6298654 0.083946079 0
4.025713 -2.6313429 0.25205001 0
4.0049767 -2.6197853 0.41869619 0
4.0064635 -2.6217561 0.58789778 0
3.9793339 -2.6059873 0.75338852 0
4.0432019 -2.6518481 -0.084399842 0
4.0139751 -2.6417055 0.083876267 0
4.0186324 -2.6457765 0.25215468 0
3.997931 -2.6341481 0.41887048 0
3.9840293 -2.6269832 0.58594781 0
3.9772658 -2.6235197 0.75463998 0
4.0410595 -2.6696503 -0.084539458 0
4.0168595 -2.6627364 0.084120601 0
4.0010509 -2.6542673 0.25163129 0
4.0003309 -2.6558008 0.42009068 0
3.975296 -2.6401801 0.58594781 0
3.9680836 -2.637387 0.75463998 0
3.9449098 -2.6229768 0.92084426 0
4.021728 -2.6770916 -0.08433003 0
4.0042152 -2.67452 0.084050797 0
3.9917614 -2.6682174 0.25163129 0
3.9815645 -2.6624069 0.41904479 0
3.9677057 -2.6551452 0.58619159 0
3.9424405 -2.6402302 0.75151128 0
3.9275746 -2.6312678 0.91893619 0
4.0057158 -2.6866579 -0.084190413 0
4.0031495 -2.6940634 0.084225312 0
3.9857368 -2.6843667 0.25184065 0
3.9639852 -2.6707227 0.41817325 0
3.9666426 -2.6745269 0.58741027 0
3.9364748 -2.6561854 0.75213701 0
3.9118571 -2.6405683 0.91740966 0
3.9946561 -2.6995044 -0.0841555 0
3.9821355 -2.7001648 0.083980985 0
3.9779949 -2.6993845 0.25194532 0
3.9579351 -2.6867814 0.41852185 0
3.9474308 -2.681664 0.58594781 0
3.928813 -2.671021 0.75244987 0
3.891252 -2.6464782 0.91473836 0
3.9885149 -2.7156832 -0.084225312 0
3.9660816 -2.7095363 0.083841361 0
3.9718454 -2.7155085 0.25215468 0
3.9518216 -2.7028306 0.41887048 0
3.9347696 -2.6931844 0.58546036 0
3.9243546 -2.6880679 0.75338852 0
3.9014246 -2.6733618 0.91931778 0
3.9790111 -2.7295892 -0.084225312 0
3.9664829 -2.7301672 0.084050797 0
3.9545934 -2.723001 0.25163129 0
3.9440033 -2.7177389 0.41904479 0
3.9220762 -2.704649 0.58497292 0
3.9186711 -2.70331 0.75401419 0
3.8953004 -2.6891949 0.92008096 0
3.9715824 -2.7439055 -0.084260218 0
3.9590507 -2.7444444 0.084085695 0
3.9385002 -2.732235 0.25121263 0
3.9344926 -2.7314894 0.41904479 0
3.9130857 -2.7176402 0.58497292 0
3.8962343 -2.7079532 0.75151128 0
3.9537742 -2.7520401 -0.084085695 0
3.9461677 -2.7559576 0.084015884 0
3.9305758 -2.7471101 0.25131726 0
3.9172492 -2.7388136 0.41817325 0
3.9133344 -2.738111 0.58643532 0
3.8835216 -2.7192712 0.75088555 0
3.9392319 -2.7623804 -0.083980985 0
3.92344 -2.7605102 0.083736651 0
3.9274952 -2.7654133 0.25173599 0
3.9060359 -2.7513232 0.41799891 0
3.9021308 -2.7506108 0.58619159 0
3.8836906 -2.7396426 0.75276273 0
3.9377317 -2.781883 -0.0841555 0
3.9186747 -2.7776577 0.083841361 0
3.9166739 -2.7772667 0.25163129 0
3.8947833 -2.7637882 0.41782463 0
3.8827941 -2.7573187 0.58472919 0
3.8729744 -2.7513623 0.75244987 0
3.9284847 -2.7949259 -0.0841555 0
3.915952 -2.7952843 0.083980985 0
3.8955791 -2.782795 0.2508986 0
3.8948374 -2.7843184 0.41887048 0
3.8704 -2.7678702 0.58424169 0
3.8617396 -2.7637148 0.75213701 0
3.9219558 -2.8109517 -0.084225312 0
3.9094181 -2.8112714 0.084050797 0
3.8955688 -2.8033757 0.25152662 0
3.8855827 -2.7972193 0.41887048 0
3.8655462 -2.7848444 0.58497292 0
3.8472621 -2.7737122 0.75119835 0
3.9007709 -2.8164303 -0.083980985 0
3.896342 -2.8225543 0.083980985 0
3.882525 -2.8146122 0.25131726 0
3.8645046 -2.8025777 0.41765031 0
3.8654416 -2.8053162 0.58643532 0
3.8311636 -2.7824817 0.74994689 0
3.8844476 -2.8253248 -0.083841361 0
3.8767736 -2.8290653 0.083771549 0
3.8823545 -2.8352153 0.25194532 0
3.8530898 -2.8148749 0.41747603 0
3.8524206 -2.8164489 0.58594781 0
3.8262103 -2.7993374 0.75088555 0
3.8810134 -2.8435941 -0.083980985 0
3.8668747 -2.8425806 0.083771549 0
3.8724337 -2.8487499 0.25194532 0
3.8459554 -2.8313406 0.41782463 0
3.8329754 -2.8228166 0.58448541 0
3.8259566 -2.8197076 0.75276273 0
3.8758907 -2.8606868 -0.084085695 0
3.8596442 -2.8591149 0.083841361 0
3.8443177 -2.8498402 0.25079393 0
3.8392498 -2.8471217 0.41817325 0
3.8194158 -2.83448 0.58399796 0
3.8092527 -2.8290007 0.75151128 0
3.8310876 -2.8462546 0.92771345 0
3.871798 -2.879647 -0.084225312 0
3.8528454 -2.8749619 0.083911166 0
3.8407474 -2.8680222 0.25121263 0
3.83248 -2.8628905 0.41852185 0
3.8190377 -2.8549263 0.58546036 0
3.7946093 -2.8387303 0.75057268 0
3.8368473 -2.8713727 0.93152958 0
3.8473184 -2.8823535 -0.083911166 0
3.8427863 -2.8883932 0.083911166 0
3.8280232 -2.8783422 0.25100327 0
3.8160954 -2.871459 0.41782463 0
3.8090487 -2.8682401 0.58546036 0
3.7788637 -2.846544 0.74932122 0
3.8032849 -2.8670216 0.92580527 0
3.834547 -2.8926876 -0.083841361 0
3.8268094 -2.8962934 0.083771549 0
3.828011 -2.8982542 0.25163129 0
3.8017883 -2.8804882 0.41730168 0
3.7963529 -2.8784568 0.58497292 0
3.7835674 -2.8698032 0.75213701 0
3.7734272 -2.8641872 0.92084426 0
3.8313031 -2.9102252 -0.083980985 0
3.8171837 -2.9089675 0.083771549 0
3.8099303 -2.9055431 0.25110796 0
3.7985513 -2.8979137 0.41799891 0
3.7804751 -2.8862119 0.58399796 0
3.7766669 -2.8853915 0.75276273 0
3.773268 -2.8838377 0.92313397 0
3.8290615 -2.929657 -0.0841555 0
3.8101792 -2.92471 0.083841361 0
3.7950132 -2.9151742 0.25079393 0
3.8037007 -2.9239593 0.41974208 0
3.7750983 -2.9030209 0.58472919 0
3.7603102 -2.893738 0.75151128 0
3.7455623 -2.8844714 0.91893619 0
3.8156443 -2.9405637 -0.084085695 0
3.8025973 -2.9411013 0.083911166 0
3.7858825 -2.9302864 0.2508986 0
3.7777171 -2.9250212 0.41799891 0
3.7644329 -2.9168379 0.58472919 0
3.7403121 -2.9002385 0.74963403 0
3.7447786 -2.904748 0.92122585 0
3.7922053 -2.9447172 -0.083806455 0
3.7891529 -2.9518998 0.083841361 0
3.7772059 -2.9447119 0.25100327 0
3.7690554 -2.9394152 0.41817325 0
3.7620528 -2.9360666 0.58594781 0
3.7363932 -2.9181397 0.75088555 0
3.726881 -2.9117587 0.91931778 0
3.7882042 -2.9628649 -0.083946079 0
3.7741063 -2.961405 0.083736651 0
3.7700458 -2.9603457 0.25121263 0
3.7509377 -2.9463999 0.41730168 0
3.7517812 -2.9491808 0.58594781 0
3.7261841 -2.9311647 0.75088555 0
3.7089803 -2.9186797 0.91740966 0
3.7809803 -2.978545 -0.084015884 0
3.7574701 -2.9696014 0.083597034 0
3.7581227 -2.972249 0.25110796 0
3.7468798 -2.9644201 0.41799891 0
3.729013 -2.9524014 0.58399796 0
3.7190266 -2.9466076 0.75151128 0
3.6987696 -2.9316084 0.91740966 0
3.7736928 -2.994211 -0.084085695 0
3.7549043 -2.9889262 0.083771549 0
3.7388711 -2.9772301 0.25047991 0
3.7474167 -2.9861729 0.41921914 0
3.7155805 -2.962925 0.58351046 0
3.7107787 -2.9601555 0.75182414 0
3.6900485 -2.9457266 0.91779137 0
3.7668676 -3.0092044 -0.0841555 0
3.7480931 -3.0038629 0.083841361 0
3.7300138 -2.9915125 0.25058457 0
3.7338626 -2.9967413 0.41887048 0
3.7088306 -2.9777153 0.58399796 0
3.691184 -2.9656668 0.74994689 0
3.6879106 -2.9640965 0.91969937 0
3.7392027 -3.0085459 -0.083771549 0
3.736028 -3.0156713 0.083806455 0
3.7325048 -3.0139036 0.25142196 0
3.7068577 -2.995332 0.41695309 0
3.7138493 -3.0031252 0.58643532 0
3.684401 -2.9803758 0.75057268 0
3.6729641 -2.9732461 0.91855454 0
3.7292056 -3.0209286 -0.083771549 0
3.7135925 -3.0179546 0.083527215 0
3.7219617 -3.0269139 0.25142196 0
3.69947 -3.0107687 0.41730168 0
3.6961732 -3.0091579 0.58521664 0
3.673975 -2.9932189 0.75057268 0
3.6615622 -2.9841695 0.91817296 0
3.7341321 -3.0465693 -0.084120601 0
3.7107723 -3.0372322 0.083701737 0
3.7051923 -3.0348251 0.25100327 0
3.6910071 -3.0242829 0.41747603 0
3.6795068 -3.0170069 0.58424169 0
3.6726668 -3.0135434 0.75244987 0
3.6465707 -2.9931958 0.91702807 0
3.71575 -3.0532379 -0.083946079 0
3.6970623 -3.0476232 0.083631933 0
3.6884134 -3.0426564 0.25058457 0
3.6875799 -3.0441327 0.41834757 0
3.6689529 -3.0298326 0.58424169 0
3.6621253 -3.026345 0.75244987 0
3.6401143 -3.0102947 0.91817296 0
3.7127721 -3.0725641 -0.084120601 0
3.6935587 -3.0675404 0.083806455 0
3.6854515 -3.0618947 0.25110796 0
3.6738672 -3.0544384 0.41799891 0
3.6639271 -3.0483379 0.58521664 0
3.6378741 -3.0277369 0.74963403 0
3.6341097 -3.0267518 0.91931778 0
3.6897359 -3.0752628 -0.083841361 0
3.6818323 -3.0784895 0.083771549 0
3.6747413 -3.0747402 0.25110796 0
3.6647108 -3.0685234 0.41817325 0
3.6583636 -3.0642953 0.58594781 0
3.6303105 -3.0429542 0.75025976 0
3.6240528 -3.0387862 0.91931778 0
3.68051 -3.0894091 -0.083876267 0
3.6680043 -3.0887463 0.083701737 0
3.6762042 -3.0978451 0.25194532 0
3.6438515 -3.0716698 0.41695309 0
3.6461279 -3.0757666 0.58570409 0
3.627214 -3.0619795 0.75182414 0
3.6059234 -3.045085 0.91740966 0
3.6742849 -3.1061108 -0.083980985 0
3.6633012 -3.106705 0.083841361 0
3.6562312 -3.1029043 0.25131726 0
3.6391828 -3.0895286 0.41765031 0
3.626292 -3.0807636 0.58424169 0
3.6195138 -3.0771811 0.75244987 0
3.5922813 -3.0551093 0.91664648 0
3.6664655 -3.1215105 -0.084050797 0
3.6493928 -3.1168759 0.083771549 0
3.6484146 -3.1182437 0.25152662 0
3.6374624 -3.1099813 0.41869619 0
3.6140077 -3.0921125 0.58399796 0
3.6117513 -3.0923662 0.7530756 0
3.5875595 -3.0727386 0.91817296 0
3.6540289 -3.132988 -0.084015884 0
3.6445546 -3.1348116 0.083911166 0
3.6269119 -3.121839 0.25079393 0
3.6250741 -3.1213593 0.41852185 0
3.6092074 -3.1098924 0.58497292 0
3.5934551 -3.098505 0.75151128 0
3.5827579 -3.0903718 0.91969937 0
3.6355031 -3.1391895 -0.083841361 0
3.6290555 -3.1435864 0.083806455 0
3.6250474 -3.1423297 0.25142196 0
3.6111457 -3.1313841 0.41817325 0
3.6073258 -3.1302776 0.58643532 0
3.579634 -3.108439 0.75088555 0
3.574913 -3.1054344 0.92046267 0
3.62905 -3.1557972 -0.083946079 0
3.6120329 -3.1509769 0.083666839 0
3.6140563 -3.1549647 0.25142196 0
3.597192 -3.1413486 0.41782463 0
3.5963771 -3.1428506 0.58643532 0
3.5747097 -3.1261165 0.75213701 0
3.5551856 -3.1101384 0.91817296 0
3.627038 -3.1763499 -0.0841555 0
3.601012 -3.1635661 0.083666839 0
3.6080749 -3.170887 0.25173599 0
3.5891972 -3.1565177 0.41817325 0
3.5749533 -3.1462049 0.58472919 0
3.5747018 -3.1470912 0.75432706 0
3.5443077 -3.1225293 0.91817296 0
3.6149852 -3.1870377 -0.084120601 0
3.5964928 -3.180789 0.083806455 0
3.5850191 -3.1728728 0.2508986 0
3.5841229 -3.1743109 0.41887048 0
3.5645003 -3.1580429 0.58472919 0
3.5651731 -3.1608603 0.75463998 0
3.5383396 -3.1381733 0.91931778 0
3.6008475 -3.1969819 -0.084050797 0
3.5973144 -3.203964 0.084085695 0
3.5813775 -3.1920121 0.25142196 0
3.5735769 -3.1861789 0.41887048 0
3.557899 -3.1744304 0.58546036 0
3.5423295 -3.1627607 0.75213701 0
3.5317564 -3.154429 0.92046267 0
3.5792305 -3.2002013 -0.083806455 0
3.5801542 -3.2111611 0.083946079 0
3.5731857 -3.2071619 0.25163129 0
3.5565033 -3.1933093 0.41817325 0
3.5527027 -3.1921375 0.58643532 0
3.5312679 -3.1751068 0.75213701 0
3.5251033 -3.1706762 0.92160755 0
3.5695243 -3.2140143 -0.083841361 0
3.5644715 -3.2196171 0.083841361 0
3.5649323 -3.2222941 0.25184065 0
3.5423791 -3.2030315 0.41782463 0
3.5415382 -3.2045193 0.58643532 0
3.5260208 -3.1927173 0.75338852 0
3.5052834 -3.1750538 0.91931778 0
3.564209 -3.2318273 -0.083980985 0
3.5517313 -3.2306941 0.083806455 0
3.552186 -3.2333736 0.25173599 0
3.5370696 -3.2207432 0.41852185 0
3.525929 -3.2128513 0.58570409 0
3.5236123 -3.212992 0.75526565 0
3.4956295 -3.1885934 0.91969937 0
3.5588131 -3.2496426 -0.084120601 0
3.5448563 -3.2471244 0.083911166 0
3.5349882 -3.2403548 0.25131726 0
3.5331478 -3.2398031 0.41939342 0
3.5103047 -3.2211127 0.58497292 0
3.5123754 -3.2252717 0.75526565 0
3.4888153 -3.2047606 0.92084426 0
3.5445042 -3.2593384 -0.084050797 0
3.5408497 -3.2662578 0.084085695 0
3.5163181 -3.2459013 0.25079393 0
3.5218172 -3.2521162 0.41939342 0
3.5077872 -3.2414298 0.58643532 0
3.4952946 -3.2321486 0.75401419 0
3.4862547 -3.2249181 0.92313397 0
3.5331051 -3.2716916 -0.084050797 0
3.5250316 -3.2745149 0.083980985 0
3.5172396 -3.2684205 0.25163129 0
3.5046079 -3.2589629 0.41869619 0
3.502264 -3.2590637 0.58741027 0
3.4845569 -3.2437215 0.75401419 0
3.4749768 -3.2370677 0.92313397 0
3.5207736 -3.2820258 -0.084015884 0
3.5083113 -3.2807231 0.083841361 0
3.5136745 -3.2868884 0.25215468 0
3.4937813 -3.2705665 0.41869619 0
3.4928861 -3.2720168 0.58765399 0
3.4694571 -3.2512066 0.7530756 0
3.4570622 -3.2418587 0.92122585 0
3.5084124 -3.2923148 -0.083980985 0
3.5017807 -3.2964511 0.083946079 0
3.4992719 -3.2963943 0.25194532 0
3.4858165 -3.284867 0.41904479 0
3.4704628 -3.2726865 0.58570409 0
3.4638336 -3.2687204 0.75432706 0
3.4491482 -3.2560003 0.92198914 0
3.5114331 -3.3182757 -0.08433003 0
3.4960575 -3.314157 0.084085695 0
3.4833972 -3.3044648 0.25163129 0
3.4838681 -3.3072231 0.42026496 0
3.4618967 -3.2875149 0.58619159 0
3.4524026 -3.2807915 0.75432706 0
3.4386141 -3.2699728 0.92237073 0
3.4896884 -3.320863 -0.084085695 0
3.4882257 -3.3310919 0.084190413 0
3.475594 -3.3213501 0.25194532 0
3.4708624 -3.3179872 0.42009068 0
3.4526927 -3.3029253 0.58667904 0
3.4346471 -3.2879593 0.7530756 0
3.428597 -3.283314 0.92275238 0
3.4688318 -3.3253284 -0.083876267 0
3.4765766 -3.3432477 0.084190413 0
3.468297 -3.3376164 0.25225934 0
3.4543726 -3.3265402 0.41956773 0
3.4525797 -3.3259757 0.58862901 0
3.4259932 -3.3026702 0.75370133 0
3.4306693 -3.309489 0.92656857 0
3.4643972 -3.3443606 -0.084050797 0
3.4591396 -3.3497987 0.084050797 0
3.4643824 -3.3560481 0.2527827 0
3.4404616 -3.3352039 0.41921914 0
3.4437988 -3.340771 0.58911645 0
3.4206929 -3.3195157 0.75495279 0
3.4126337 -3.314009 0.92466044 0
3.460458 -3.3627989 -0.084225312 0
3.445148 -3.3584595 0.083980985 0
3.4532344 -3.3675177 0.2527827 0
3.4365122 -3.3535519 0.42009068 0
3.4213393 -3.3410778 0.58716655 0
3.4153183 -3.3363624 0.75620425 0
3.3946059 -3.3184454 0.92275238 0
3.4482648 -3.3838716 0.08433003 0
3.4314833 -3.3697553 0.25205001 0
3.4267938 -3.3663251 0.42026496 0
3.4088259 -3.3510132 0.58692282 0
3.4064679 -3.3510346 0.75683004 0
3.3877807 -3.3338149 0.92389715 0
3.4335868 -3.3930764 0.084260218 0
3.4182794 -3.3803084 0.25194532 0
3.4178553 -3.3810689 0.42061362 0
3.4027507 -3.3684781 0.58789778 0
3.3891363 -3.3573439 0.75557858 0
3.3817008 -3.3511477 0.92542368 0
3.4217219 -3.405041 0.084260218 0
3.4177814 -3.4034944 0.2527827 0
3.403209 -3.3901668 0.42026496 0
3.396595 -3.3859413 0.58887273 0
3.3787949 -3.370549 0.75589144 0
3.3699825 -3.3629317 0.92542368 0
3.3999281 -3.4070559 0.084015884 0
3.4115212 -3.4210608 0.2532014 0
3.3907607 -3.4026172 0.42026496 0
3.3861561 -3.399183 0.58911645 0
3.3670092 -3.3823225 0.75589144 0
3.3548651 -3.3724771 0.92466044 0
3.3860102 -3.4180739 0.083980985 0
3.3939371 -3.4272721 0.2527827 0
3.3844686 -3.4200974 0.42096224 0
3.3680918 -3.4059253 0.5881415 0
3.366292 -3.4052935 0.75839436 0
3.3430727 -3.3841674 0.92466044 0
3.3830726 -3.4378352 0.084190413 0
3.3735507 -3.4305537 0.25215468 0
3.3780956 -3.4375751 0.42165947 0
3.3595612 -3.4199078 0.58862901 0
3.3543847 -3.4170234 0.75839436 0
3.3345821 -3.398037 0.92542368 0
3.3724492 -3.4510536 0.084225312 0
3.3643456 -3.4451666 0.25236401 0
3.3680694 -3.4501839 0.42183378 0
3.3559194 -3.4401393 0.59009141 0
3.3410575 -3.4272971 0.7580815 0
3.328181 -3.4152803 0.92695016 0
3.3645601 -3.4671099 0.08433003 0
3.3550806 -3.4597566 0.25257334 0
3.3490715 -3.454767 0.42096224 0
3.3494155 -3.4575362 0.59106636 0
3.3263257 -3.4361002 0.75745571 0
3.3148737 -3.4254663 0.92656857 0
3.3482742 -3.4745135 0.084225312 0
3.3505177 -3.478056 0.25309673 0
3.3328464 -3.4621301 0.4204393 0
