# .PCD v0.7 - Point Cloud Data file format
VERSION 0.7
FIELDS x y z rgba
SIZE 4 4 4 4
TYPE F F F U
COUNT 1 1 1 1
WIDTH 1272
HEIGHT 1
VIEWPOINT 0 0 0 1 0 0 0
POINTS 1272
DATA ascii
2.6751428 -1.0451467 -0.15051822 0
2.6322834 -1.0395385 -0.14832011 0
2.6148553 -1.0331833 -0.049076166 0
2.631633 -1.0451263 0.049425215 0
2.6319568 -1.0457867 0.14842479 0
2.6233239 -1.043417 0.24699937 0
2.6483946 -1.0544597 0.35000879 0
2.6572709 -1.0585312 0.45303425 0
2.6515384 -1.0573201 0.55487263 0
2.6750062 -1.0677606 0.66495532 0
2.6483772 -1.0571312 -0.049774267 0
2.6552269 -1.0604028 0.7661044 0
2.6095924 -1.0464051 0.049076166 0
2.595505 -1.0454916 -0.14664535 0
2.6660283 -1.07444 0.66360557 0
2.6224158 -1.0573956 -0.049355406 0
2.6207514 -1.0615135 0.049355406 0
2.6301446 -1.0663871 0.1487388 0
2.6438549 -1.0724833 0.24961405 0
2.6301203 -1.0679811 0.34854636 0
2.6443264 -1.0748249 0.45209566 0
2.6370053 -1.0723854 0.5533461 0
2.5936899 -1.0552981 -0.14675003 0
2.6351879 -1.0727185 0.65685707 0
2.6001885 -1.0590004 -0.049006358 0
2.6531265 -1.0811007 0.76765728 0
2.6151793 -1.0698981 0.049320504 0
2.607923 -1.0679923 0.14769208 0
2.6251581 -1.0761206 0.24821955 0
2.6263764 -1.0771554 0.34854636 0
2.6204572 -1.0757966 0.44865409 0
2.6348732 -1.0827898 0.55372775 0
2.5879571 -1.0640378 -0.14664535 0
2.6330407 -1.083111 0.65730697 0
2.5890789 -1.0650272 -0.048866738 0
2.6457636 -1.0888847 0.76662207 0
2.6020002 -1.0756562 0.049145978 0
2.6132188 -1.081362 0.14821544 0
2.6103408 -1.0807048 0.24717368 0
2.6224108 -1.0867743 0.34854636 0
2.6183214 -1.0861508 0.44896698 0
2.6201978 -1.087465 0.55143803 0
2.6082065 -1.0830221 -0.1480061 0
2.6274443 -1.0915478 0.65685707 0
2.5833116 -1.0737422 -0.048831832 0
2.6310523 -1.094124 0.76351619 0
2.5908482 -1.0816506 0.049006358 0
2.6094282 -1.0904773 0.14821544 0
2.6065526 -1.0898101 0.24717368 0
2.6112766 -1.0928562 0.3475714 0
2.6145141 -1.0952837 0.44896698 0
2.6109538 -1.094328 0.55029315 0
2.5970428 -1.0890304 -0.14758742 0
2.6415877 -1.1082518 0.66135609 0
2.5850792 -1.0850748 -0.04893655 0
2.6200926 -1.1003094 0.76144564 0
2.5741584 -1.0852499 0.048762023 0
2.6111259 -1.1019089 0.14852946 0
2.6082392 -1.1012269 0.24769662 0
2.6001318 -1.0988735 0.34659645 0
2.6161327 -1.1067123 0.44990557 0
2.603502 -1.1019049 0.54952991 0
2.5821905 -1.0934165 -0.14695938 0
2.6323204 -1.1151855 0.6600064 0
2.5831172 -1.0948724 -0.048971456 0
2.6197927 -1.1109569 0.76248091 0
2.5813942 -1.0989285 0.048971456 0
2.5833778 -1.1008383 0.14716873 0
2.6025462 -1.1095433 0.24752231 0
2.5981059 -1.108722 0.3468402 0
2.6068039 -1.1135097 0.44896698 0
2.6032503 -1.112529 0.55029315 0
2.5710125 -1.0992825 -0.1465407 0
2.614078 -1.1182357 0.65640718 0
2.5774412 -1.1030955 -0.04893655 0
2.6194503 -1.1216158 0.76351619 0
2.5814104 -1.1090614 0.049041264 0
2.5780716 -1.1081601 0.14706406 0
2.5988526 -1.1181674 0.24752231 0
2.5980611 -1.1189018 0.34732765 0
2.5996644 -1.1201303 0.44834125 0
2.6031525 -1.1227107 0.55105644 0
2.5783558 -1.1125499 -0.14716873 0
2.6085663 -1.1261258 0.65595728 0
2.5611115 -1.1056395 -0.048692215 0
2.6159139 -1.1298393 0.76351619 0
2.5813878 -1.1192064 0.049111072 0
2.5851808 -1.1219231 0.14769208 0
2.5803144 -1.1208818 0.24612781 0
2.5961573 -1.1283026 0.3475714 0
2.5884929 -1.1260459 0.44708973 0
2.5994151 -1.1313368 0.55105644 0
2.5819771 -1.1242834 -0.14758742 0
2.6119637 -1.1378829 0.65775687 0
2.5572364 -1.1145725 -0.048692215 0
2.604871 -1.1358752 0.76144564 0
2.5573144 -1.1193899 0.048727117 0
2.5757606 -1.1285359 0.14737807 0
2.5784082 -1.1302322 0.24630213 0
2.5885673 -1.1357627 0.3470839 0
2.5917811 -1.1382519 0.44834125 0
2.586463 -1.1364548 0.54914832 0
2.5743802 -1.1316819 -0.14737807 0
2.6061924 -1.146209 0.65730697 0
2.5606515 -1.1267138 -0.048831832 0
2.5938179 -1.1418475 0.75937515 0
2.5533915 -1.1283098 0.048727117 0
2.5900714 -1.145599 0.14842479 0
2.5815356 -1.1429011 0.24699937 0
2.5700667 -1.1383601 0.34513399 0
2.5950155 -1.1504945 0.44959271 0
2.5768969 -1.1435381 0.54800349 0
2.5592623 -1.1362472 -0.14675003 0
2.6073165 -1.1581267 0.65865672 0
2.5548756 -1.1348333 -0.048796929 0
2.5968778 -1.1540327 0.76144564 0
2.5674999 -1.1458102 0.049076166 0
2.5568769 -1.1416047 0.14675003 0
2.5811682 -1.1535312 0.24734798 0
2.5695014 -1.1493936 0.3456215 0
2.5837715 -1.1563181 0.44834125 0
2.5836396 -1.1573416 0.55029315 0
2.5479901 -1.1419065 -0.14633135 0
2.5908105 -1.1616399 0.65550733 0
2.5581975 -1.1470172 -0.04893655 0
2.5998838 -1.1662531 0.76351619 0
2.560039 -1.1526761 0.049006358 0
2.5528765 -1.1505229 0.14675003 0
2.5734937 -1.1608956 0.24699937 0
2.5656757 -1.1579078 0.3456215 0
2.5725186 -1.1620771 0.44708973 0
2.5833657 -1.1675202 0.55105644 0
2.5496488 -1.1528181 -0.14664535 0
2.5851688 -1.1694219 0.65505749 0
2.5432472 -1.150993 -0.048727117 0
2.5887578 -1.1721342 0.76144564 0
2.5578206 -1.1624326 0.049041264 0
2.5561166 -1.162735 0.14716873 0
2.5605628 -1.1652969 0.24612781 0
2.5778766 -1.1742628 0.34781513 0
2.5594597 -1.1669525 0.44552541 0
2.5739157 -1.1740862 0.54991156 0
2.5546942 -1.1658571 -0.14716873 0
2.5899346 -1.1824855 0.65730697 0
2.5319383 -1.1565403 -0.048587501 0
2.5723512 -1.1755427 0.75782222 0
2.5428417 -1.1663518 0.048831832 0
2.5574877 -1.1741505 0.14748274 0
2.5474267 -1.1700698 0.24525626 0
2.568351 -1.1807665 0.3470839 0
2.564343 -1.1800083 0.44708973 0
2.5519686 -1.1748539 0.54609537 0
2.5506091 -1.1747675 -0.14716873 0
2.5804815 -1.1890721 0.65595728 0
2.5351498 -1.16872 -0.048727117 0
2.5629692 -1.1820874 0.75626928 0
2.5278664 -1.1701806 0.048622403 0
2.5572047 -1.1843036 0.14769208 0
2.5559804 -1.1848202 0.24647643 0
2.551609 -1.1838762 0.34537774 0
2.5639997 -1.190169 0.44771552 0
2.547852 -1.1837548 0.54609537 0
2.5320039 -1.1769289 -0.14633135 0
2.5782914 -1.1984444 0.65640718 0
2.5366998 -1.1796501 -0.048831832 0
2.571296 -1.1962842 0.75989276 0
2.5348437 -1.1836332 0.048831832 0
2.5424061 -1.187705 0.14706406 0
2.5538421 -1.1941336 0.24665076 0
2.5404775 -1.1889653 0.34440279 0
2.5600388 -1.198665 0.44771552 0
2.5510232 -1.1955295 0.54762185 0
2.5244701 -1.183623 -0.14612199 0
2.5672452 -1.2036785 0.65460753 0
2.5363948 -1.1897539 -0.048901644 0
2.5638173 -1.2031631 0.75885749 0
2.5327139 -1.1928846 0.048866738 0
2.5346317 -1.1948692 0.14685471 0
2.5498681 -1.2025959 0.24665076 0
2.5508816 -1.2041625 0.34635273 0
2.5451229 -1.2025306 0.44583827 0
2.5505946 -1.2056605 0.54838508 0
2.5313644 -1.1971111 -0.14675003 0
2.559505 -1.2109658 0.65370774 0
2.5177667 -1.1917561 -0.048622403 0
2.5596018 -1.2121052 0.75885749 0
2.5339527 -1.2042935 0.048971456 0
2.5394635 -1.2079992 0.14737807 0
2.5312624 -1.2046398 0.24525626 0
2.5466628 -1.2130594 0.34635273 0
2.5373435 -1.2097071 0.44521254 0
2.5463705 -1.2145565 0.54838508 0
2.5235653 -1.2042196 -0.1465407 0
2.5517452 -1.2182134 0.65280795 0
2.5045691 -1.1962283 -0.048447877 0
2.5518692 -1.2193666 0.75782222 0
2.5135057 -1.205349 0.048657309 0
2.5406327 -1.2194488 0.14769208 0
2.5270419 -1.2134683 0.24525626 0
2.5388343 -1.2202218 0.34586522 0
2.5331054 -1.2185568 0.44521254 0
2.5297322 -1.2174778 0.54571378 0
2.5229454 -1.2147539 -0.14675003 0
2.5580111 -1.2321875 0.65550733 0
2.5075841 -1.2084363 -0.048587501 0
2.5406363 -1.224911 0.75575161 0
2.5074828 -1.2132446 0.048622403 0
2.5309682 -1.2256985 0.14737807 0
2.5263767 -1.2240192 0.24560487 0
2.5202703 -1.2221472 0.34391531 0
2.5359447 -1.2308416 0.446464 0
2.5201685 -1.2237281 0.5445689 0
2.5061142 -1.2174443 -0.14601734 0
2.550189 -1.2394055 0.65460753 0
2.5087459 -1.2198052 -0.048692215 0
2.548506 -1.2396873 0.75937515 0
2.5122178 -1.2263761 0.048796929 0
2.5141125 -1.228388 0.14664535 0
2.5256686 -1.2345805 0.24595349 0
2.5195553 -1.2326821 0.34440279 0
2.5316327 -1.2396863 0.446464 0
2.5229342 -1.2359726 0.54609537 0
2.4982622 -1.2244267 -0.14580798 0
2.5423477 -1.2465838 0.65370774 0
2.5080631 -1.2303163 -0.048762023 0
2.5424287 -1.2477247 0.75885749 0
2.5115092 -1.236905 0.048866738 0
2.511601 -1.2380396 0.14675003 0
2.519557 -1.2425081 0.24577919 0
2.5223575 -1.2449837 0.34537774 0
2.5131216 -1.2415162 0.44396105 0
2.5221243 -1.2465113 0.54685861 0
2.4975538 -1.2349105 -0.14601734 0
2.5292473 -1.2511305 0.65145826 0
2.4876232 -1.231081 -0.048447877 0
2.5415201 -1.258306 0.75989276 0
2.5071764 -1.2456641 0.048866738 0
2.5108407 -1.2485777 0.14695938 0
2.5062854 -1.246858 0.24490763 0
2.5197732 -1.2546656 0.3456215 0
2.5052369 -1.2485191 0.44333532 0
2.5142441 -1.2535558 0.54609537 0
2.4968023 -1.245404 -0.14622667 0
2.5300956 -1.262562 0.65280795 0
2.4851 -1.2406501 -0.048482787 0
2.5181012 -1.2576747 0.75419873 0
2.4920866 -1.2490323 0.048657309 0
2.5136082 -1.2609167 0.14737807 0
2.4947948 -1.2520244 0.24421038 0
2.5136044 -1.2625626 0.34537774 0
2.5114527 -1.2625799 0.44521254 0
2.5028372 -1.2587959 0.5445689 0
2.49244 -1.2541118 -0.14622667 0
2.5326357 -1.2748908 0.65460753 0
2.4843261 -1.251116 -0.048552595 0
2.5119708 -1.2655877 0.75368112 0
2.4877114 -1.2577236 0.048657309 0
2.5094128 -1.2692453 0.14737807 0
2.5028524 -1.2670243 0.24543057 0
2.4967864 -1.2650486 0.34367159 0
2.5090141 -1.2717943 0.44552541 0
2.4966772 -1.2666366 0.54418731 0
2.4791424 -1.2582848 -0.14570332 0
2.5264325 -1.2828414 0.6541577 0
2.4872956 -1.262969 -0.048692215 0
2.5249836 -1.2826602 0.75885749 0
2.4870901 -1.2677826 0.048727117 0
2.488955 -1.2698278 0.14643602 0
2.5001886 -1.2766593 0.24560487 0
2.4908099 -1.2724183 0.34342784 0
2.5133533 -1.285041 0.44708973 0
2.4994545 -1.2784851 0.54571378 0
2.4731779 -1.265589 -0.14559864 0
2.5134914 -1.286772 0.65190816 0
2.482872 -1.2716435 -0.048692215 0
2.5136137 -1.2879423 0.75678688 0
2.4844282 -1.2773707 0.048762023 0
2.4809556 -1.2766805 0.14622667 0
2.4923987 -1.2831193 0.24525626 0
2.4987054 -1.2874697 0.34513399 0
2.4965627 -1.2874687 0.44489968 0
2.5037003 -1.2917026 0.54762185 0
2.4722946 -1.2760464 -0.14580798 0
2.5089843 -1.2955379 0.65190816 0
2.4695346 -1.2757138 -0.048517693 0
2.5142515 -1.2993695 0.75833982 0
2.479954 -1.2860352 0.048762023 0
2.4818022 -1.2880932 0.1465407 0
2.4790635 -1.2872208 0.24438471 0
2.497719 -1.2980146 0.3456215 0
2.4920535 -1.2961755 0.44489968 0
2.4939513 -1.2977158 0.54647696 0
2.4713686 -1.2865131 -0.14601734 0
2.5113604 -1.3078886 0.65370774 0
2.4632931 -1.2834023 -0.048482787 0
2.4942825 -1.3001016 0.75368112 0
2.4577301 -1.2854165 0.048412975 0
2.4808297 -1.2986008 0.14675003 0
2.4745553 -1.2958666 0.24438471 0
2.4896562 -1.3048824 0.34513399 0
2.4840152 -1.3030313 0.44427395 0
2.4807141 -1.3018517 0.5445689 0
2.463326 -1.2932751 -0.14580798 0
2.5050545 -1.3157406 0.65325785 0
2.4570279 -1.2910627 -0.048447877 0
2.4897292 -1.3088003 0.75368112 0
2.4549968 -1.2949207 0.048447877 0
2.4780478 -1.3081851 0.14685471 0
2.4700167 -1.3044965 0.24438471 0
2.4745562 -1.307999 0.34367159 0
2.4881821 -1.3163128 0.44583827 0
2.47789 -1.3114215 0.54495054 0
2.4517362 -1.2981275 -0.1453893 0
2.4987242 -1.3235649 0.65280795 0
2.4578073 -1.3024405 -0.048552595 0
2.4936795 -1.3220075 0.75626928 0
2.4628203 -1.3100561 0.048692215 0
2.4593627 -1.3093184 0.14601734 0
2.4707236 -1.3159204 0.24490763 0
2.4664719 -1.3147614 0.34318411 0
2.4835722 -1.3249902 0.44583827 0
2.4715652 -1.3191385 0.5445689 0
2.44719 -1.3066778 -0.1453893 0
2.4872134 -1.3286061 0.65100831 0
2.4550097 -1.3119544 -0.048587501 0
2.4890497 -1.3307041 0.75626928 0
2.4599946 -1.3195902 0.048727117 0
2.4512577 -1.3160057 0.14580798 0
2.4678702 -1.3254794 0.24508193 0
2.4688613 -1.3271224 0.34415907 0
2.4667547 -1.3271 0.44364822 0
2.477318 -1.3333406 0.54685861 0
2.4426141 -1.315212 -0.1453893 0
2.480845 -1.336356 0.65055847 0
2.4380925 -1.3138756 -0.048343167 0
2.4843895 -1.3393843 0.75626928 0
2.4571319 -1.3291205 0.048762023 0
2.4554312 -1.3293087 0.14633135 0
2.4509649 -1.327444 0.24386176 0
2.4711947 -1.3395163 0.34513399 0
2.4586344 -1.3338186 0.44302243 0
2.4622958 -1.3363611 0.5445689 0
2.4485395 -1.3294486 -0.14601734 0
2.4744525 -1.3440775 0.65010852 0
2.4264634 -1.3185588 -0.048203547 0
2.466121 -1.3406668 0.75212818 0
2.4419444 -1.3319442 0.048552595 0
2.4595413 -1.3426565 0.14685471 0
2.4463165 -1.3359914 0.24386176 0
2.4699876 -1.3500384 0.3456215 0
2.4643617 -1.3480809 0.44489968 0
2.4541714 -1.3430628 0.54380566 0
2.4403801 -1.3360689 -0.14580798 0
2.48171 -1.3592595 0.65325785 0
2.4341216 -1.3337471 -0.048447877 0
2.4648139 -1.3511242 0.75316346 0
2.4372799 -1.3404601 0.048552595 0
2.4513402 -1.3493074 0.14664535 0
2.4503644 -1.3493277 0.24473332 0
2.4478748 -1.3490704 0.34318411 0
2.4631007 -1.358583 0.44552541 0
2.4477494 -1.350673 0.54342401 0
2.4322045 -1.3426489 -0.14559864 0
2.4752443 -1.366972 0.65280795 0
2.429451 -1.3422357 -0.048447877 0
2.4600828 -1.3597198 0.75316346 0
2.4413302 -1.3538085 0.048727117 0
2.434391 -1.3510716 0.14591266 0
2.4456394 -1.3578728 0.24473332 0
2.4431505 -1.357607 0.34318411 0
2.4583433 -1.3671725 0.44552541 0
2.4464509 -1.3611181 0.54418731 0
2.4205225 -1.3472453 -0.14517996 0
2.4585395 -1.3689677 0.64965868 0
2.4230042 -1.3497348 -0.048412975 0
2.4620717 -1.3720604 0.755234 0
2.4348443 -1.3613462 0.048692215 0
2.4316401 -1.360112 0.14601734 0
2.4408846 -1.3664014 0.24473332 0
2.4418604 -1.3680674 0.34367159 0
2.4434571 -1.3695222 0.44364822 0
2.4502463 -1.3744518 0.54609537 0
2.4210303 -1.3586187 -0.14549398 0
2.4537461 -1.3775412 0.64965868 0
2.4167712 -1.3567833 -0.048378069 0
2.4541392 -1.3783253 0.75419873 0
2.4338007 -1.3713762 0.048762023 0
2.430357 -1.3705539 0.14622667 0
2.4274247 -1.3700169 0.24386176 0
2.4424961 -1.3790854 0.34440279 0
2.4266229 -1.3712404 0.44145811 0
2.4422569 -1.3806372 0.54533213 0
2.4217267 -1.3695892 -0.14580798 0
2.4559486 -1.389509 0.65145826 0
2.4085398 -1.3632413 -0.048308261 0
2.4392266 -1.3811723 0.75109291 0
2.4063957 -1.3670229 0.048308261 0
2.4307673 -1.3819904 0.1465407 0
2.4159405 -1.3741189 0.24316452 0
2.4445679 -1.391531 0.34537774 0
2.4321201 -1.3855696 0.44333532 0
2.428894 -1.3842933 0.54342401 0
2.4134612 -1.3760557 -0.14559864 0
2.4561617 -1.4009699 0.65280795 0
2.4037666 -1.3716403 -0.048308261 0
2.4427793 -1.3944671 0.75368112 0
2.4050796 -1.3774021 0.048378069 0
2.4259284 -1.3904669 0.1465407 0
2.4214997 -1.3884903 0.24421038 0
2.4259219 -1.3921512 0.34342784 0
2.4341207 -1.3979859 0.44458681 0
2.4155359 -1.3878728 0.54151595 0
2.40518 -1.3824813 -0.1453893 0
2.4478779 -1.4075922 0.65190816 0
2.4024305 -1.3820169 -0.048378069 0
2.437897 -1.4029855 0.75368112 0
2.4019887 -1.3867888 0.048412975 0
2.4089544 -1.3919318 0.14580798 0
2.4200883 -1.3989286 0.24455902 0
2.4141746 -1.3966347 0.34245288 0
2.4309354 -1.4074639 0.44489968 0
2.4208696 -1.4022003 0.54380566 0
2.3916993 -1.3858619 -0.14486594 0
2.4378917 -1.4131963 0.65055847 0
2.4010518 -1.3924009 -0.048447877 0
2.4396687 -1.4153645 0.75575161 0
2.4075029 -1.4012001 0.048622403 0
2.4040811 -1.4003321 0.14580798 0
2.4134688 -1.4063648 0.24438471 0
2.4195733 -1.4110534 0.34391531 0
2.4191835 -1.4119579 0.44364822 0
2.4295237 -1.4185613 0.54685861 0
2.3937454 -1.3982315 -0.14528462 0
2.4312613 -1.4207143 0.65010852 0
2.3840923 -1.3937093 -0.048203547 0
2.4330459 -1.4228966 0.755234 0
2.402597 -1.4095954 0.048622403 0
2.4060676 -1.4127606 0.14622667 0
2.4016733 -1.4107442 0.24368747 0
2.424901 -1.4255269 0.34537774 0
2.4108348 -1.4183905 0.44302243 0
2.4144053 -1.4210584 0.5445689 0
2.3974555 -1.4116454 -0.14580798 0
2.4313242 -1.4321595 0.65145826 0
2.3809354 -1.403038 -0.048238453 0
2.4214072 -1.4274565 0.75316346 0
2.3838925 -1.40983 0.048343167 0
2.4062779 -1.4242026 0.1465407 0
2.3950198 -1.4181039 0.24351314 0
2.4062479 -1.4258866 0.34342784 0
2.4126654 -1.4308279 0.44427395 0
2.4026768 -1.4254707 0.54304242 0
2.3925133 -1.4200057 -0.14580798 0
2.4279861 -1.4416327 0.65190816 0
2.3829005 -1.4154253 -0.048378069 0
2.4197311 -1.4378737 0.75419873 0
2.3823922 -1.4201907 0.048412975 0
2.3944309 -1.4285003 0.14612199 0
2.3951879 -1.4295187 0.24403608 0
2.3944392 -1.4302057 0.34245288 0
2.4110472 -1.4412678 0.44489968 0
2.3943162 -1.4318339 0.54227924 0
2.3738303 -1.4201454 -0.14497061 0
2.4229391 -1.4500992 0.65190816 0
2.3813765 -1.4257891 -0.048447877 0
2.4146972 -1.4463115 0.75419873 0
2.3842764 -1.4326178 0.048552595 0
2.3825836 -1.4327327 0.14570332 0
2.3970122 -1.4419791 0.24473332 0
2.3894322 -1.4385551 0.34245288 0
2.4093854 -1.4517142 0.44552541 0
2.3943479 -1.4432232 0.54342401 0
2.3722794 -1.4304858 -0.14517996 0
2.4111879 -1.4545215 0.65010852 0
2.3780975 -1.4351262 -0.048482787 0
2.4129419 -1.4567286 0.755234 0
2.3843925 -1.4440393 0.048657309 0
2.3758595 -1.4400055 0.14559864 0
2.3919642 -1.4503372 0.24473332 0
2.3979728 -1.4551256 0.34440279 0
2.3907959 -1.4519126 0.44302243 0
2.3993628 -1.4576886 0.54571378 0
2.3706851 -1.4408324 -0.1453893 0
2.402766 -1.4609045 0.64920872 0
2.3628223 -1.4371834 -0.048273355 0
2.4094925 -1.4661466 0.75575161 0
2.3844578 -1.4554793 0.048762023 0
2.3742273 -1.4503723 0.14580798 0
2.3800867 -1.4545223 0.24403608 0
2.3996527 -1.46763 0.34537774 0
2.3857131 -1.4602493 0.44302243 0
2.3858881 -1.4609288 0.54380566 0
2.3690474 -1.4511853 -0.14559864 0
2.4009748 -1.4713192 0.65010852 0
2.3594964 -1.4464675 -0.048308261 0
2.396126 -1.4694985 0.75316346 0
2.3657374 -1.4554113 0.048482787 0
2.3796103 -1.4645185 0.14643602 0
2.3682091 -1.4586418 0.24333882 0
2.3860657 -1.4707894 0.34415907 0
2.3909461 -1.4743736 0.44489968 0
2.3740914 -1.4651241 0.54227924 0
2.3605685 -1.4573475 -0.1453893 0
2.3991404 -1.4817392 0.65100831 0
2.3648949 -1.4605887 -0.048517693 0
2.3895965 -1.476421 0.75264585 0
2.3523993 -1.457981 0.048308261 0
2.3727868 -1.4717635 0.14633135 0
2.3732598 -1.4732044 0.24438471 0
2.371057 -1.4724101 0.34269661 0
2.3891408 -1.4847959 0.44552541 0
2.370887 -1.4740252 0.54266083 0
2.3455467 -1.4588386 -0.14476126 0
2.3975229 -1.4917459 0.65190816 0
2.3580844 -1.4677782 -0.048482787 0
2.3893476 -1.4878163 0.75419873 0
2.3591678 -1.4735992 0.048552595 0
2.3574731 -1.4736849 0.14570332 0
2.3717401 -1.4831791 0.24473332 0
2.3642204 -1.4796249 0.34245288 0
2.3822694 -1.4920779 0.44521254 0
2.3740456 -1.4875042 0.5445689 0
2.3370557 -1.4648956 -0.14455192 0
2.3840458 -1.4949294 0.64965868 0
2.3529465 -1.4760004 -0.048482787 0
2.3923211 -1.5012822 0.75678688 0
2.3540096 -1.4818251 0.048552595 0
2.3523147 -1.4819051 0.14570332 0
2.3682339 -1.4925112 0.24490763 0
2.364078 -1.4910454 0.34318411 0
2.3686941 -1.4951127 0.44364822 0
2.3688385 -1.4957821 0.5445689 0
2.3386824 -1.4773113 -0.14497061 0
2.3755183 -1.50116 0.64875883 0
2.3410192 -1.4799306 -0.048343167 0
2.3821683 -1.5065261 0.755234 0
2.3555772 -1.494318 0.048692215 0
2.352186 -1.4933186 0.14601734 0
2.3546004 -1.4954281 0.24403608 0
2.3622096 -1.5014179 0.34367159 0
2.3534601 -1.4970106 0.44177097 0
2.3652594 -1.5050958 0.54495054 0
2.3469901 -1.4940459 -0.14580798 0
2.3735514 -1.5115365 0.64965868 0
2.3307788 -1.4848701 -0.048238453 0
2.3671203 -1.5086027 0.75212818 0
2.3351829 -1.4928377 0.048378069 0
2.3553712 -1.506902 0.1465407 0
2.3460097 -1.5014899 0.24368747 0
2.3602974 -1.511796 0.34415907 0
2.3548722 -1.5094806 0.44302243 0
2.3533807 -1.5091038 0.54342401 0
2.329993 -1.4946806 -0.14507528 0
2.3781011 -1.5261276 0.65235806 0
2.3339956 -1.4983985 -0.048412975 0
2.3553379 -1.5126805 0.75005764 0
2.3265958 -1.498814 0.048308261 0
2.348418 -1.5140322 0.14643602 0
2.3457773 -1.5129094 0.24421038 0
2.3416629 -1.5114137 0.34220913 0
2.3562264 -1.5219787 0.44427395 0
2.3464496 -1.5162442 0.54304242 0
2.3281159 -1.5049733 -0.14528462 0
2.3662138 -1.5301868 0.65055847 0
2.3287508 -1.5065364 -0.048412975 0
2.3597741 -1.5271906 0.75316346 0
2.3297362 -1.5123702 0.048482787 0
2.3297198 -1.5135158 0.14559864 0
2.3438232 -1.5232601 0.24455902 0
2.3397009 -1.5217431 0.34269661 0
2.3508992 -1.5301943 0.44427395 0
2.3411427 -1.5244255 0.54304242 0
2.3161545 -1.5087303 -0.14486594 0
2.3575928 -1.536309 0.64965868 0
2.323478 -1.5146561 -0.048412975 0
2.3609016 -1.5396397 0.755234 0
2.3294632 -1.5237774 0.048587501 0
2.3210804 -1.519451 0.1453893 0
2.3401585 -1.5325236 0.24473332 0
2.3410163 -1.5342532 0.34367159 0
2.3422399 -1.5362242 0.44364822 0
2.3489387 -1.5412045 0.54609537 0
2.3142133 -1.5189977 -0.14507528 0
2.3522158 -1.5445293 0.64965868 0
2.3081486 -1.5161701 -0.048203547 0
2.3555131 -1.5478712 0.755234 0
2.3224604 -1.5307988 0.048552595 0
2.3257658 -1.5341425 0.14601734 0
2.3264799 -1.5351964 0.24386176 0
2.3389595 -1.5446035 0.34415907 0
2.3302712 -1.5400345 0.4423967 0
2.3386316 -1.546146 0.54495054 0
2.3222239 -1.5358809 -0.14591266 0
2.3533108 -1.5570318 0.65145826 0
2.3128471 -1.5308402 -0.048412975 0
2.3436525 -1.5518178 0.75316346 0
2.3087738 -1.5333648 0.048378069 0
2.3270497 -1.5466738 0.14643602 0
2.3177886 -1.5411015 0.24351314 0
2.3368587 -1.5549579 0.34464651 0
2.3314581 -1.5525388 0.44364822 0
2.3283184 -1.5510347 0.54380566 0
2.3135245 -1.5417626 -0.14570332 0
2.354347 -1.5695608 0.65325785 0
2.3058257 -1.5377946 -0.048378069 0
2.3350072 -1.5578451 0.75212818 0
2.3017454 -1.5403028 0.048343167 0
2.3232963 -1.5558985 0.1465407 0
2.3206713 -1.5547274 0.24438471 0
2.3149285 -1.5520512 0.34220913 0
2.3309457 -1.5639695 0.44458681 0
2.31637 -1.5547762 0.54227924 0
2.2948635 -1.5409218 -0.14486594 0
2.3456187 -1.575596 0.65235806 0
2.3021038 -1.5469494 -0.048412975 0
2.3327615 -1.5681418 0.75316346 0
2.3063028 -1.5550352 0.048552595 0
2.3081892 -1.5568932 0.14591266 0
2.3168819 -1.5639335 0.24455902 0
2.3094966 -1.5601223 0.34220913 0
2.3241098 -1.5705844 0.44427395 0
2.3206861 -1.5694511 0.5445689 0
2.2944334 -1.5522803 -0.14517996 0
2.3339248 -1.5789979 0.65055847 0
2.295305 -1.553454 -0.048378069 0
2.3339474 -1.5802011 0.755234 0
2.3094049 -1.5682919 0.048727117 0
2.2980573 -1.5611718 0.14559864 0
2.3166256 -1.5749683 0.24508193 0
2.3141582 -1.5744721 0.34367159 0
2.3123567 -1.5738369 0.44302243 0
2.3235822 -1.5826641 0.54647696 0
2.294225 -1.5632545 -0.14549398 0
2.3238444 -1.5834368 0.64920872 0
2.2851837 -1.557678 -0.048273355 0
2.3286946 -1.5879323 0.755234 0
2.2975893 -1.5714259 0.048587501 0
2.3008347 -1.5748246 0.14612199 0
2.2998827 -1.5747625 0.24386176 0
2.3187494 -1.5888698 0.34513399 0
2.3035908 -1.5796647 0.4423967 0
2.315083 -1.5881398 0.54571378 0
2.2956154 -1.5753741 -0.14591266 0
2.323123 -1.5948477 0.65055847 0
2.273139 -1.5611172 -0.048133738 0
2.3167682 -1.5916753 0.75316346 0
2.2855036 -1.5748978 0.048447877 0
2.3035443 -1.5885156 0.14664535 0
2.2940955 -1.5831814 0.24386176 0
2.3115559 -1.5958266 0.34489027 0
2.3029382 -1.5910647 0.44333532 0
2.3011723 -1.5910317 0.54380566 0
2.2898259 -1.5837774 -0.14591266 0
2.3252745 -1.6088958 0.65280795 0
2.275898 -1.5747315 -0.048308261 0
2.3048444 -1.5953548 0.75109291 0
2.2764308 -1.5809824 0.048378069 0
2.2911468 -1.5923883 0.14622667 0
2.2918267 -1.5934544 0.24421038 0
2.2991734 -1.5997528 0.34391531 0
2.2970912 -1.5994946 0.44333532 0
2.2907717 -1.5956882 0.54266083 0
2.2744517 -1.5849094 -0.14528462 0
2.3228414 -1.6192315 0.65370774 0
2.2783124 -1.5887817 -0.048482787 0
2.311657 -1.6126343 0.755234 0
2.2823675 -1.596944 0.048622403 0
2.2790298 -1.595794 0.14580798 0
2.292778 -1.6060169 0.24490763 0
2.2903242 -1.6054899 0.34342784 0
2.294728 -1.6097721 0.44396105 0
2.2948301 -1.6104411 0.54495054 0
2.2689054 -1.5928392 -0.14528462 0
2.3076065 -1.6206099 0.65100831 0
2.2727528 -1.5967249 -0.048482787 0
2.3123357 -1.6251367 0.75730455 0
2.2751453 -1.6037492 0.048587501 0
2.2786224 -1.6067957 0.14612199 0
2.2887859 -1.6151589 0.24508193 0
2.2895703 -1.6169101 0.34415907 0
2.2861507 -1.6150932 0.44333532 0
2.2924008 -1.6207085 0.54571378 0
2.2649622 -1.6019028 -0.1453893 0
2.298754 -1.626404 0.65010852 0
2.2527535 -1.593858 -0.048168644 0
2.3037803 -1.6305637 0.75626928 0
2.2730753 -1.6135999 0.048657309 0
2.2729998 -1.6147398 0.14612199 0
2.2750149 -1.6173664 0.24421038 0
2.2890491 -1.6279453 0.34489027 0
2.2772801 -1.6207727 0.44270959 0
2.2870135 -1.6283016 0.54571378 0
2.2693985 -1.616357 -0.14601734 0
2.2996964 -1.6385415 0.65190816 0
2.2471762 -1.6017118 -0.048168644 0
2.2949288 -1.6363523 0.755234 0
2.2609229 -1.616872 0.048517693 0
2.2676327 -1.6222684 0.14612199 0
2.2728789 -1.6272213 0.24455902 0
2.2801251 -1.6336135 0.34440279 0
2.2751043 -1.630617 0.44333532 0
2.2717438 -1.6294092 0.54342401 0
2.2572513 -1.6196114 -0.14559864 0
2.3002954 -1.6511041 0.65370774 0
2.2548485 -1.6184832 -0.048447877 0
2.286351 -1.6416999 0.75419873 0
2.2490578 -1.619686 0.048378069 0
2.271678 -1.6371806 0.14675003 0
2.2623372 -1.631649 0.24403608 0
2.2666461 -1.6353582 0.34318411 0
2.2758048 -1.6431742 0.44458681 0
2.2679195 -1.6380832 0.54380566 0
2.251868 -1.6270877 -0.14559864 0
2.2948072 -1.6587231 0.65370774 0
2.2491851 -1.6263443 -0.048447877 0
2.2899983 -1.6564645 0.75730455 0
2.2547204 -1.6357466 0.048622403 0
2.2562518 -1.6380597 0.14612199 0
2.2681985 -1.6473379 0.24525626 0
2.2609239 -1.6432602 0.34318411 0
2.2732501 -1.653432 0.44521254 0
2.2698369 -1.6521614 0.54571378 0
2.2426603 -1.6329789 -0.1453893 0
2.282702 -1.662135 0.65190816 0
2.2434943 -1.6341856 -0.048447877 0
2.2842021 -1.6644478 0.75730455 0
2.2567818 -1.6499006 0.048796929 0
2.2437854 -1.6416013 0.14570332 0
2.2621455 -1.6556402 0.24525626 0
2.2628934 -1.6574008 0.34440279 0
2.2608016 -1.6570815 0.44396105 0
2.2669325 -1.6627921 0.54647696 0
2.2398806 -1.6435509 -0.14559864 0
2.2765944 -1.6704905 0.65190816 0
2.2342656 -1.6400307 -0.048378069 0
2.2843149 -1.6773825 0.75937515 0
2.2442794 -1.6534168 0.048657309 0
2.2525113 -1.6600877 0.14664535 0
2.2512517 -1.6603725 0.24473332 0
2.2599978 -1.6680413 0.34489027 0
2.250236 -1.6614432 0.44302243 0
2.2626932 -1.6718616 0.54685861 0
2.2437668 -1.6584826 -0.14622667 0
2.2738838 -1.6807437 0.65280795 0
2.2237036 -1.6442531 -0.048273355 0
2.2722332 -1.6807504 0.75730455 0
2.2307544 -1.6548928 0.048482787 0
2.2485981 -1.6687386 0.14675003 0
2.2393353 -1.6630771 0.24403608 0
2.2512674 -1.6731583 0.34440279 0
2.2542257 -1.6759678 0.44489968 0
2.2492611 -1.6734962 0.54495054 0
2.2366526 -1.6647215 -0.14612199 0
2.2745509 -1.6929289 0.65460753 0
2.2246547 -1.6563951 -0.048412975 0
2.2635486 -1.6859683 0.75626928 0
2.2268562 -1.6634778 0.048517693 0
2.2395599 -1.6741859 0.1465407 0
2.244977 -1.6788464 0.24525626 0
2.2441175 -1.679425 0.34415907 0
2.2531052 -1.6873788 0.44583827 0
2.2421279 -1.6797687 0.5445689 0
2.218334 -1.6625469 -0.14528462 0
2.2717457 -1.7031963 0.65550733 0
2.2316573 -1.6737492 -0.048692215 0
2.26074 -1.6961782 0.75730455 0
2.2258294 -1.6748476 0.048622403 0
2.2368932 -1.684396 0.14675003 0
2.2388086 -1.6870631 0.24525626 0
2.2414114 -1.6896381 0.34464651 0
2.2487783 -1.6964228 0.44615117 0
2.242224 -1.6927068 0.54609537 0
2.2154133 -1.6730739 -0.14549398 0
2.2561588 -1.7044632 0.65280795 0
2.2194188 -1.6767073 -0.048552595 0
2.2640531 -1.7110478 0.76041043 0
2.2244563 -1.6866192 0.048727117 0
2.2291133 -1.6913759 0.14664535 0
2.2408409 -1.700891 0.24612781 0
2.2336233 -1.6966412 0.34440279 0
2.240973 -1.7034583 0.44583827 0
2.2472408 -1.7088417 0.54876673 0
2.2159183 -1.6856337 -0.14591266 0
2.2470939 -1.7099681 0.65190816 0
2.205303 -1.6787744 -0.048378069 0
2.2546926 -1.7169938 0.75937515 0
2.2169662 -1.6931602 0.048692215 0
2.2152615 -1.6930827 0.14612199 0
2.2219312 -1.6994094 0.24473332 0
2.2402995 -1.7140777 0.34635273 0
2.2318764 -1.7088685 0.44521254 0
2.2378459 -1.7146786 0.54800349 0
2.2192361 -1.7010343 -0.1465407 0
2.2485437 -1.7241215 0.6541577 0
2.208951 -1.6937629 -0.048587501 0
2.233357 -1.7130957 0.75419873 0
2.2049985 -1.6956265 0.048552595 0
2.2238803 -1.7113819 0.14706406 0
2.2165816 -1.7063813 0.24473332 0
2.2314579 -1.7190744 0.34586522 0
2.2324548 -1.7210845 0.446464 0
2.2231202 -1.7145067 0.54571378 0
2.2107186 -1.7055577 -0.14633135 0
2.2477441 -1.7347487 0.65550733 0
2.2017391 -1.6998565 -0.048552595 0
2.230722 -1.7228544 0.755234 0
2.1990662 -1.7033129 0.048552595 0
2.2178929 -1.7191344 0.14706406 0
2.2153349 -1.7177709 0.24525626 0
2.2160339 -1.7195516 0.34440279 0
2.2295539 -1.7312896 0.44708973 0
2.2202227 -1.7246653 0.54647696 0
2.1921351 -1.7034601 -0.14549398 0
2.2447522 -1.7449765 0.65640718 0
2.2005279 -1.7112143 -0.048657309 0
2.2338431 -1.7377473 0.75833982 0
2.2057204 -1.720819 0.048831832 0
2.2008586 -1.7182623 0.14633135 0
2.2156065 -1.7303985 0.24595349 0
2.2131462 -1.7297214 0.34489027 0
2.2266092 -1.741496 0.44771552 0
2.2172813 -1.7348243 0.5472402 0
2.189321 -1.7135639 -0.14570332 0
2.2294412 -1.7455931 0.65370774 0
2.1945412 -1.7188853 -0.048657309 0
2.2338464 -1.7503004 0.76041043 0
2.1934109 -1.7235659 0.048692215 0
2.1964171 -1.7271687 0.14643602 0
2.2108152 -1.7397401 0.24612781 0
2.2164536 -1.7448033 0.34635273 0
2.2112064 -1.7419232 0.44583827 0
2.2201588 -1.7502321 0.54952991 0
2.1861622 -1.72405 -0.14591266 0
2.2245581 -1.7549599 0.6541577 0
2.1806779 -1.7203426 -0.048482787 0
2.2246902 -1.7556938 0.75937515 0
2.1886466 -1.7328347 0.048727117 0
2.2013347 -1.7435055 0.14716873 0
2.1969218 -1.7412585 0.24525626 0
2.2131541 -1.7553824 0.3468402 0
2.2082071 -1.7520869 0.446464 0
2.2140357 -1.7579712 0.54952991 0
2.1863866 -1.7366396 -0.14633135 0
2.2214701 -1.7651389 0.65505749 0
2.1762252 -1.729188 -0.048517693 0
2.2124987 -1.7586402 0.75730455 0
2.1735063 -1.7326041 0.048517693 0
2.1967967 -1.7524244 0.14727339 0
2.1939442 -1.7514025 0.24560487 0
2.2073209 -1.7627119 0.3468402 0
2.205164 -1.7622504 0.44708973 0
2.1959262 -1.7554964 0.54647696 0
2.1868551 -1.7488701 -0.14675003 0
2.223213 -1.7785827 0.65730697 0
2.1732986 -1.7392727 -0.048587501 0
2.2063463 -1.7663527 0.75730455 0
2.172123 -1.7439362 0.048622403 0
2.1906662 -1.7600819 0.14727339 0
2.1958892 -1.7649093 0.24647643 0
2.1918736 -1.7629414 0.34537774 0
2.2051547 -1.7748916 0.44834125 0
2.1928432 -1.7656132 0.5472402 0
2.1714041 -1.7489759 -0.14612199 0
2.2139561 -1.783887 0.65640718 0
2.1718848 -1.7506133 -0.048692215 0
2.2091906 -1.781319 0.76041043 0
2.1737971 -1.7577949 0.048796929 0
2.1860616 -1.7689747 0.14737807 0
2.194361 -1.7763244 0.24699937 0
2.1857064 -1.7705816 0.34537774 0
2.1989458 -1.7825781 0.44834125 0
2.1897166 -1.7757304 0.54800349 0
2.1683881 -1.7590615 -0.14633135 0
2.2046895 -1.789148 0.65550733 0
2.1673133 -1.7594442 -0.048727117 0
2.2119567 -1.7963269 0.76351619 0
2.1738501 -1.7704231 0.04893655 0
2.170893 -1.768645 0.14675003 0
2.1896913 -1.7852324 0.24717368 0
2.188741 -1.7857298 0.3468402 0
2.1869006 -1.7848641 0.44708973 0
2.1895874 -1.7883304 0.54952991 0
2.1684213 -1.7716745 -0.14675003 0
2.1954129 -1.7943666 0.65460753 0
2.1552737 -1.7615596 -0.048587501 0
2.1970143 -1.7963153 0.76041043 0
2.1648746 -1.7750863 0.048866738 0
2.1755137 -1.7850803 0.14748274 0
2.1695881 -1.7814856 0.24560487 0
2.1889431 -1.798018 0.34781513 0
2.1837091 -1.794996 0.44771552 0
2.1836448 -1.7955816 0.54952991 0
2.1656191 -1.7813931 -0.14695938 0
2.2044983 -1.8140196 0.65910655 0
2.152199 -1.771614 -0.048657309 0
2.1877482 -1.8015171 0.75937515 0
2.1524975 -1.7775391 0.048727117 0
2.1665027 -1.7897407 0.14727339 0
2.1682756 -1.7924788 0.24612781 0
2.1887717 -1.8107095 0.34879011 0
2.1762228 -1.8009681 0.44740263 0
2.1698034 -1.7969316 0.54762185 0
2.1593876 -1.7889415 -0.14695938 0
2.195152 -1.8192164 0.65820676 0
2.1493919 -1.781293 -0.048727117 0
2.1787875 -1.8062962 0.75833982 0
2.1404405 -1.7795535 0.048587501 0
2.1648483 -1.8011246 0.14758742 0
2.1711924 -1.8076854 0.24717368 0
2.1659765 -1.8039832 0.34610897 0
2.1775105 -1.8148769 0.44896698 0
2.1683562 -1.807889 0.54876673 0
2.1427069 -1.7871376 -0.14622667 0
2.1891072 -1.826486 0.65820676 0
2.1462314 -1.7913477 -0.048796929 0
2.1813667 -1.8213196 0.76144564 0
2.1480143 -1.7985681 0.048901644 0
2.1524246 -1.8035393 0.14716873 0
2.1651857 -1.8148754 0.24717368 0
2.162708 -1.8140843 0.34659645 0
2.1726749 -1.8237369 0.44927984 0
2.1650393 -1.8179719 0.54952991 0
2.137985 -1.795891 -0.14633135 0
2.1797342 -1.8316089 0.65730697 0
2.1430266 -1.8014021 -0.048866738 0
2.1809099 -1.8338959 0.76351619 0
2.1508954 -1.8137901 0.049111072 0
2.1491687 -1.8136179 0.14737807 0
2.1600416 -1.8240846 0.24734798 0
2.1624284 -1.8267467 0.3475714 0
2.1557355 -1.8223827 0.44708973 0
2.1643572 -1.8309669 0.55105644 0
2.1283391 -1.8011343 -0.14612199 0
2.1700318 -1.8370676 0.65640718 0
2.127568 -1.8011194 -0.048657309 0
2.1744952 -1.8414975 0.76351619 0
2.145757 -1.8229558 0.049145978 0
2.1489124 -1.8262825 0.14779675 0
2.1445551 -1.8238686 0.24630213 0
2.1602533 -1.8385196 0.3483026 0
2.1478572 -1.8286164 0.4467769 0
2.1639304 -1.8436037 0.55258286 0
2.1387599 -1.8228035 -0.14727339 0
2.1725035 -1.8522171 0.65910655 0
2.121268 -1.8085351 -0.048657309 0
2.1621747 -1.8440626 0.76144564 0
2.1321018 -1.8235629 0.048971456 0
2.1501112 -1.840266 0.14832011 0
2.1396885 -1.8326396 0.24647643 0
2.1526375 -1.8443818 0.34805888 0
2.1489592 -1.8425314 0.44834125 0
2.151844 -1.8456566 0.55105644 0
2.1311879 -1.8285853 -0.14716873 0
2.1752219 -1.8670264 0.66180599 0
2.1225283 -1.8224418 -0.048831832 0
2.1527934 -1.8490812 0.76041043 0
2.119663 -1.8257738 0.048831832 0
2.1406488 -1.845152 0.14811078 0
2.141144 -1.8462303 0.24734798 0
2.1386714 -1.8454005 0.3468402 0
2.1514852 -1.8577675 0.45021844 0
2.1394455 -1.8480234 0.54952991 0
2.1157246 -1.8281783 -0.1465407 0
2.1627944 -1.8695105 0.6600064 0
2.1191788 -1.8324556 -0.048901644 0
2.155092 -1.8641676 0.76351619 0
2.1298931 -1.8475755 0.049215786 0
2.1266537 -1.8460667 0.14758742 0
2.138875 -1.8579855 0.24787092 0
2.1322169 -1.8528544 0.3468402 0
2.1449873 -1.8652663 0.45021844 0
2.138582 -1.8610076 0.55105644 0
2.1120224 -1.8385434 -0.14675003 0
2.1559277 -1.8774251 0.6600064 0
2.1142776 -1.8411553 -0.04893655 0
2.1573119 -1.8792924 0.76662207 0
2.1261184 -1.8580011 0.049285594 0
2.1262114 -1.858737 0.1480061 0
2.1323764 -1.8654401 0.24787092 0
2.1343729 -1.8685024 0.3483026 0
2.1340051 -1.868838 0.44927984 0
2.1409316 -1.8762249 0.5533461 0
2.1115992 -1.8511709 -0.14716873 0
2.1435006 -1.8797995 0.65820676 0
2.1003206 -1.8419317 -0.048762023 0
2.1536434 -1.8893595 0.76765728 0
2.1199453 -1.8650414 0.049285594 0
2.1242075 -1.8701069 0.14832011 0
2.1183772 -1.8662868 0.24699937 0
2.1281652 -1.8755698 0.3483026 0
2.1215425 -1.8710494 0.44802836 0
2.1317537 -1.8807166 0.55258286 0
2.1144338 -1.8660927 -0.14779675 0
2.1460204 -1.8946358 0.6609062 0
2.0983746 -1.8532232 -0.048866738 0
2.1354527 -1.886633 0.76351619 0
2.1074352 -1.8671259 0.049145978 0
2.1221502 -1.8814852 0.14863414 0
2.1121767 -1.8733014 0.24699937 0
2.1275439 -1.888258 0.34927759 0
2.1268139 -1.8889376 0.4505313 0
2.1193051 -1.8829305 0.55105644 0
2.1004429 -1.8668278 -0.14727339 0
2.1452193 -1.9072945 0.66270578 0
2.1008582 -1.8685101 -0.049076166 0
2.128854 -1.8940756 0.76351619 0
2.1068735 -1.8797957 0.049285594 0
2.1170595 -1.8902117 0.1487388 0
2.1115687 -1.8859718 0.24769662 0
2.1150193 -1.8903815 0.3483026 0
2.123152 -1.898984 0.45115703 0
2.1127198 -1.8903167 0.55105644 0
2.0939136 -1.8741485 -0.14727339 0
2.1385484 -1.9147712 0.66270578 0
2.0928335 -1.8744981 -0.049041264 0
2.127985 -1.9066517 0.76558679 0
2.1017864 -1.8884753 0.049320504 0
2.1015375 -1.8895777 0.14811078 0
2.1138606 -1.9013252 0.24874248 0
2.1054571 -1.8950967 0.34781513 0
2.1165104 -1.9063834 0.45115703 0
2.1119425 -1.9029368 0.55258286 0
2.0843918 -1.8787718 -0.14706406 0
2.1289568 -1.9196147 0.66180599 0
2.0892475 -1.8844707 -0.049111072 0
2.1313567 -1.9231272 0.76921022 0
2.1040781 -1.9038504 0.049529929 0
2.0934482 -1.8955613 0.1480061 0
2.1042576 -1.9060174 0.24839386 0
2.1091247 -1.9117669 0.34952128 0
2.1113062 -1.9150871 0.45146993 0
2.1154647 -1.9195321 0.55525422 0
2.0792997 -1.8873787 -0.14716873 0
2.1222436 -1.9270341 0.66180599 0
2.0782158 -1.8877184 -0.049006358 0
2.1289201 -1.934453 0.77076316 0
2.0988979 -1.9125304 0.049564835 0
2.1001012 -1.914969 0.14894815 0
2.0931754 -1.9093227 0.24787092 0
2.1068368 -1.9231322 0.35025251 0
2.1002328 -1.9184484 0.4505313 0
2.1087511 -1.9269048 0.55525422 0
2.0800698 -1.9013628 -0.14769208 0
2.1140656 -1.9331154 0.66135609 0
2.0701385 -1.8936118 -0.048971456 0
2.1093273 -1.9301353 0.7661044 0
2.0701082 -1.8995651 0.049041264 0
2.0948749 -1.9236387 0.14905281 0
2.087965 -1.9179658 0.24804525 0
2.1001112 -1.9304749 0.35025251 0
2.0993388 -1.9311174 0.45178279 0
2.0962334 -1.9289362 0.55372775 0
2.0748897 -1.9099647 -0.14779675 0
2.1159062 -1.9484035 0.66405553 0
2.0693994 -1.9062455 -0.049111072 0
2.1039979 -1.9387953 0.76662207 0
2.0678709 -1.910851 0.049145978 0
2.0884843 -1.9305751 0.14905281 0
2.0900328 -1.9333599 0.2490911 0
2.0875325 -1.9323999 0.34927759 0
2.098721 -1.943437 0.45303425 0
2.0880473 -1.9349073 0.5533461 0
2.062351 -1.9117647 -0.14737807 0
2.1119499 -1.9584277 0.66495532 0
2.0689313 -1.9185362 -0.049250688 0
2.1018062 -1.9497033 0.76817495 0
2.0673795 -1.9231457 0.049285594 0
2.0758851 -1.9324102 0.14863414 0
2.0934765 -1.95015 0.25031129 0
2.0811131 -1.9393117 0.34927759 0
2.0933692 -1.9520984 0.45334715 0
2.0902333 -1.9498562 0.55563581 0
2.0574601 -1.9199557 -0.14748274 0
2.0968971 -1.9574416 0.66225594 0
2.059299 -1.9230169 -0.04918088 0
2.1076927 -1.9688969 0.7728337 0
2.0664914 -1.9358189 0.049425215 0
2.0691273 -1.9396445 0.14863414 0
2.082638 -1.952993 0.24978836 0
2.0815687 -1.9533563 0.35049626 0
2.0807822 -1.9539846 0.45209566 0
2.0948615 -1.9678941 0.55868876 0
2.0565677 -1.9325968 -0.14790143 0
2.0914712 -1.9660839 0.66270578 0
2.0482037 -1.9260837 -0.049076166 0
2.0979931 -1.9735948 0.77179843 0
2.0640855 -1.9471371 0.049529929 0
2.071058 -1.9550815 0.14926216 0
2.0685654 -1.9534113 0.2489168 0
2.0805087 -1.9660639 0.35147122 0
2.0782547 -1.9653076 0.45303425 0
2.0822744 -1.9697977 0.55716228 0
2.0556118 -1.9452549 -0.14832011 0
2.094502 -1.9827505 0.66585511 0
2.0429199 -1.9345967 -0.049111072 0
2.0924938 -1.9822348 0.7723161 0
2.0485773 -1.9460667 0.049320504 0
2.0718026 -1.9688179 0.14978553 0
2.0602903 -1.9592468 0.24874248 0
2.0750713 -1.9746829 0.35171497 0
2.0717261 -1.9721888 0.45303425 0
2.0668571 -1.9689294 0.55487263 0
2.0488091 -1.9524186 -0.14832011 0
2.0889785 -1.9913942 0.66630501 0
2.0408354 -1.9455 -0.049215786 0
2.0789187 -1.9824967 0.76972789 0
2.0406675 -1.9514672 0.049285594 0
2.0620313 -1.9732759 0.14957617 0
2.0606337 -1.9733167 0.24961405 0
2.0627775 -1.9760604 0.35073999 0
2.071959 -1.9862434 0.45459861 0
2.0631506 -1.9784902 0.55563581 0
2.0365582 -1.9536713 -0.14790143 0
2.0851755 -2.0010092 0.6672048 0
2.0441301 -1.9623057 -0.04946012 0
2.0789528 -1.9964318 0.7723161 0
2.0482469 -1.9724495 0.049634643 0
2.0479398 -1.9735322 0.14905281 0
2.062685 -1.988436 0.25065991 0
2.05301 -1.9804924 0.35025251 0
2.0635922 -1.9920915 0.45428574 0
2.0618806 -1.991135 0.55716228 0
2.0297263 -1.9607686 -0.14790143 0
2.0725729 -2.0028586 0.66540521 0
2.0343924 -1.9666493 -0.049390312 0
2.0733597 -2.0050194 0.7728337 0
2.0470917 -1.9851558 0.049774267 0
2.0424719 -1.9820596 0.14915749 0
2.0539539 -1.9945948 0.2504856 0
2.0574751 -1.9987119 0.35220242 0
2.0509603 -1.9937752 0.45303425 0
2.0658269 -2.0096304 0.56021523 0
2.0311141 -1.976552 -0.14852946 0
2.065218 -2.0104418 0.66540521 0
2.0232162 -1.9695542 -0.049285594 0
2.0718846 -2.0176358 0.77490425 0
2.0369411 -1.9898506 0.049704451 0
2.0366218 -1.9909288 0.14926216 0
2.0427051 -1.9975731 0.24996266 0
2.0558109 -2.0117934 0.3531774 0
2.0436389 -2.0012789 0.45303425 0
2.0559945 -2.0140815 0.559452 0
2.0327613 -1.9920174 -0.14915749 0
2.0651455 -2.0244594 0.66765475 0
2.0145562 -1.975556 -0.049250688 0
2.0589592 -2.0198047 0.7728337 0
2.0299826 -1.9969488 0.049704451 0
2.0424697 -2.0106361 0.15020421 0
2.0399792 -2.0088851 0.2504856 0
2.0459478 -2.0161705 0.35268989 0
2.0478928 -2.0194964 0.45553723 0
2.0475538 -2.0198674 0.55907035 0
2.0257955 -1.999101 -0.14915749 0
2.0594532 -2.0330245 0.66810459 0
2.0176082 -1.992412 -0.049495026 0
2.0546451 -2.0296948 0.77386898 0
2.018738 -1.9998008 0.049599741 0
2.0372097 -2.0188038 0.15030889 0
2.0386131 -2.0216055 0.25118285 0
2.0360796 -2.0205033 0.35220242 0
2.0439885 -2.0290596 0.45616296 0
2.0377052 -2.0242352 0.55830717 0
2.0074713 -1.9948974 -0.14832011 0
2.0578723 -2.0456967 0.66990423 0
2.0194988 -2.0075505 -0.049704451 0
2.0506427 -2.0392218 0.77490425 0
2.0248387 -2.0191922 0.049913883 0
2.0216677 -2.0174379 0.14968085 0
2.0343635 -2.0315251 0.25153148 0
2.0321772 -2.0300498 0.35268989 0
2.0382905 -2.0375788 0.45647582 0
2.0365341 -2.0365341 0.55983365 0
2.003669 -2.0043683 -0.14852946 0
2.0428121 -2.044239 0.6672048 0
2.0096524 -2.0117579 -0.049634643 0
2.0462422 -2.0491009 0.77593952 0
2.0177782 -2.0262477 0.049913883 0
2.0216572 -2.0315611 0.15020421 0
2.0177796 -2.0283723 0.25031129 0
2.0250785 -2.0371313 0.35268989 0
2.0283811 -2.0418785 0.45585006 0
2.0432467 -2.0575612 0.56364983 0
1.9994746 -2.0141852 -0.1487388 0
2.0384092 -2.0541236 0.66810459 0
1.9941678 -2.0102427 -0.049425215 0
2.0417976 -2.0589747 0.7769748 0
2.0106931 -2.0332789 0.049913883 0
2.0145535 -2.0386057 0.15020421 0
2.0201313 -2.0456779 0.25153148 0
2.0263228 -2.052664 0.35415235 0
2.0212414 -2.0489464 0.45585006 0
2.027422 -2.0566478 0.56136012 0
2.0060978 -2.0357263 -0.14978553 0
2.0322347 -2.0629692 0.66855454 0
1.9899457 -2.0200408 -0.049495026 0
2.0318868 -2.0633366 0.77593952 0
2.003227 -2.0406349 0.049913883 0
2.0158188 -2.0541785 0.15083225 0
2.0143735 -2.0541396 0.2517058 0
2.0187857 -2.060077 0.35415235 0
2.0168414 -2.0588119 0.45647582 0
2.0174839 -2.0609062 0.56059688 0
1.9947886 -2.038434 -0.14947151 0
2.0331976 -2.078409 0.67125398 0
1.9870775 -2.0312631 -0.049599741 0
2.021971 -2.0676544 0.77490425 0
1.9922607 -2.0429716 0.049809169 0
2.0100298 -2.0626328 0.1509369 0
2.0016308 -2.055449 0.25100854 0
2.0091739 -2.0639155 0.35366488 0
2.0165298 -2.0729189 0.45804018 0
2.0079012 -2.0647702 0.55983365 0
1.9810572 -2.0378771 -0.14894815 0
2.0303683 -2.0893323 0.67260367 0
1.9855481 -2.0439241 -0.049739357 0
2.0255077 -2.0857868 0.7790454 0
1.9892908 -2.0542228 0.049913883 0
1.9903175 -2.0567195 0.14999487 0
2.0031152 -2.0706675 0.25205442 0
1.999198 -2.0680618 0.3531774 0
2.0120265 -2.0827866 0.45866591 0
2.0061369 -2.0774155 0.56136012 0
1.97948 -2.0505276 -0.14936683 0
2.0122371 -2.0851889 0.66900444 0
1.9797899 -2.0522816 -0.049774267 0
2.0235789 -2.0984068 0.78111589 0
1.9918106 -2.0712438 0.050158214 0
1.9914293 -2.072295 0.15062289 0
1.9917344 -2.0733361 0.25153148 0
1.9974655 -2.0807557 0.35415235 0
1.9951714 -2.0798187 0.45647582 0
2.0111024 -2.0971584 0.56479466 0
1.9750748 -2.0603087 -0.14957617 0
2.0103397 -2.0978279 0.67080402 0
1.9643141 -2.0505157 -0.049564835 0
2.0149055 -2.1040623 0.78059822 0
1.9831876 -2.0767381 0.050123312 0
1.9873048 -2.0817769 0.15083225 0
1.9954869 -2.0918093 0.25292596 0
2.0011477 -2.09921 0.35610226 0
1.9909892 -2.0892837 0.45710155 0
2.0010622 -2.1013222 0.56403142 0
1.9733795 -2.0729768 -0.14999487 0
2.0083783 -2.1104794 0.67260367 0
1.9616392 -2.0613642 -0.049669549 0
2.005254 -2.107933 0.77956301 0
1.9680322 -2.0745983 0.049913883 0
1.9923923 -2.1017461 0.15177429 0
1.9854325 -2.0958693 0.25257733 0
1.9914459 -2.1029518 0.35561478 0
1.9931883 -2.1062641 0.45929164 0
1.9913845 -2.105094 0.56326818 0
1.9664943 -2.0795093 -0.14999487 0
2.012078 -2.1284568 0.67620283 0
1.9626722 -2.0769193 -0.049878977 0
1.9952307 -2.1121113 0.77852774 0
1.9621499 -2.0829113 0.049948789 0
1.9854119 -2.1083417 0.15177429 0
1.9852985 -2.1096964 0.2534489 0
1.9813731 -2.1069982 0.35512727 0
1.9943107 -2.1214981 0.46116886 0
1.9853687 -2.1134634 0.56364983 0
1.9537545 -2.0805371 -0.14957617 0
2.0006349 -2.1312051 0.67485321 0
1.9571428 -2.0848744 -0.049913883 0
2.0027571 -2.134212 0.78422177 0
1.9702616 -2.1054673 0.05033274 0
1.960306 -2.0962949 0.15041354 0
1.9779222 -2.1166136 0.2534489 0
1.9811505 -2.1208103 0.35634598 0
1.9550189 -2.0957673 -0.15020421 0
1.956671 -2.0990071 -0.050088406 0
