# .PCD v0.7 - Point Cloud Data file format
VERSION 0.7
FIELDS x y z rgba
SIZE 4 4 4 4
TYPE F F F U
COUNT 1 1 1 1
WIDTH 1387
HEIGHT 1
VIEWPOINT 0 0 0 1 0 0 0
POINTS 1387
DATA ascii
2.1850433 -0.81130826 -0.12215213 0
2.1867688 -0.81194896 0.53853279 0
2.1913161 -0.81407249 -0.040803727 0
2.3286982 -0.86557245 0.66568261 0
2.1787939 -0.81331772 0.040594298 0
2.1777265 -0.81378537 0.12183812 0
2.1928039 -0.81985575 0.204816 0
2.1831887 -0.81669509 -0.36918539 0
2.1751916 -0.81413633 0.28517428 0
2.1806264 -0.81660444 -0.28590551 0
2.1883101 -0.81991732 0.37012401 0
2.1864905 -0.8196708 -0.20429306 0
2.1692235 -0.81319773 0.45030925 0
2.189821 -0.82135528 -0.12257081 0
2.1656764 -0.81273031 0.53403378 0
2.1884611 -0.82171667 -0.040803727 0
2.1909094 -0.82656497 0.040873535 0
2.1823466 -0.82420468 0.12225681 0
2.1804657 -0.82436419 0.20394444 0
2.1875708 -0.82748681 -0.37043685 0
2.1779065 -0.82383114 0.28590551 0
2.1796193 -0.82491392 -0.28614923 0
2.1614189 -0.81845689 0.36605671 0
2.1817529 -0.82659227 -0.20411874 0
2.1735716 -0.82392651 0.45183572 0
2.1867959 -0.82937586 -0.12257081 0
2.168149 -0.82273656 0.53538352 0
2.1781011 -0.82651305 -0.040664107 0
2.1822603 -0.8324514 0.040768825 0
2.1850541 -0.83395404 0.12257081 0
2.164547 -0.82699287 0.20272426 0
2.1865144 -0.83582324 -0.37074974 0
2.185997 -0.83606279 0.28736794 0
2.180289 -0.83431596 -0.28663671 0
2.1585486 -0.82599676 0.36605671 0
2.1695507 -0.83064091 -0.20324717 0
2.1670156 -0.83010399 0.45107248 0
2.2006724 -0.84343714 -0.12351287 0
2.1670835 -0.83099765 0.53583342 0
2.180804 -0.83625895 -0.040768825 0
2.3285246 -0.89337057 0.66827077 0
2.1701577 -0.83608896 0.040594298 0
2.1877201 -0.8437323 0.12288483 0
2.1690814 -0.83741379 0.2034215 0
2.168988 -0.83737773 -0.36824676 0
2.1739538 -0.83973086 0.28614923 0
2.1793621 -0.84225708 -0.28688046 0
2.163022 -0.83637607 0.36730817 0
2.1703546 -0.83964682 -0.20359582 0
2.153265 -0.83303535 0.44878277 0
2.1885505 -0.84712547 -0.12298951 0
2.1643159 -0.83817941 0.53583342 0
2.1853302 -0.84675616 -0.040908441 0
2.3055787 -0.89381212 0.66257679 0
2.1653626 -0.84293371 0.040559392 0
2.1849101 -0.85098237 0.12288483 0
2.168149 -0.84532589 0.20359582 0
2.1697326 -0.84637958 -0.36887249 0
2.1691601 -0.84659261 0.28590551 0
2.1782579 -0.85058147 -0.28712422 0
2.1712773 -0.84785557 0.36918539 0
2.1731255 -0.84901446 -0.20411874 0
2.1503441 -0.84054661 0.44878277 0
2.1706994 -0.84894013 -0.12215213 0
2.1650064 -0.84714925 0.53673321 0
2.1918211 -0.85764158 -0.041082963 0
2.2486343 -0.88032484 0.64704764 0
2.1774437 -0.85596228 0.040838633 0
2.1707752 -0.8542158 0.12225681 0
2.1707463 -0.85507965 0.20411874 0
2.166914 -0.85357004 -0.36887249 0
2.1681876 -0.85450894 0.28614923 0
2.162498 -0.85270274 -0.285418 0
2.1683044 -0.85542953 0.36918539 0
2.1738553 -0.85805792 -0.20446737 0
2.1548495 -0.85055596 0.45030925 0
2.1641572 -0.85466653 -0.1219428 0
2.1549356 -0.8514595 0.53493357 0
2.1832349 -0.86308175 -0.040978249 0
2.2275836 -0.8810634 0.64187121 0
2.1781597 -0.86503404 0.040908441 0
2.1622124 -0.85957468 0.1219428 0
2.1678987 -0.86227334 0.20411874 0
2.167592 -0.8625896 -0.36949828 0
2.1670358 -0.86280644 0.28639299 0
2.1595085 -0.86024606 -0.285418 0
2.1561301 -0.85933632 0.36762103 0
2.1689961 -0.86490297 -0.20429306 0
2.1553645 -0.85990322 0.45107248 0
2.1702847 -0.86629492 -0.12246615 0
2.1465209 -0.85680932 0.53358394 0
2.1709237 -0.86698931 -0.040803727 0
2.1957915 -0.87736493 0.63358909 0
2.1656957 -0.86928707 0.040733919 0
2.1683135 -0.87121683 0.12246615 0
2.1536322 -0.86575454 0.20307288 0
2.1680815 -0.87200272 -0.37012401 0
2.1712253 -0.87370747 0.28736794 0
2.1655483 -0.87186229 -0.28663671 0
2.1401398 -0.86206669 0.36543098 0
2.1602674 -0.87061256 -0.20377012 0
2.1503778 -0.86706311 0.4506909 0
2.1763561 -0.8779797 -0.12298951 0
2.1560163 -0.86977434 0.53673321 0
2.1658771 -0.87419188 -0.040768825 0
2.1585262 -0.87166297 0.62375391 0
2.1569357 -0.87496388 0.040629201 0
2.1726615 -0.88178474 0.12288483 0
2.1467528 -0.87214243 0.20272426 0
2.1538906 -0.87548023 -0.36824676 0
2.1606531 -0.87866825 0.28639299 0
2.1643307 -0.88016385 -0.28688046 0
2.1462662 -0.87325424 0.3669953 0
2.1516793 -0.87589443 -0.20324717 0
2.1437013 -0.873083 0.44992763 0
2.169579 -0.88406396 -0.12278017 0
2.1547718 -0.8780303 0.53718311 0
2.1683674 -0.88401151 -0.040873535 0
2.1518927 -0.87773299 0.62271863 0
2.1429195 -0.87756485 0.040419776 0
2.1697257 -0.88898468 0.12288483 0
2.1567523 -0.88454854 0.20394444 0
2.1509757 -0.88261801 -0.36824676 0
2.1558909 -0.88507462 0.28614923 0
2.1614001 -0.88733625 -0.28688046 0
2.1524949 -0.88411939 0.36855966 0
2.1579773 -0.88681144 -0.20411874 0
2.1353469 -0.87794727 0.44878277 0
2.1592469 -0.88821429 -0.12236147 0
2.1518483 -0.88517082 0.53718311 0
2.1580272 -0.88815296 -0.040733919 0
2.1489701 -0.88486415 0.62271863 0
2.1510854 -0.88924986 0.040629201 0
2.1501553 -0.88930476 0.1219428 0
2.1574891 -0.89322013 0.20429306 0
2.1553371 -0.89276993 -0.36949828 0
2.1437747 -0.88841897 0.28493056 0
2.1511104 -0.89145899 -0.28590551 0
2.1550255 -0.89352202 0.36949828 0
2.1531842 -0.89319921 -0.20394444 0
2.1433036 -0.88953882 0.45107248 0
2.1526005 -0.89383793 -0.12215213 0
2.1327035 -0.88557595 0.53313398 0
2.1587636 -0.89683878 -0.040803727 0
2.1442401 -0.89124399 0.62220097 0
2.1573522 -0.90022874 0.040803727 0
2.1490374 -0.89719945 0.12204745 0
2.1581919 -0.90190613 0.20464167 0
2.1560099 -0.90143633 -0.37012401 0
2.157299 -0.90241766 0.28712422 0
2.146311 -0.89782125 -0.28566176 0
2.1320059 -0.89227468 0.36605671 0
2.1483727 -0.89956492 -0.20377012 0
2.1439636 -0.89815861 0.45183572 0
2.1569927 -0.90405947 -0.12257081 0
2.1369441 -0.89565653 0.53493357 0
2.1465571 -0.90012598 -0.040629201 0
2.1394916 -0.89760238 0.62168342 0
2.1521957 -0.90735286 0.040768825 0
2.1529369 -0.90855074 0.12246615 0
2.1365168 -0.90206057 0.20289856 0
2.1490519 -0.90779507 -0.36949828 0
2.1594625 -0.91263688 0.28785542 0
2.1428478 -0.90605593 -0.28566176 0
2.1285641 -0.90045434 0.36605671 0
2.1432261 -0.90665698 -0.20359582 0
2.1388493 -0.90524542 0.45145413 0
2.1646998 -0.91663188 -0.12319885 0
2.1352837 -0.90461534 0.53538352 0
2.1375616 -0.90602046 -0.040524486 0
2.1289148 -0.90279382 0.61961281 0
2.1416554 -0.91172677 0.040629201 0
2.1571021 -0.91919214 0.12288483 0
2.1351876 -0.91029435 0.20307288 0
2.138602 -0.91219103 -0.36824676 0
2.1544378 -0.91939002 0.28761166 0
2.1488001 -0.91742754 -0.28688046 0
2.1326742 -0.91098273 0.36730817 0
2.1382163 -0.91334993 -0.2034215 0
2.1266499 -0.9088484 0.44954604 0
2.1596503 -0.92339724 -0.12309418 0
2.1392796 -0.91512913 0.53718311 0
2.1417396 -0.91662365 -0.040664107 0
2.1221988 -0.90869892 0.61857754 0
2.1347857 -0.91761774 0.040559392 0
2.1538804 -0.92671615 0.12288483 0
2.1374872 -0.92010522 0.20359582 0
2.1354046 -0.91965055 -0.36824676 0
2.1366308 -0.92062074 0.28566176 0
2.140116 -0.92256528 -0.28614923 0
2.1367371 -0.92155093 0.36855966 0
2.1385128 -0.92275947 -0.20377012 0
2.1234646 -0.9162662 0.44954604 0
2.1417444 -0.92459744 -0.12225681 0
2.1289163 -0.91950023 0.53538352 0
2.1403623 -0.92488724 -0.040699009 0
2.1207874 -0.91686779 0.61909521 0
2.1352384 -0.92665601 0.040629201 0
2.1341455 -0.92706722 0.1219428 0
2.1450634 -0.93270016 0.20464167 0
2.1356425 -0.92904705 -0.36887249 0
2.1279433 -0.92569768 0.28493056 0
2.1332424 -0.92844564 -0.28566176 0
2.1298847 -0.92742658 0.3679339 0
2.1425853 -0.9334017 -0.20446737 0
2.1200919 -0.92404294 0.44954604 0
2.1346796 -0.93084437 -0.12204745 0
2.1201732 -0.92495924 0.53403378 0
2.1334553 -0.93075371 -0.040629201 0
2.1264267 -0.9281292 0.62168342 0
2.1428163 -0.93929273 0.040838633 0
2.1345546 -0.93611538 0.12215213 0
2.1363215 -0.93777949 0.20411874 0
2.1432385 -0.94126207 -0.37074974 0
2.1372578 -0.93908054 0.28663671 0
2.1281707 -0.9350878 -0.285418 0
2.1230175 -0.93326575 0.36730817 0
2.1356664 -0.93927073 -0.20411874 0
2.1276352 -0.93618196 0.45183572 0
2.1423852 -0.94311839 -0.12267549 0
2.1188781 -0.93277007 0.53448373 0
2.1228731 -0.93497115 -0.040489584 0
2.1214061 -0.93476713 0.62116575 0
2.1360323 -0.94477564 0.040768825 0
2.1369178 -0.94561327 0.12246615 0
2.1240914 -0.94082427 0.20324717 0
2.1328814 -0.94516295 -0.36949828 0
2.1377618 -0.94777197 0.28712422 0
2.1359468 -0.9469673 -0.28688046 0
2.1162999 -0.93869901 0.36668244 0
2.1252553 -0.94311512 -0.2034215 0
2.1245191 -0.94323224 0.45183572 0
2.1428967 -0.95183909 -0.12288483 0
2.1228969 -0.94295561 0.53628331 0
2.1106241 -0.93794531 -0.040315062 0
2.105938 -0.93630308 0.61754227 0
2.1219311 -0.9469642 0.040559392 0
2.1445453 -0.95795429 0.12309418 0
2.1191411 -0.94704998 0.20307288 0
2.1225219 -0.94900542 -0.36824676 0
2.1346071 -0.95485592 0.28712422 0
2.1326282 -0.95441741 -0.28688046 0
2.1184192 -0.94850218 0.36762103 0
2.1221161 -0.95015752 -0.2034215 0
2.1142128 -0.94706184 0.45030925 0
2.1470189 -0.96220726 -0.12330353 0
2.1142578 -0.94796836 0.53493357 0
2.1274068 -0.95430988 -0.040699009 0
2.1008942 -0.9428575 0.6170246 0
2.1222589 -0.95600784 0.040629201 0
2.1339056 -0.96215045 0.12267549 0
2.1176383 -0.95526057 0.20324717 0
2.1155956 -0.95478344 -0.36762103 0
2.1149778 -0.95494902 0.28493056 0
2.1274748 -0.96103865 -0.28663671 0
2.1222956 -0.95914519 0.36887249 0
2.1187866 -0.95755935 -0.2034215 0
2.1037385 -0.95120066 0.44878277 0
2.1290891 -0.96311063 -0.12246615 0
2.119813 -0.95936018 0.53718311 0
2.1277063 -0.96337992 -0.040768825 0
2.1081488 -0.95496798 0.62013048 0
2.1225495 -0.96506536 0.040699009 0
2.119627 -0.96462959 0.12204745 0
2.1251709 -0.96760035 0.20429306 0
2.1140473 -0.96298134 -0.3679339 0
2.1116314 -0.96232587 0.28493056 0
2.1132698 -0.96351802 -0.28517428 0
2.1171374 -0.96572769 0.36855966 0
2.1244948 -0.96908379 -0.20429306 0
2.1111217 -0.9634288 0.45107248 0
2.1220806 -0.96887749 -0.12225681 0
2.1040432 -0.96108609 0.53403378 0
2.1206927 -0.96913868 -0.040699009 0
2.1083162 -0.96392751 0.62116575 0
2.1300728 -0.97747284 0.040908441 0
2.1162467 -0.97202259 0.12204745 0
2.1181593 -0.97334886 0.20394444 0
2.119647 -0.97448051 -0.36949828 0
2.1190803 -0.97466803 0.28639299 0
2.1080902 -0.97005892 -0.28493056 0
2.0993986 -0.9665035 0.36605671 0
2.1192892 -0.97566056 -0.20411874 0
2.1130955 -0.97325611 0.45221734 0
2.1241274 -0.97878665 -0.12257081 0
2.1059849 -0.97087234 0.53538352 0
2.1100338 -0.97318542 -0.040559392 0
2.1014307 -0.96966225 0.62013048 0
2.1230187 -0.98322153 0.040838633 0
2.1219013 -0.9836036 0.12257081 0
2.1111341 -0.97906017 0.20359582 0
2.1162326 -0.98187351 -0.36949828 0
2.1192663 -0.98373061 0.28688046 0
2.1136932 -0.9815923 -0.28614923 0
2.1013865 -0.97632283 0.3669953 0
2.1048586 -0.97838277 -0.20307288 0
2.1079049 -0.97979873 0.45183572 0
2.1297529 -0.9904061 -0.12309418 0
2.1078837 -0.98068374 0.53673321 0
2.1011848 -0.97801322 -0.040454678 0
2.0910277 -0.97372955 0.61805987 0
2.1123271 -0.98723936 0.040699009 0
2.1220732 -0.99269706 0.12278017 0
2.1039224 -0.98510152 0.20324717 0
2.1018865 -0.98459566 -0.36762103 0
2.1158195 -0.99112231 0.28688046 0
2.1138492 -0.9906491 -0.28663671 0
2.1015427 -0.98532921 0.36762103 0
2.1014307 -0.98572403 -0.20307288 0
2.0900812 -0.98084557 0.44878277 0
2.1206851 -0.99565911 -0.12278017 0
2.1113305 -0.99171686 0.53853279 0
2.0995681 -0.98619199 -0.040489584 0
2.0893643 -0.98184431 0.61857754 0
2.1014609 -0.99156165 0.040559392 0
2.1167886 -0.99924576 0.12267549 0
2.1076767 -0.99584419 0.20394444 0
2.0984368 -0.99192655 -0.36762103 0
2.099611 -0.99293 0.28517428 0
2.1137929 -1.0000882 -0.28712422 0
2.1088042 -0.99772793 0.36949828 0
2.1087821 -0.99816793 -0.20411874 0
2.0866449 -0.98813528 0.44878277 0
2.1099768 -0.99963516 -0.12236147 0
2.107856 -0.99908078 0.53853279 0
2.1177969 -1.0037926 -0.040908441 0
2.0894153 -0.99078697 0.61961281 0
2.1053834 -1.0019619 0.040699009 0
2.1042721 -1.0023342 0.12215213 0
2.1023893 -1.0023378 0.20377012 0
2.0987022 -1.00058 -0.36824676 0
2.0980983 -1.0007416 0.285418 0
2.0961323 -1.000253 -0.28517428 0
2.1017432 -1.0033808 0.36887249 0
2.1016889 -1.0038053 -0.20377012 0
2.0868998 -0.99674177 0.44954604 0
2.1030462 -1.0049043 -0.12215213 0
2.090466 -0.99934131 0.53493357 0
2.11428 -1.011179 -0.040908441 0
2.0929151 -1.0014098 0.62168342 0
2.1162941 -1.0162301 0.040978249 0
2.1007607 -1.0096735 0.12215213 0
2.1062365 -1.0127578 0.20446737 0
2.1058776 -1.0130377 -0.37012401 0
2.1017473 -1.0115026 0.28639299 0
2.092628 -1.0075636 -0.28517428 0
2.0946686 -1.0089966 0.36824676 0
2.1019387 -1.0124986 -0.20411874 0
2.090482 -1.0074295 0.45107248 0
2.112119 -1.0183109 -0.12288483 0
2.0816994 -1.0040925 0.53358394 0
2.0981307 -1.0124696 -0.040664107 0
2.0894067 -1.0087092 0.62168342 0
2.0983372 -1.0166358 0.040699009 0
2.1026146 -1.0196146 0.12246615 0
2.0919328 -1.0148858 0.2034215 0
2.1023285 -1.0203824 -0.37012401 0
2.1071324 -1.0231684 0.28761166 0
2.0944548 -1.0174644 -0.28590551 0
2.0769205 -1.0093945 0.36574382 0
2.0912237 -1.016346 -0.2034215 0
2.0834215 -1.0130036 0.45030925 0
2.1067557 -1.0248038 -0.12278017 0
2.088695 -1.0164692 0.53628331 0
2.0891902 -1.0171611 -0.040559392 0
2.0737152 -1.0100747 0.61805987 0
2.0947757 -1.0239543 0.040699009 0
2.1028104 -1.0283363 0.12267549 0
2.083009 -1.0195541 0.20289856 0
2.088109 -1.0225023 -0.36824676 0
2.0928519 -1.0252775 0.28614923 0
2.099803 -1.0291374 -0.28712422 0
2.0877521 -1.023231 0.36824676 0
2.0912411 -1.0253937 -0.20377012 0
2.0781102 -1.0194052 0.44992763 0
2.1067514 -1.0339113 -0.12298951 0
2.0886328 -1.0254717 0.53718311 0
2.0858057 -1.0240836 -0.040559392 0
2.0720882 -1.0177976 0.61857754 0
2.0841944 -1.0273588 0.040559392 0
2.1027901 -1.0374377 0.12288483 0
2.097302 -1.0356404 0.20464167 0
2.084707 -1.029421 -0.36824676 0
2.0876608 -1.0313329 0.28590551 0
2.0928195 -1.0343357 -0.28663671 0
2.0947924 -1.0357658 0.37012401 0
2.0876491 -1.0326873 -0.20377012 0
2.0747185 -1.0262909 0.44992763 0
2.0997312 -1.0391202 -0.12278017 0
2.0922065 -1.0358509 0.53898275 0
2.0893855 -1.0349083 -0.040699009 0
2.0737159 -1.0275977 0.62013048 0
2.0895481 -1.0390794 0.040733919 0
2.093792 -1.0421016 0.12257081 0
2.0992067 -1.0452538 0.20516461 0
2.0846372 -1.0384533 -0.36887249 0
2.084048 -1.0386138 0.28590551 0
2.0838666 -1.0389776 -0.28590551 0
2.0876286 -1.0413082 0.36949828 0
2.0949106 -1.0449405 -0.204816 0
2.0763934 -1.0361567 0.45107248 0
2.097878 -1.0473351 -0.12288483 0
2.0763743 -1.0370525 0.53583342 0
2.0911272 -1.0448769 -0.040803727 0
2.0753002 -1.0374215 0.62168342 0
2.0948455 -1.0508502 0.040908441 0
2.0883567 -1.0485078 0.12246615 0
2.0919845 -1.0507865 0.204816 0
2.0880599 -1.0492717 -0.37012401 0
2.075089 -1.0432073 0.28517428 0
2.0820007 -1.0471371 -0.28614923 0
2.0769227 -1.0450374 0.36824676 0
2.0912504 -1.0522467 -0.204816 0
2.0762711 -1.0451638 0.45183572 0
2.0977769 -1.0564485 -0.12309418 0
2.0710011 -1.0434172 0.53538352 0
2.0749674 -1.0458696 -0.040559392 0
2.0751162 -1.0463989 0.62271863 0
2.0947328 -1.0599619 0.040978249 0
2.0918112 -1.0594007 0.12288483 0
2.0811946 -1.0544804 0.20411874 0
2.0826225 -1.0556607 -0.36981112 0
2.0909102 -1.0603204 0.28785542 0
2.0801032 -1.0552965 -0.28639299 0
2.0662162 -1.0487047 0.3669953 0
2.0733514 -1.0523262 -0.2034215 0
2.0761113 -1.0541828 0.45259899 0
2.0976379 -1.0655739 -0.12330353 0
2.0742953 -1.0541716 0.53718311 0
2.0659561 -1.0503871 -0.040454678 0
2.0611193 -1.0483809 0.61961281 0
2.0767713 -1.0599946 0.040699009 0
2.0952148 -1.0703305 0.12330353 0
2.0704045 -1.058112 0.2034215 0
2.0736485 -1.0602263 -0.36887249 0
2.0818942 -1.0649006 0.28712422 0
2.0817084 -1.065264 -0.28712422 0
2.0713346 -1.0604117 0.36855966 0
2.0696654 -1.0595571 -0.2034215 0
2.0584397 -1.0542636 0.44954604 0
2.0939057 -1.0728896 -0.12330353 0
2.0740714 -1.0631838 0.53808296 0
2.092526 -1.073105 -0.041048057 0
2.0574472 -1.0555692 0.61961281 0
2.0766146 -1.0690682 0.040768825 0
2.091466 -1.0776377 0.12330353 0
2.084408 -1.0744613 0.20516461 0
2.0664234 -1.0656474 -0.36824676 0
2.0675793 -1.0667002 0.28566176 0
2.079741 -1.0734344 -0.28736794 0
2.0781515 -1.0730734 0.37043685 0
2.0694947 -1.0686034 -0.20377012 0
2.0582352 -1.0632446 0.45030925 0
2.0777276 -1.0737731 -0.12257081 0
2.0703475 -1.0704172 0.53808296 0
2.0905437 -1.0813214 -0.041082963 0
2.0571816 -1.0645202 0.62064809 0
2.0746448 -1.0772319 0.040803727 0
2.0770581 -1.0794055 0.12267549 0
2.0824127 -1.0826499 0.20533893 0
2.0767112 -1.0801462 -0.37074974 0
2.0638433 -1.0739111 0.28566176 0
2.0654166 -1.0751878 -0.28590551 0
2.0708892 -1.0784962 0.36981112 0
2.0798891 -1.0831832 -0.20516461 0
2.0579937 -1.0722368 0.45107248 0
2.0792799 -1.0837888 -0.12288483 0
2.0614147 -1.0749344 0.53673321 0
2.0832105 -1.0867624 -0.041013155 0
2.0671544 -1.0788453 0.62478918 0
2.081501 -1.0900334 0.041013155 0
2.0732775 -1.0866493 0.12267549 0
2.0786209 -1.0899123 0.20533893 0
2.0746775 -1.0883064 -0.37106261 0
2.0706286 -1.0866433 0.28712422 0
2.065166 -1.0842364 -0.28639299 0
2.0566192 -1.080207 0.3679339 0
2.0690401 -1.086731 -0.20446737 0
2.0577142 -1.0812405 0.45183572 0
2.0807879 -1.0938282 -0.12319885 0
2.0559251 -1.0812165 0.53628331 0
2.0740952 -1.0912343 -0.040908441 0
2.0582476 -1.0833552 0.6232363 0
2.0812197 -1.0991602 0.041082963 0
2.0730033 -1.0957464 0.12288483 0
2.0659971 -1.0925046 0.20446737 0
2.0691197 -1.094618 -0.37074974 0
2.0738409 -1.0975788 0.28809914 0
2.0596144 -1.0905097 -0.28614923 0
2.0493445 -1.0855302 0.36730817 0
2.0581911 -1.0902162 -0.20377012 0
2.0643358 -1.0939323 0.45412543 0
2.0822508 -1.1038914 -0.12351287 0
2.0573032 -1.0911255 0.537633 0
2.068507 -1.0975301 -0.040873535 0
2.0459216 -1.0860043 0.62064809 0
2.0614855 -1.0979581 0.040768825 0
2.0728836 -1.1044931 0.12309418 0
2.058655 -1.0978345 0.20411874 0
2.0583148 -1.0981146 -0.36949828 0
2.0664945 -1.1029419 0.28761166 0
2.064743 -1.102007 -0.28736794 0
2.0527039 -1.0960418 0.36855966 0
2.054373 -1.0973938 -0.20377012 0
2.0483842 -1.0946542 0.45145413 0
2.0836689 -1.1139781 -0.12382689 0
2.0622663 -1.1025357 0.53988254 0
2.0701461 -1.1072129 -0.040978249 0
2.0440123 -1.0936942 0.62116575 0
2.0560713 -1.1038423 0.040733919 0
2.0727289 -1.1132511 0.12330353 0
2.0585129 -1.106542 0.20446737 0
2.054662 -1.1049342 -0.36949828 0
2.0628257 -1.1097885 0.28761166 0
2.0575809 -1.106967 -0.28688046 0
2.0594945 -1.1084598 0.37043685 0
2.0559857 -1.1070342 -0.20429306 0
2.0481997 -1.1033031 0.45221734 0
2.0658977 -1.1133018 -0.12298951 0
2.0568833 -1.1084439 0.53943259 0
2.0682232 -1.1150208 -0.041013155 0
2.045475 -1.1032176 0.62271863 0
2.0576758 -1.1135095 0.040838633 0
2.0582929 -1.1147724 0.12267549 0
2.0653427 -1.1190569 0.20551322 0
2.0579333 -1.1155071 -0.37074974 0
2.0451739 -1.1090527 0.28566176 0
2.0537045 -1.1141425 -0.28688046 0
2.057349 -1.1165844 0.37074974 0
2.0558054 -1.1157467 -0.20464167 0
2.0479805 -1.1119628 0.45298058 0
2.0639493 -1.1210996 -0.12309418 0
2.0427282 -1.1100342 0.53673321 0
2.0643187 -1.1222334 -0.041013155 0
2.0500972 -1.1149658 0.62530684 0
2.0590425 -1.1235589 0.040943347 0
2.0526361 -1.1209931 0.12257081 0
2.0631723 -1.1272148 0.20568755 0
2.0609603 -1.1264734 -0.3720012 0
2.0569656 -1.1247562 0.28785542 0
2.0445783 -1.1184466 -0.28614923 0
2.0430417 -1.1180691 0.36887249 0
2.0518982 -1.1229159 -0.20464167 0
2.0475304 -1.12099 0.45374379 0
2.0652788 -1.1311756 -0.12340819 0
2.0371318 -1.1162215 0.53628331 0
2.0533743 -1.1255875 -0.040873535 0
2.0428052 -1.1202574 0.62427157 0
2.0551078 -1.1307395 0.040943347 0
2.0592079 -1.1339319 0.12319885 0
2.0470095 -1.1276803 0.20446737 0
2.0552857 -1.1327071 -0.37168834 0
2.0512886 -1.1309711 0.28761166 0
2.0545673 -1.1332465 -0.28809914 0
2.0391264 -1.1251938 0.36887249 0
2.0444772 -1.1281465 -0.20429306 0
2.0470428 -1.1300282 0.45450708 0
2.0648146 -1.1403091 -0.12361754 0
2.046869 -1.1308647 0.53988254 0
2.0546832 -1.1356503 -0.040978249 0
2.0287385 -1.1217725 0.62116575 0
2.0441539 -1.1340259 0.040803727 0
2.0569832 -1.1420825 0.12330353 0
2.039577 -1.1328839 0.20411874 0
2.0375056 -1.1321987 -0.36918539 0
2.0507982 -1.1400534 0.28809914 0
2.0505991 -1.1404114 -0.28809914 0
2.0369127 -1.1332655 0.36918539 0
2.0405266 -1.1352763 -0.20429306 0
2.0362241 -1.1333476 0.45298058 0
2.0643115 -1.1494529 -0.12382689 0
2.0497189 -1.1417961 0.54168218 0
2.0524535 -1.1437889 -0.041013155 0
2.0281851 -1.1307286 0.62220097 0
2.0471637 -1.1450591 0.040943347 0
2.0599551 -1.1531581 0.12372221 0
2.0460403 -1.1458377 0.20516461 0
2.0352645 -1.1402695 -0.36949828 0
2.032953 -1.1394407 0.28614923 0
2.0518005 -1.1504751 -0.28883037 0
2.0484498 -1.1490662 0.3720012 0
2.0365515 -1.142392 -0.20429306 0
2.0288312 -1.138527 0.45221734 0
2.0533202 -1.1527407 -0.12340819 0
2.0457208 -1.1489441 0.54168218 0
2.0554218 -1.1548645 -0.041152775 0
2.0275941 -1.1396948 0.6232363 0
2.0501215 -1.1561272 0.041082963 0
2.0437419 -1.1534699 0.12298951 0
2.0524375 -1.1588501 0.20621049 0
2.0415916 -1.1531961 -0.37137547 0
2.0324197 -1.1484833 0.28663671 0
2.0322192 -1.148838 -0.28663671 0
2.0409875 -1.1542649 0.37137547 0
2.0446911 -1.1563596 -0.20551322 0
2.0316794 -1.1494689 0.45374379 0
2.0458074 -1.1579336 -0.12319885 0
2.0298274 -1.1493565 0.53853279 0
2.0531182 -1.1630179 -0.041187681 0
2.0303261 -1.150575 0.62530684 0
2.0512888 -1.1662415 0.041187681 0
2.0414388 -1.1615845 0.12309418 0
2.0483799 -1.1660073 0.20621049 0
2.0444198 -1.1642257 -0.37262696 0
2.0352979 -1.1595014 0.28761166 0
2.0299213 -1.1569077 -0.28688046 0
2.0283656 -1.1564901 0.36981112 0
2.0354497 -1.1605291 -0.2049903 0
2.0344763 -1.1604447 0.45527029 0
2.0486922 -1.1690272 -0.12361754 0
2.0274954 -1.1574012 0.53898275 0
2.0368905 -1.1632358 -0.040943347 0
2.0296524 -1.159572 0.62634212 0
2.0472052 -1.1733947 0.041187681 0
2.0425692 -1.171685 0.12340819 0
2.030473 -1.165217 0.204816 0
2.0334909 -1.1674209 -0.37137547 0
2.0381234 -1.1705532 0.28858662 0
2.0327556 -1.1679422 -0.28785542 0
2.0260291 -1.1645479 0.37012401 0
2.0244768 -1.1636558 -0.20429306 0
2.0270092 -1.1655821 0.45450708 0
2.0532551 -1.1811509 -0.1241409 0
2.0268209 -1.1664153 0.53988254 0
2.0293515 -1.1683432 -0.040873535 0
2.0188963 -1.162793 0.62427157 0
2.0327082 -1.1745307 0.040978249 0
2.04386 -1.1814504 0.12372221 0
2.0281179 -1.1732953 0.2049903 0
2.025984 -1.172533 -0.37074974 0
2.0374608 -1.1796499 0.28907412 0
2.0389726 -1.1810005 -0.28931785 0
2.0238652 -1.17225 0.37043685 0
2.0272982 -1.1747109 -0.2049903 0
2.0161343 -1.1687121 0.45298058 0
2.0508473 -1.1893128 -0.12424557 0
2.0345361 -1.1803284 0.54303181 0
2.0375738 -1.1820908 -0.041117873 0
2.0116878 -1.1675422 0.6232363 0
2.025346 -1.1792527 0.040908441 0
2.0414493 -1.1895834 0.12382689 0
2.0291731 -1.1833788 0.20551322 0
2.0152593 -1.1752645 -0.36949828 0
2.0301085 -1.1843991 0.28858662 0
2.0316162 -1.1857541 -0.28883037 0
2.0265846 -1.1832916 0.37168834 0
2.0231853 -1.1817805 -0.2049903 0
2.0156379 -1.1773719 0.45374379 0
2.0279233 -1.1850227 -0.12309418 0
2.030611 -1.1870687 0.54303181 0
2.0334353 -1.1891959 -0.041117873 0
2.0142694 -1.1784594 0.62530684 0
2.0332892 -1.1934009 0.041152775 0
2.0269516 -1.1906325 0.12319885 0
2.030391 -1.1931294 0.20603617 0
2.017956 -1.1862961 -0.37074974 0
2.0191176 -1.1874533 0.28761166 0
2.017199 -1.1867989 -0.28736794 0
2.0258467 -1.1923625 0.37231407 0
2.0295575 -1.1945466 -0.20603617 0
2.0182831 -1.188385 0.45527029 0
2.0289371 -1.1951354 -0.12340819 0
2.0130236 -1.1862348 0.53943259 0
2.0292718 -1.1962868 -0.041117873 0
2.0201278 -1.1913713 0.62841266 0
2.0325534 -1.2025275 0.041222587 0
2.0245018 -1.1987182 0.12330353 0
2.0296423 -1.2022405 0.20638479 0
2.0239995 -1.199375 -0.37262696 0
2.0183752 -1.1965183 0.28809914 0
2.016459 -1.1958584 -0.28785542 0
2.0080812 -1.1913633 0.36981112 0
2.0219486 -1.1995906 -0.20568755 0
2.0208755 -1.1994311 0.45679674 0
2.0299051 -1.2052695 -0.12372221 0
2.0088706 -1.1932542 0.53943259 0
2.0199265 -1.2002983 -0.041013155 0
2.0126355 -1.1964413 0.62737739 0
2.0334957 -1.2126877 0.041327298 0
2.0254505 -1.2088486 0.12361754 0
2.01688 -1.204211 0.20551322 0
2.0198004 -1.2064328 -0.37262696 0
2.0261147 -1.2106843 0.28980532 0
2.0156803 -1.2049267 -0.28834289 0
2.0073009 -1.2003933 0.37043685 0
2.007489 -1.2005059 -0.20464167 0
2.0082526 -1.2014382 0.45488867 0
2.0359683 -1.2185019 -0.12435025 0
2.0063651 -1.2012604 0.53988254 0
2.0140085 -1.2063143 -0.040978249 0
2.0018184 -1.1994876 0.62530684 0
2.0103974 -1.2084463 0.040943347 0
2.031487 -1.2220887 0.12424557 0
2.0126641 -1.2112439 0.20551322 0
2.0054228 -1.2073627 -0.37074974 0
2.0218763 -1.2177494 0.28980532 0
2.0250645 -1.2201513 -0.2902928 0
2.0098658 -1.2114718 0.37168834 0
2.0066988 -1.209563 -0.2049903 0
1.9973215 -1.204386 0.4533622 0
2.0317025 -1.2256012 -0.12435025 0
2.013839 -1.2153047 0.54303181 0
2.0080736 -1.2123036 -0.040943347 0
1.994312 -1.2044704 0.62427157 0
2.0061669 -1.2154564 0.040943347 0
2.0272088 -1.2291722 0.12424557 0
2.0101275 -1.2192954 0.20568755 0
2.0045736 -1.2164052 -0.37137547 0
2.0040381 -1.2165588 0.28785542 0
2.0173993 -1.2251517 -0.28980532 0
2.0056248 -1.2184802 0.37168834 0
2.0092757 -1.2206984 -0.20568755 0
1.9981385 -1.2144096 0.45450708 0
2.0171726 -1.22646 -0.12372221 0
2.0062547 -1.2203015 0.54213202 0
2.0140796 -1.2255427 -0.041152775 0
2.0032969 -1.2194606 0.62841266 0
2.0053253 -1.2245364 0.041013155 0
2.0075676 -1.2268678 0.12330353 0
2.0177581 -1.2335792 0.20690772 0
2.0070562 -1.2275176 -0.37262696 0
2.004859 -1.2266546 0.28858662 0
1.9995657 -1.2238958 -0.28785542 0
2.0013592 -1.2254736 0.37168834 0
2.0134983 -1.2329067 -0.20655911 0
2.0005836 -1.225479 0.45603353 0
2.0094731 -1.2314067 -0.12351287 0
2.0003214 -1.2262788 0.54168218 0
2.0114942 -1.2336111 -0.041187681 0
2.0056145 -1.2304869 0.63048321 0
2.0163655 -1.2409614 0.041327298 0
2.0083747 -1.2370104 0.12361754 0
2.0083513 -1.2374796 0.20638479 0
2.0061224 -1.2365893 -0.37325269 0
2.0107031 -1.2398971 0.29004908 0
1.9969707 -1.2319102 -0.28809914 0
1.990345 -1.2283025 0.37043685 0
2.0074868 -1.2388812 -0.20638479 0
1.9996349 -1.2345173 0.45679674 0
2.0085611 -1.2405125 -0.12372221 0
1.9960288 -1.2332538 0.54168218 0
1.9952687 -1.2332653 -0.040943347 0
1.9980209 -1.2354485 0.62944794 0
2.0120215 -1.2479925 0.041327298 0
2.0040445 -1.2440134 0.12361754 0
2.0006342 -1.2423801 0.20603617 0
2.0051494 -1.2456691 -0.37387842 0
2.011421 -1.2500519 0.29078028 0
2.0044594 -1.2462102 -0.28980532 0
1.9894004 -1.2373295 0.37106261 0
1.992999 -1.2395676 -0.20533893 0
1.9953133 -1.24149 0.45679674 0
2.0211749 -1.2580705 -0.12476893 0
1.9999831 -1.245364 0.54393166 0
1.9909515 -1.2402227 -0.040943347 0
1.9838588 -1.2362849 0.62634212 0
2.0008707 -1.2507684 0.041187681 0
2.0081558 -1.2562975 0.1241409 0
1.9962852 -1.2493562 0.20603617 0
1.9957659 -1.249516 -0.3729398 0
2.0087276 -1.2581189 0.291024 0
2.0101902 -1.2595236 -0.29126775 0
1.9884166 -1.2463644 0.37168834 0
1.9920363 -1.2486331 -0.20568755 0
1.9909674 -1.2484474 0.45679674 0
2.0100033 -1.2608726 -0.12435025 0
1.9972742 -1.2533735 0.54438156 0
1.9984658 -1.2546074 -0.041187681 0
1.986075 -1.2473123 0.62841266 0
1.9931085 -1.2556133 0.041117873 0
2.002069 -1.2622344 0.12403623 0
2.0020235 -1.2626941 0.20708205 0
1.9863805 -1.2533127 -0.3720012 0
1.9942516 -1.2587657 0.2895616 0
1.9990673 -1.2622933 -0.2902928 0
1.9974146 -1.2617373 0.37419128 0
1.9910344 -1.2577071 -0.20603617 0
1.9832784 -1.2532921 0.45603353 0
2.0005252 -1.2646794 -0.12403623 0
1.996181 -1.2624208 0.54528135 0
2.0008333 -1.2658522 -0.041327298 0
1.984974 -1.2563035 0.62944794 0
1.9971546 -1.2679218 0.041292395 0
1.9945003 -1.2667252 0.12382689 0
1.9959221 -1.2686059 0.20690772 0
1.9903282 -1.2655383 -0.37356552 0
1.9915204 -1.2667847 0.28980532 0
1.9929742 -1.2681979 -0.29004908 0
1.9932195 -1.2683541 0.37419128 0
1.9967167 -1.271069 -0.20708205 0
1.9822032 -1.2623163 0.45679674 0
1.9944139 -1.2705818 -0.12393155 0
1.981902 -1.2630972 0.54258198 0
1.9983112 -1.2735549 -0.041362204 0
1.9873126 -1.2670331 0.63151848 0
1.9996775 -1.278847 0.041432012 0
1.9934309 -1.2758328 0.12403623 0
1.994837 -1.2777146 0.20725635 0
1.9894475 -1.2742625 -0.37419128 0
1.9873087 -1.2733817 0.28980532 0
1.9887576 -1.2747999 -0.29004908 0
1.9821284 -1.2710385 0.3729398 0
1.9956216 -1.2801828 -0.20743066 0
1.9846164 -1.273123 0.45832324 0
1.9969132 -1.2815033 -0.12435025 0
1.9760625 -1.2686096 0.54213202 0
1.9820755 -1.2729583 -0.041117873 0
1.984503 -1.2750068 0.63203615 0
1.9901586 -1.2825695 0.041327298 0
1.9940004 -1.2860309 0.12435025 0
1.9872407 -1.2821623 0.20690772 0
1.9849873 -1.2811992 -0.37419128 0
1.9961931 -1.2889255 0.29175523 0
1.9842957 -1.2817341 -0.29004908 0
1.9710432 -1.2736615 0.37168834 0
1.9729577 -1.2748986 -0.20551322 0
1.9834578 -1.2821746 0.45908648 0
2.0024903 -1.2949735 -0.12497827 0
1.9781672 -1.2797335 0.54393166 0
1.9725835 -1.2766099 -0.041013155 0
1.9703103 -1.2756267 0.62893027 0
1.9789612 -1.2851526 0.041187681 0
1.9928485 -1.2951602 0.12455959 0
1.982753 -1.2890913 0.20690772 0
1.977191 -1.2859663 -0.37356552 0
1.9850261 -1.2915553 0.29078028 0
1.9897918 -1.2951503 -0.29151151 0
1.9781727 -1.2880791 0.37387842 0
1.9735043 -1.2850393 -0.20603617 0
1.9740349 -1.2858756 0.45794162 0
1.9979579 -1.3019555 -0.12497827 0
1.9883804 -1.2962087 0.54798079 0
1.9815153 -1.2922266 -0.041292395 0
1.9706997 -1.2856634 0.63048321 0
1.9778097 -1.2942423 0.041257489 0
1.9883153 -1.3021085 0.12455959 0
1.9765748 -1.2949129 0.20673342 0
1.9826032 -1.2993567 -0.37544277 0
1.9771856 -1.2962996 0.2902928 0
1.9885786 -1.3042655 -0.29199898 0
1.9802707 -1.299311 0.37512988 0
1.9756701 -1.2962924 -0.20673342 0
1.967893 -1.2916808 0.45755997 0
1.9867231 -1.3045368 -0.12455959 0
1.9773287 -1.2988621 0.5461812 0
1.9853483 -1.304626 -0.041466918 0
1.9694283 -1.2946568 0.63151848 0
1.9766186 -1.3033398 0.041327298 0
1.97709 -1.3046411 0.1241409 0
1.9836818 -1.3094878 0.2079536 0
1.9764069 -1.3051808 -0.37512988 0
1.9693358 -1.3010049 0.28980532 0
1.9707648 -1.3024431 -0.29004908 0
1.9757234 -1.3062155 0.37512988 0
1.9777813 -1.3075759 -0.20743066 0
1.9666474 -1.3007085 0.45832324 0
1.9821573 -1.3114638 -0.12455959 0
1.9711576 -1.3046808 0.54573125 0
1.9857843 -1.3148602 -0.041571636 0
1.9729499 -1.3068577 0.6341067 0
1.985382 -1.3190845 0.041606538 0
1.9741871 -1.3126402 0.12424557 0
1.975781 -1.3141974 0.20760499 0
1.9784173 -1.3164492 -0.37638137 0
1.9746974 -1.3144711 0.29126775 0
1.969511 -1.3115149 -0.29053652 0
1.9678638 -1.3109139 0.37450415 0
1.9698886 -1.3122627 -0.20708205 0
1.973531 -1.3151865 0.46099457 0
1.9842145 -1.3228064 -0.12497827 0
1.9649701 -1.3104721 0.54528135 0
1.9728651 -1.3162351 -0.04139711 0
1.9635557 -1.3105193 0.63255376 0
1.9807653 -1.3260068 0.041606538 0
1.9762304 -1.3239701 0.12466426 0
1.9711815 -1.3210862 0.20760499 0
1.9820138 -1.3288474 -0.37794572 0
1.9799886 -1.3279904 0.29273018 0
1.9715147 -1.3228059 -0.29151151 0
1.9632759 -1.3177751 0.37450415 0
1.960333 -1.3157998 -0.20655911 0
1.967298 -1.3209729 0.46061292 0
1.986217 -1.3341792 -0.12539697 0
1.9700887 -1.3238447 0.54798079 0
1.9699181 -1.3242292 -0.041432012 0
1.9605725 -1.3184435 0.63307142 0
1.962862 -1.3239671 0.041327298 0
1.9817626 -1.337219 0.12529229 0
1.966558 -1.3279589 0.20760499 0
1.9773631 -1.3357577 -0.37794572 0
1.9720515 -1.3326708 0.29224271 0
1.9701744 -1.3319032 -0.29199898 0
1.9605319 -1.3253846 0.37481701 0
1.9590288 -1.3248668 -0.20690772 0
1.9480406 -1.3179311 0.45717838 0
1.9832017 -1.3422238 -0.12550163 0
1.973524 -1.336176 0.55023026 0
1.9737952 -1.3363597 -0.041606538 0
1.9561894 -1.3249379 0.63307142 0
1.9634234 -1.3338401 0.041432012 0
1.9737794 -1.3418828 0.12508295 0
1.9652052 -1.3370568 0.2079536 0
2.0137532 -1.370087 -0.38576743 0
1.9610572 -1.3347354 0.29126775 0
1.9657468 -1.3384293 -0.29199898 0
1.9640565 -1.3377801 0.37638137 0
1.9609783 -1.3361846 -0.20760499 0
1.9485267 -1.3277004 0.45832324 0
1.9671875 -1.3409182 -0.12476893 0
1.9706923 -1.3438113 0.55068022 0
1.9724225 -1.3454953 -0.041676346 0
1.9483612 -1.3295801 0.63203615 0
1.9620556 -1.3429445 0.04150182 0
1.9641399 -1.3453784 0.12476893 0
1.9673347 -1.348071 0.20865084 0
2.0480623 -1.403913 -0.3932763 0
1.9547489 -1.3404498 0.291024 0
1.9610627 -1.345283 -0.29199898 0
1.9642611 -1.347981 0.37731999 0
1.9696786 -1.3516989 -0.20899945 0
1.9503543 -1.3389382 0.45984969 0
1.9657875 -1.3500383 -0.12497827 0
1.954746 -1.3429574 0.54753083 0
1.9710097 -1.3546375 -0.041746158 0
1.9596273 -1.3473179 0.63721251 0
1.9639407 -1.3543262 0.041641444 0
1.9577882 -1.3510919 0.12466426 0
1.9675361 -1.358326 0.20917378 0
2.1130419 -1.4593236 -0.40672967 0
1.9631236 -1.356292 0.29297391 0
1.9530889 -1.3498627 -0.29151151 0
1.9465452 -1.3458424 0.37481701 0
1.9551154 -1.3517678 -0.2079536 0
1.9537421 -1.3513223 0.46175778 0
1.9659904 -1.3603013 -0.12529229 0
1.948444 -1.3486636 0.54708099 0
1.9564049 -1.3546791 -0.041536726 0
1.9517362 -1.3519503 0.63617724 0
1.9624857 -1.3634553 0.041711252 0
1.9612592 -1.3636184 0.12518762 0
1.9578755 -1.3617728 0.20865084 0
2.1290147 -1.4813575 -0.41079697 0
1.9632652 -1.3665384 0.29370514 0
1.9581394 -1.3634781 -0.29297391 0
1.9418354 -1.3526288 0.37481701 0
1.9438454 -1.3540289 -0.20725635 0
1.9506242 -1.3592563 0.46213943 0
1.9694223 -1.3728663 -0.12581564 0
1.9517167 -1.3610301 0.54933047 0
1.9483842 -1.3592117 -0.041466918 0
1.9406681 -1.3543323 0.6341067 0
1.9495234 -1.3645637 0.041536726 0
1.9613948 -1.3738936 0.12550163 0
1.9498467 -1.366312 0.20830221 0
2.1400063 -1.5001189 -0.41392565 0
1.9601084 -1.374523 0.29394889 0
1.9566184 -1.3725851 -0.29346141 0
1.9468039 -1.366207 0.37669426 0
1.9456308 -1.3653837 -0.2079536 0
1.9378333 -1.3604168 0.46023133 0
1.9662527 -1.3808805 -0.12592033 0
1.950143 -1.3700751 0.55023026 0
1.9550802 -1.3740532 -0.041711252 0
1.9375092 -1.3622094 0.6346243 0
1.9414797 -1.3690557 0.041466918 0
1.9549553 -1.3795801 0.12539697 0
1.9515762 -1.3777061 0.20899945 0
1.9488133 -1.376775 0.29297391 0
1.9518152 -1.3794066 -0.29346141 0
1.9517007 -1.3798364 0.37857145 0
1.9441065 -1.3744674 -0.20830221 0
1.9378815 -1.3705739 0.46137619 0
1.9532683 -1.3819677 -0.12539697 0
1.9469395 -1.3779998 0.55068022 0
1.9584321 -1.3866471 -0.041885775 0
1.9437776 -1.3767804 0.63824779 0
1.9366889 -1.3758245 0.041466918 0
1.9550114 -1.3898678 0.12571098 0
1.9516262 -1.387974 0.2095224 0
1.9391437 -1.3801161 0.29224271 0
1.9405198 -1.381606 -0.29248646 0
1.9500902 -1.3889328 0.37919718 0
1.9474111 -1.3870246 -0.20917378 0
1.9378821 -1.3807476 0.46252102 0
1.9451797 -1.3864589 -0.12518762 0
1.9341841 -1.3791306 0.54843068 0
1.9486958 -1.3899913 -0.04178106 0
1.9436775 -1.3869237 0.63980073 0
1.9546406 -1.3988694 0.041955583 0
1.9387811 -1.388543 0.12497827 0
1.9532478 -1.3994197 0.21021965 0
1.9488339 -1.3972869 0.29443637 0
1.9372983 -1.389528 -0.29273018 0
1.9323903 -1.3865187 0.37669426 0
1.9425576 -1.3938138 -0.20917378 0
1.9362406 -1.389793 0.46328428 0
1.9500622 -1.4002298 -0.12581564 0
1.935689 -1.3904214 0.55023026 0
1.9405839 -1.3944511 -0.041711252 0
1.9388244 -1.3936998 0.63980073 0
1.9497459 -1.4056838 0.041955583 0
1.9436408 -1.4023137 0.12560631 0
1.9402735 -1.4003991 0.2093481 0
1.9439445 -1.4040811 0.29443637 0
1.9340451 -1.3974446 -0.29297391 0
1.9339424 -1.3978842 0.37794572 0
1.9279919 -1.3935831 -0.2081279 0
1.9313774 -1.3965434 0.46328428 0
1.9516358 -1.4117109 -0.12623434 0
1.9387175 -1.4028819 0.5524798 0
1.9276057 -1.3953537 -0.041536726 0
1.927689 -1.3959268 0.63773018 0
1.9286473 -1.40073 0.041606538 0
1.9454433 -1.4134471 0.12602501 0
1.9337618 -1.4059917 0.20917378 0
1.9470572 -1.4166979 0.29565504 0
1.9355754 -1.4088602 -0.29394889 0
1.9308933 -1.4054523 0.37825859 0
1.9263371 -1.4026502 -0.20847654 0
1.9201432 -1.398653 0.46175778 0
1.9466962 -1.4185146 -0.12623434 0
1.9369582 -1.4119364 0.5533796 0
1.9407433 -1.4146955 -0.041920681 0
1.9230493 -1.4023116 0.63773018 0
1.9207636 -1.4047573 0.041536726 0
1.9404975 -1.4202294 0.12602501 0
1.9352717 -1.4174424 0.20987104 0
1.9311397 -1.4149339 0.29394889 0
1.9308928 -1.4152709 -0.29394889 0
1.9291618 -1.41452 0.37888432 0
1.9310684 -1.4164362 -0.2095224 0
1.9154946 -1.4050128 0.46175778 0
1.9355402 -1.420236 -0.12581564 0
1.9401201 -1.4241174 0.55562907 0
1.9406286 -1.4250121 -0.042025398 0
1.9212567 -1.4113033 0.63876545 0
1.9303378 -1.4221281 0.041850869 0
1.9307055 -1.4234387 0.12571098 0
1.9401813 -1.4309479 0.21091689 0
1.9325776 -1.4263816 0.29492384 0
1.922747 -1.4196444 -0.29346141 0
1.9273902 -1.4235926 0.37951005 0
1.9295661 -1.4251997 -0.20987104 0
1.9137365 -1.414024 0.46252102 0
1.9353895 -1.4305451 -0.12612967 0
1.9241689 -1.4227709 0.5524798 0
1.932427 -1.4293989 -0.041955583 0
1.9302948 -1.4283431 0.64342415 0
1.9366028 -1.4371995 0.042095207 0
1.9209145 -1.426597 0.12539697 0
1.9399725 -1.4412763 0.21143983 0
1.9339591 -1.4378566 0.2958988 0
1.9209654 -1.4287165 -0.29394889 0
1.9160699 -1.4255952 0.37825859 0
1.9309733 -1.4366835 -0.21056828 0
1.9213883 -1.4300729 0.46557397 0
1.933588 -1.4396777 -0.126339 0
1.9191908 -1.4294789 0.5524798 0
1.9226152 -1.4325513 -0.041850869 0
1.9221994 -1.4327632 0.64238888 0
1.9315742 -1.4439508 0.042095207 0
1.9319158 -1.4452575 0.12644368 0
1.9285494 -1.443264 0.21074259 0
1.9352838 -1.4493583 0.29687375 0
1.9254985 -1.4425547 -0.29541129 0
1.911082 -1.4322746 0.37825859 0
1.913192 -1.433856 -0.20917378 0
1.9179553 -1.4379488 0.46595559 0
1.9349421 -1.451212 -0.1267577 0
1.9266595 -1.4455256 0.55607903 0
1.9192023 -1.4404542 -0.041885775 0
1.9171865 -1.4394642 0.64238888 0
1.9153398 -1.4422641 0.041850869 0
1.9316446 -1.4555985 0.1267577 0
1.9219083 -1.4487877 0.21056828 0
1.933382 -1.4584957 0.29736122 0
1.9267896 -1.4540502 -0.29638627 0
1.9123769 -1.4436976 0.37951005 0
1.9065851 -1.4393251 -0.20899945 0
1.9019575 -1.436353 0.46328428 0
1.936239 -1.4627731 -0.12717639 0
1.9200473 -1.451067 0.55562907 0
1.9157579 -1.4483508 -0.041920681 0
1.9059869 -1.4414866 0.64031839 0
1.9089534 -1.4473996 0.041815966 0
1.9283978 -1.4632031 0.12686236 0
1.9218545 -1.4587669 0.21109121 0
1.915889 -1.4552931 0.29541129 0
1.9187962 -1.4580296 -0.2958988 0
1.9264504 -1.4643763 0.38326448 0
1.9110649 -1.4532076 -0.21004534 0
1.9034349 -1.4474056 0.46481073 0
1.9250195 -1.4643489 -0.1267577 0
1.9214281 -1.4621466 0.55742872 0
1.9173089 -1.4595406 -0.042060301 0
1.9073439 -1.4524807 0.64238888 0
1.9134246 -1.4613369 0.042025398 0
1.9074099 -1.4577975 0.12581564 0
1.9212427 -1.4694324 0.21161415 0
1.9139506 -1.4643846 0.2958988 0
1.910542 -1.4623055 -0.29541129 0
1.9150534 -1.4662884 0.38201302 0
1.9154712 -1.4671388 -0.21109121 0
1.901234 -1.4567604 0.46557397 0
1.9164691 -1.4689647 -0.12654836 0
1.9067774 -1.4620645 0.55472928 0
1.9153762 -1.4686577 -0.042130109 0
1.9114594 -1.4661843 0.64549476 0
1.927073 -1.4829745 0.042444255 0
1.913131 -1.4733093 0.12654836 0
1.9239933 -1.4822093 0.2124857 0
1.9117148 -1.4738137 0.29638627 0
1.9051697 -1.4692981 -0.29541129 0
1.9065384 -1.4708842 0.38138729 0
1.9103383 -1.4738159 -0.21109121 0
1.9054626 -1.4705851 0.46786368 0
1.920815 -1.4829687 -0.12717639 0
1.9047468 -1.4710938 0.55562907 0
1.9004861 -1.4683326 -0.041920681 0
1.9091296 -1.475543 0.64653003 0
1.9124016 -1.4823418 0.042234823 0
1.9111329 -1.4824266 0.1267577 0
1.8983446 -1.4730377 0.21021965 0
1.9175338 -1.4890002 0.29809242 0
1.9063001 -1.4808106 -0.29638627 0
1.8982725 -1.4751061 0.3807615 0
1.8957425 -1.47314 -0.21004534 0
1.9003177 -1.4772274 0.46786368 0
1.9219335 -1.4945688 -0.12759508 0
1.9026765 -1.4801267 0.55652893 0
1.8985052 -1.4774139 -0.041990492 0
1.9009187 -1.4798248 0.64549476 0
1.9024868 -1.4853165 0.042130109 0
1.9125028 -1.4936732 0.12717639 0
1.8963308 -1.4821091 0.21056828 0
1.9123244 -1.4956846 0.29809242 0
1.9042462 -1.4899024 -0.29687375 0
1.9058166 -1.4911311 0.38326448 0
1.8905888 -1.4797486 -0.21004534 0
1.8951497 -1.4838517 0.46786368 0
1.9229943 -1.5061947 -0.12801376 0
1.9067019 -1.4939708 0.5592283 0
1.9077621 -1.4948014 -0.042304631 0
1.900562 -1.4896955 0.64704764 0
1.9022673 -1.4953245 0.042234823 0
1.908847 -1.501575 0.12728105 0
1.8989733 -1.4948814 0.21143983 0
1.8948774 -1.4921926 0.29614252 0
1.9039732 -1.499894 -0.29760498 0
1.9068062 -1.5026652 0.38451597 0
1.8885412 -1.4888058 -0.21039395 0
1.887135 -1.4876974 0.46710047 0
1.8991697 -1.4977221 -0.1267577 0
1.9017371 -1.5002855 0.5592283 0
1.9056722 -1.5039293 -0.042374443 0
1.8877691 -1.4903352 0.64445943 0
1.9033073 -1.5069208 0.042374443 0
1.8944629 -1.5004563 0.12665303 0
1.9049356 -1.5098332 0.21266 0
1.8927677 -1.5012652 0.29663 0
1.8925055 -1.5015956 -0.29663 0
1.9049075 -1.5114357 0.3851417 0
1.8945179 -1.5037309 -0.21161415 0
1.8880806 -1.4991587 0.46862692 0
1.8970579 -1.5068268 -0.12696704 0
1.8934371 -1.5044899 0.55832851 0
1.9085026 -1.5164607 -0.042548969 0
1.8979398 -1.508608 0.64963585 0
1.9029906 -1.5169634 0.042479157 0
1.8923365 -1.509551 0.12686236 0
1.8980967 -1.5152305 0.2124857 0
1.8986372 -1.5162047 0.29833618 0
1.8813119 -1.5029072 -0.29565504 0
1.8903611 -1.5106765 0.38326448 0
1.8908134 -1.5115789 -0.21178845 0
1.8922997 -1.5127672 0.47091663 0
1.8951703 -1.5156043 -0.12717639 0
1.8853942 -1.5083258 0.55742872 0
1.8860235 -1.5093689 -0.042165015 0
1.8926622 -1.515224 0.64963585 0
1.8945653 -1.521093 0.042409346 0
1.8932836 -1.5211512 0.12728105 0
1.8868496 -1.5165238 0.21178845 0
1.8995204 -1.5277995 0.29931113 0
1.8806944 -1.5131983 -0.29638627 0
1.8881541 -1.5197432 0.38389024 0
1.8839737 -1.5169204 -0.21161415 0
1.8821553 -1.515998 0.46977177 0
1.9020444 -1.5325651 -0.12801376 0
1.8952922 -1.5271246 0.56192774 0
1.8807433 -1.5159433 -0.042165015 0
1.8783385 -1.5145456 0.64653003 0
1.8827589 -1.5229963 0.042269729 0
1.8908004 -1.5305935 0.1274904 0
1.8781818 -1.5209217 0.21143983 0
1.9000771 -1.5397507 0.30028611 0
1.889014 -1.5313317 -0.2985799 0
1.8887082 -1.5316304 0.3851417 0
1.8799485 -1.5250705 -0.21178845 0
1.8720131 -1.5191748 0.46862692 0
1.8995157 -1.5420438 -0.12822311 0
1.8987602 -1.5414305 0.56462717 0
1.8844882 -1.5303901 -0.042374443 0
1.8757734 -1.523856 0.64756525 0
1.8802642 -1.5324134 0.042339537 0
1.8900901 -1.5409706 0.12780441 0
1.8818574 -1.5353525 0.2124857 0
1.8790438 -1.5341498 0.2978487 0
1.8833888 -1.538245 -0.2985799 0
1.8894702 -1.5432119 0.38639316 0
1.8807851 -1.5366659 -0.2124857 0
1.8666989 -1.5257002 0.46862692 0
1.8879365 -1.5436082 -0.12780441 0
1.8870639 -1.5434442 0.56282753 0
1.8868742 -1.5432889 -0.042548969 0
1.8794137 -1.5377346 0.65067112 0
1.876718 -1.5399086 0.042374443 0
1.8800688 -1.5437564 0.1274904 0
1.8841835 -1.5482367 0.21335725 0
1.8800803 -1.5454148 0.29882365 0
1.8675444 -1.5356565 -0.29687375 0
1.8840718 -1.549798 0.38639316 0
1.8754097 -1.5432218 -0.2124857 0
1.8752729 -1.5431092 0.47206149 0
1.8828074 -1.5498602 -0.12780441 0
1.8774223 -1.545977 0.56147784 0
1.8891928 -1.556223 -0.042723492 0
1.8770164 -1.5467428 0.6517064 0
1.8882873 -1.5604625 0.042758394 0
1.8777467 -1.5528554 0.12769975 0
1.8882498 -1.5620961 0.21440312 0
1.8777326 -1.5544996 0.29931113 0
1.8621726 -1.542166 -0.29687375 0
1.8725659 -1.5513244 0.3851417 0
1.8733504 -1.5519743 -0.21283433 0
1.8744098 -1.5534037 0.47320631 0
1.877386 -1.5564231 -0.12780441 0
1.8705144 -1.5512772 0.56102794 0
1.8683589 -1.5500401 -0.042374443 0
1.8656595 -1.5483503 0.64963585 0
1.8843659 -1.5683236 0.0427933 0
1.8799884 -1.5657915 0.12822311 0
1.8720708 -1.5597506 0.21318294 0
1.8814429 -1.5686721 0.30077356 0
1.8689735 -1.5588286 -0.29882365 0
1.8671393 -1.5578516 0.3851417 0
1.864862 -1.5559514 -0.2124857 0
1.8674688 -1.5586792 0.47282472 0
1.8842065 -1.5732075 -0.1286418 0
1.8710706 -1.5627939 0.56282753 0
1.8721441 -1.5642452 -0.042583872 0
1.8543142 -1.5498974 0.64756525 0
1.8635547 -1.5620459 0.042444255 0
1.8854988 -1.5810001 0.12895581 0
1.8635621 -1.5637141 0.21283433 0
1.8759558 -1.57523 0.30077356 0
1.8696008 -1.5704503 -0.29979861 0
1.8695259 -1.5703874 0.38670605 0
1.8563684 -1.5598878 -0.21213706 0
1.8545026 -1.5588722 0.47091663 0
1.8787036 -1.579775 -0.1286418 0
1.8760431 -1.5780967 0.56597686 0
1.8700073 -1.5730195 -0.04265368 0
1.8521206 -1.5585257 0.64860052 0
1.8660058 -1.5746653 0.042618778 0
1.8753908 -1.5837064 0.1286418 0
1.8626579 -1.574068 0.21335725 0
1.86769 -1.5788791 0.30028611 0
1.8643827 -1.5766413 -0.29979861 0
1.8700652 -1.5820068 0.38795751 0
1.8569957 -1.5715065 -0.21283433 0
1.8553174 -1.5700862 0.4724431 0
1.8673569 -1.5808344 -0.12822311 0
1.8752609 -1.5880874 0.56732655 0
1.8690822 -1.5834153 -0.042758394 0
1.8599334 -1.5762223 0.65325934 0
1.8696405 -1.5889393 0.04282821 0
1.8637654 -1.585067 0.12822311 0
1.8726027 -1.5931463 0.21510038 0
1.8561209 -1.5802417 0.29931113 0
1.8498003 -1.575417 -0.29833618 0
1.8630279 -1.5872439 0.38764465 0
1.8605971 -1.5857335 -0.2138802 0
1.8528137 -1.5791 0.47320631 0
1.8603075 -1.5860474 -0.12811844 0
1.8652579 -1.59083 0.56597686 0
1.8681076 -1.5938234 -0.042863112 0
1.8632364 -1.5902296 0.6563651 0
1.8747171 -1.604558 0.04307254 0
1.8597379 -1.5928624 0.12832777 0
1.8652382 -1.5987024 0.21492605 0
1.8641567 -1.59834 0.30150479 0
1.8503168 -1.5870339 -0.29931113 0
1.8514794 -1.5885921 0.38639316 0
1.8580744 -1.5948137 -0.21422882 0
1.8559511 -1.5935537 0.47549605 0
1.8650876 -1.6019644 -0.12885113 0
1.8594146 -1.5976558 0.56597686 0
1.8534322 -1.5925155 -0.04265368 0
1.8547442 -1.5942055 0.65532982 0
1.867309 -1.6101123 0.043037634 0
1.8587039 -1.6032581 0.1286418 0
1.8536136 -1.5999962 0.21422882 0
1.8627927 -1.6090546 0.30223599 0
1.8507748 -1.5986737 -0.30028611 0
1.8459228 -1.5950451 0.38639316 0
1.8464667 -1.5960782 -0.21353155 0
1.8563173 -1.605159 0.4770225 0
1.8655264 -1.6136916 -0.12926982 0
1.8585279 -1.6076379 0.56732655 0
1.8448377 -1.5963584 -0.042583872 0
1.8418648 -1.5943482 0.65274167 0
1.855919 -1.6110523 0.042898018 0
1.862425 -1.61727 0.12926982 0
1.8482976 -1.6061342 0.21422882 0
1.8604428 -1.6178284 0.3027235 0
1.8484592 -1.6074076 -0.30077356 0
1.8495659 -1.6089368 0.38827038 0
1.8381579 -1.5995767 -0.21318294 0
1.8332146 -1.5958375 0.4724431 0
1.8616712 -1.6211807 -0.1293745 0
1.8590652 -1.6189113 0.56912619 0
1.848581 -1.6103485 -0.0427933 0
1.8394804 -1.6029856 0.65377688 0
1.8505664 -1.6171979 0.042898018 0
1.8627824 -1.6290203 0.12968852 0
1.8459603 -1.6148782 0.21457744 0
1.8475993 -1.6174511 0.30150479 0
1.8443304 -1.6151577 -0.30101728 0
1.8528535 -1.6231931 0.39014763 0
1.8388381 -1.6109149 -0.2138802 0
1.8367717 -1.6096717 0.47473282 0
1.8457721 -1.6181289 -0.1286418 0
1.8563331 -1.6279604 0.57002598 0
1.8519678 -1.624704 -0.043002732 0
1.8411338 -1.6157683 0.6563651 0
1.8569193 -1.6342167 0.043177254 0
1.8495902 -1.6289127 0.12916516 0
1.8537669 -1.6331655 0.21614623 0
1.8449203 -1.6265159 0.30199227 0
1.8416587 -1.6242119 -0.30150479 0
1.8486574 -1.6309578 0.39046046 0
1.8391798 -1.6225964 -0.21457744 0
1.8340856 -1.6186715 0.47549605 0
1.8431071 -1.6272057 -0.12885113 0
1.8418751 -1.6266903 0.56732655 0
1.8462852 -1.6311588 -0.043002732 0
1.8441677 -1.6298612 0.65947098 0
1.8541964 -1.6433411 0.043247063 0
1.8394103 -1.6313834 0.12885113 0
1.8495452 -1.6409488 0.21632054 0
1.8422003 -1.6355819 0.30247974 0
1.835978 -1.6306306 -0.30150479 0
1.832616 -1.6282169 0.38827038 0
1.8335046 -1.6290064 -0.21457744 0
1.8342941 -1.6302805 0.4770225 0
1.8493569 -1.644246 -0.12968852 0
1.8420104 -1.63829 0.56912619 0
1.834604 -1.6322767 -0.042863112 0
1.8399105 -1.6375729 0.65998858 0
1.8469567 -1.6484718 0.043212157 0
1.8456213 -1.6484379 0.12968852 0
1.8363773 -1.6407576 0.21544899 0
1.8468387 -1.6512644 0.3041859 0
1.8361932 -1.6423229 -0.30247974 0
1.8328098 -1.6398726 0.38952184 0
1.8337466 -1.6407107 -0.21527468 0
1.8315179 -1.6392925 0.47778577 0
1.8525338 -1.6586851 -0.13031654 0
1.8420868 -1.6499104 0.57092577 0
1.8274062 -1.6373364 -0.04282821 0
1.8255515 -1.6362491 0.65688276 0
1.8367295 -1.6508986 0.043107443 0
1.8457958 -1.6602126 0.13010719 0
1.8336009 -1.6498231 0.21579762 0
1.8395883 -1.6563728 0.30394217 0
1.8333992 -1.6513795 -0.30296722 0
1.8329444 -1.6515495 0.39077336 0
1.8250477 -1.6444342 -0.21492605 0
1.8257847 -1.6456757 0.47778577 0
1.8467325 -1.6651416 -0.13031654 0
1.8449987 -1.6641619 0.57362521 0
1.8365263 -1.6571012 -0.043177254 0
1.8198287 -1.6426115 0.65688276 0
1.8354033 -1.6613258 0.043212157 0
1.8399893 -1.6666456 0.13010719 0
1.8366894 -1.6642402 0.21684349 0
