# .PCD v0.7 - Point Cloud Data file format
VERSION 0.7
FIELDS x y z rgba
SIZE 4 4 4 4
TYPE F F F U
COUNT 1 1 1 1
WIDTH 1376
HEIGHT 1
VIEWPOINT 0 0 0 1 0 0 0
POINTS 1376
DATA ascii
2.7254953 -0.29656485 -0.047854498 0
2.7051499 -0.29865128 0.04750545 0
2.6938093 -0.29835111 0.14203981 0
2.7049589 -0.30054182 0.23810948 0
2.6831625 -0.29859415 0.33148462 0
2.6718895 -0.2982839 0.42581466 0
2.7186089 -0.30397993 -0.23932965 0
2.6808054 -0.29975295 0.52434313 0
2.7232156 -0.30497628 -0.14360988 0
2.6666923 -0.29911745 0.61951524 0
2.7125201 -0.30473724 -0.04764507 0
2.7060778 -0.30831861 0.047540355 0
2.7006886 -0.30865958 0.14245848 0
2.6841528 -0.30724433 0.23636638 0
2.6899922 -0.30886406 0.3324596 0
2.6649449 -0.30693063 0.42487606 0
2.6958139 -0.31048593 -0.23741224 0
2.6680405 -0.30775905 0.52205342 0
2.7221344 -0.31448022 -0.14360988 0
2.6656318 -0.30842412 0.61951524 0
2.691576 -0.31190199 -0.047296021 0
2.6970408 -0.31682947 0.047400735 0
2.7075286 -0.31901971 0.14287716 0
2.683064 -0.31661192 0.23636638 0
2.6849551 -0.31778541 0.33197212 0
2.6658189 -0.31646407 0.42518893 0
2.6947136 -0.31989419 -0.23741224 0
2.6552529 -0.31567976 0.51976377 0
2.7190366 -0.32374418 -0.1435052 0
2.6703441 -0.31841925 0.62086493 0
2.70437 -0.32295531 -0.047540355 0
2.6899626 -0.32552126 0.047296021 0
2.698468 -0.32750627 0.14245848 0
2.6819425 -0.32597563 0.23636638 0
2.6798882 -0.32667524 0.33148462 0
2.6803842 -0.32768527 0.42769188 0
2.6935804 -0.32929856 -0.23741224 0
2.654135 -0.3249464 0.51976377 0
2.7040133 -0.33153203 -0.14277251 0
2.6692164 -0.32773855 0.62086493 0
2.7191043 -0.33434576 -0.047819596 0
2.6888101 -0.33490899 0.047296021 0
2.6893809 -0.33593348 0.14203981 0
2.6926503 -0.33681914 0.23741224 0
2.6747925 -0.33553365 0.33099717 0
2.6733441 -0.33629993 0.42675328 0
2.7042751 -0.34019098 -0.2384581 0
2.658828 -0.3349452 0.52090853 0
2.7028394 -0.34096879 -0.14277251 0
2.6564558 -0.33558837 0.61816549 0
2.6941137 -0.34082344 -0.047400735 0
2.6995256 -0.34581718 0.04750545 0
2.6822491 -0.34455574 0.14172579 0
2.6855297 -0.34545362 0.2368893 0
2.6716363 -0.34461445 0.33075345 0
2.6623588 -0.34436259 0.42518893 0
2.7030711 -0.34962854 -0.2384581 0
2.6673777 -0.34548512 0.52281672 0
2.7016327 -0.35040137 -0.14277251 0
2.6514032 -0.3443571 0.6172657 0
2.6790268 -0.34842029 -0.047156405 0
2.6943371 -0.35471621 0.047435641 0
2.6968706 -0.35600752 0.14256316 0
2.6764066 -0.35378137 0.23619205 0
2.6841919 -0.35576382 0.3324596 0
2.6591823 -0.35339361 0.42487606 0
2.6820841 -0.35643718 -0.23671499 0
2.6622632 -0.35427591 0.52205342 0
2.7142513 -0.36167631 -0.1435052 0
2.6521163 -0.35386789 0.6177156 0
2.6797764 -0.35803455 -0.047191311 0
2.6911006 -0.36385107 0.047400735 0
2.6916533 -0.36488256 0.1423538 0
2.6731813 -0.36285368 0.23601775 0
2.675066 -0.36406049 0.33148462 0
2.6638041 -0.36347497 0.42581466 0
2.6808236 -0.36579725 -0.23671499 0
2.6473939 -0.36170644 0.51938212 0
2.707036 -0.37033644 -0.14319119 0
2.6566572 -0.36391678 0.61906528 0
2.6844535 -0.36820173 -0.047296021 0
2.6779299 -0.37159348 0.047191311 0
2.6962974 -0.37510151 0.14266783 0
2.6738718 -0.37245744 0.23619205 0
2.661983 -0.37174869 0.33002222 0
2.6723008 -0.37414062 0.42737901 0
2.6874232 -0.37625787 -0.23741224 0
2.6383383 -0.3698552 0.51785564 0
2.6938598 -0.3781178 -0.14256316 0
2.6592302 -0.37373045 0.61996508 0
2.6910729 -0.37868464 -0.047435641 0
2.6360548 -0.37141168 0.71330529 0
2.6865151 -0.38234767 0.047365833 0
2.6831086 -0.38281846 0.14203981 0
2.686362 -0.38376111 0.23741224 0
2.6645992 -0.3816013 0.33050969 0
2.6670675 -0.38290495 0.42675328 0
2.6939819 -0.38676897 -0.23810948 0
2.640918 -0.37962109 0.51861888 0
2.6925232 -0.38751882 -0.14256316 0
2.6482654 -0.38162088 0.6177156 0
2.6917138 -0.38836145 -0.047470544 0
2.6481264 -0.38254446 0.71692878 0
2.693079 -0.39287773 0.04750545 0
2.6698985 -0.39044785 0.14141177 0
2.6810629 -0.39255854 0.2370636 0
2.6632509 -0.39090014 0.33050969 0
2.6481259 -0.38962451 0.42393744 0
2.6926155 -0.39617035 -0.23810948 0
2.6609418 -0.39198464 0.52281672 0
2.6911542 -0.39691514 -0.14256316 0
2.6449895 -0.39057806 0.6172657 0
2.6804507 -0.39629257 -0.047296021 0
2.6467748 -0.39178583 0.71692878 0
2.6798248 -0.40050247 0.047296021 0
2.6804407 -0.4010728 0.14203981 0
2.6757357 -0.40132377 0.23671499 0
2.6677592 -0.40107965 0.33124092 0
2.6507261 -0.39899191 0.4245632 0
2.6754549 -0.40319169 -0.23671499 0
2.6479096 -0.39951327 0.52052695 0
2.7035761 -0.40839481 -0.14329587 0
2.64361 -0.39980841 0.6172657 0
2.6791217 -0.40517908 -0.047296021 0
2.6263604 -0.39766857 0.71175241 0
2.6705751 -0.40817839 0.047156405 0
2.6829727 -0.41103172 0.14224915 0
2.6664414 -0.40945181 0.23601775 0
2.6605284 -0.40901914 0.33050969 0
2.6434603 -0.40733975 0.4236246 0
2.6740313 -0.41252831 -0.23671499 0
2.631048 -0.40589717 0.517474 0
2.6962855 -0.41644335 -0.14298184 0
2.6518989 -0.41006172 0.61951524 0
2.687572 -0.41605812 -0.047470544 0
2.6268654 -0.40712968 0.71227002 0
2.6691341 -0.41749796 0.047156405 0
2.685468 -0.42101321 0.14245848 0
2.6729419 -0.4195275 0.23671499 0
2.6532013 -0.41737816 0.32977846 0
2.6615348 -0.4196412 0.42675328 0
2.6785529 -0.42232445 -0.23723793 0
2.6296151 -0.41507885 0.517474 0
2.6829786 -0.42398208 -0.1423538 0
2.6427519 -0.418098 0.6177156 0
2.6940036 -0.42668825 -0.047610167 0
2.625428 -0.41629672 0.71227002 0
2.6755588 -0.42807615 0.047296021 0
2.6701775 -0.42817113 0.14172579 0
2.6793303 -0.4301185 0.23741224 0
2.6478086 -0.42600635 0.32929099 0
2.6444523 -0.42641345 0.42425033 0
2.6809964 -0.43230608 -0.23758654 0
2.6320264 -0.42488113 0.51823723 0
2.6775391 -0.43270761 -0.14214447 0
2.6335816 -0.42607549 0.61591601 0
2.666836 -0.43193319 -0.047156405 0
2.6334937 -0.42700464 0.71485823 0
2.677995 -0.43805861 0.047365833 0
2.6607828 -0.43619674 0.14130709 0
2.6758466 -0.4391458 0.23723793 0
2.6521819 -0.43621287 0.33002222 0
2.6390495 -0.43499914 0.4236246 0
2.673573 -0.44068971 -0.2370636 0
2.6382756 -0.43534455 0.51976377 0
2.6838946 -0.44335344 -0.14256316 0
2.6301556 -0.43494782 0.61546606 0
2.6771491 -0.44319919 -0.047365833 0
2.6167405 -0.43366775 0.71071708 0
2.6725051 -0.44674447 0.047296021 0
2.6671233 -0.44680196 0.14172579 0
2.6428578 -0.44321114 0.23444894 0
2.6623888 -0.44744205 0.33148462 0
2.6336195 -0.44355237 0.42299888 0
2.6621952 -0.44836506 -0.23619205 0
2.6406116 -0.44520399 0.52052695 0
2.6823306 -0.45271924 -0.14256316 0
2.6363075 -0.4454248 0.6172657 0
2.6598125 -0.44987357 -0.047086593 0
2.5923538 -0.4389292 0.70450544 0
2.6610734 -0.45438758 0.047121495 0
2.6694846 -0.45678291 0.14193512 0
2.6354034 -0.45142457 0.233926 0
2.6588542 -0.45639697 0.33124092 0
2.6340017 -0.45307761 0.42331171 0
2.6606138 -0.45765519 -0.23619205 0
2.6235633 -0.4517535 0.517474 0
2.6846704 -0.46275806 -0.14277251 0
2.6404977 -0.45561856 0.61861545 0
2.6700487 -0.4611975 -0.047296021 0
2.5869987 -0.44731721 0.70347023 0
2.6555312 -0.4629868 0.047051687 0
2.6796787 -0.46816078 0.14256316 0
2.6593254 -0.46508321 0.23619205 0
2.637692 -0.46224871 0.32880351 0
2.6538057 -0.4660275 0.42675328 0
2.664887 -0.46797347 -0.23671499 0
2.6142359 -0.45954904 0.51594758 0
2.6712365 -0.47004968 -0.14214447 0
2.6350527 -0.46415666 0.6177156 0
2.6763 -0.47190392 -0.047435641 0
2.6025434 -0.45936695 0.70812893 0
2.6578364 -0.47295418 0.047121495 0
2.6545157 -0.47284123 0.14130709 0
2.6557245 -0.47401309 0.23601775 0
2.6380162 -0.47180262 0.32904723 0
2.6366901 -0.47204033 0.42425033 0
2.6710823 -0.47867864 -0.23741224 0
2.6203456 -0.47005826 0.517474 0
2.6617162 -0.47795919 -0.14172579 0
2.6314986 -0.47300714 0.6172657 0
2.6766887 -0.48112997 -0.047470544 0
2.6105123 -0.46970528 0.71071708 0
2.6601889 -0.48247907 0.047191311 0
2.652849 -0.48210439 0.14130709 0
2.6501336 -0.48256657 0.23566914 0
2.648155 -0.48268384 0.33050969 0
2.6233668 -0.47911182 0.42237309 0
2.6654749 -0.48728287 -0.2370636 0
2.6284285 -0.48051029 0.51938212 0
2.6738691 -0.48929971 -0.14245848 0
2.6241648 -0.48067757 0.61591601 0
2.6631913 -0.48830655 -0.047261119 0
2.6202576 -0.48090723 0.71382296 0
2.656522 -0.49139816 0.047156405 0
2.6590912 -0.49235341 0.14172579 0
2.6465597 -0.49098864 0.23549481 0
2.6542606 -0.49337572 0.33148462 0
2.6178794 -0.48708594 0.42174736 0
2.6560097 -0.49466008 -0.23636638 0
2.6267352 -0.48968229 0.51938212 0
2.6799979 -0.50009573 -0.14287716 0
2.6243868 -0.4901925 0.61636591 0
2.6674545 -0.49823684 -0.047365833 0
2.6129515 -0.48852858 0.71227002 0
2.6509478 -0.49946433 0.047086593 0
2.6632442 -0.50274378 0.14203981 0
2.635041 -0.49837252 0.23462325 0
2.6409073 -0.49995938 0.33002222 0
2.6336303 -0.4995341 0.4245632 0
2.6483946 -0.5028134 -0.23584343 0
2.6096666 -0.49546066 0.51632917 0
2.6724389 -0.50786161 -0.14256316 0
2.6284897 -0.49998501 0.6177156 0
2.6676633 -0.50791895 -0.047400735 0
2.5998442 -0.49547657 0.70916426 0
2.6452603 -0.50796062 0.047016785 0
2.661473 -0.51203716 0.14203981 0
2.6333737 -0.50710785 0.23462325 0
2.6313493 -0.50767064 0.32904723 0
2.6299312 -0.50834924 0.42425033 0
2.6564038 -0.51394725 -0.23671499 0
2.6040661 -0.50382119 0.51556593 0
2.6588848 -0.51490873 -0.14193512 0
2.6248155 -0.50878632 0.6172657 0
2.6698005 -0.51798952 -0.047470544 0
2.6037881 -0.5056535 0.71071708 0
2.6356211 -0.51565534 0.046877164 0
2.6439898 -0.518251 0.14120242 0
2.6471381 -0.5198276 0.23601775 0
2.6217699 -0.51532125 0.32807231 0
2.6242642 -0.51676303 0.4236246 0
2.6585031 -0.52398723 -0.2370636 0
2.6060543 -0.51412219 0.51632917 0
2.65502 -0.52426362 -0.14183044 0
2.6171978 -0.51726979 0.61591601 0
2.6679761 -0.52730572 -0.047470544 0
2.6057975 -0.51548916 0.71175241 0
2.6533244 -0.52922338 0.047226213 0
2.6382475 -0.52669501 0.14099309 0
2.6316316 -0.52632952 0.23479758 0
2.6334882 -0.52765697 0.32977846 0
2.6108236 -0.52358979 0.42174736 0
2.6566577 -0.53326392 -0.2370636 0
2.6157928 -0.52553612 0.51861888 0
2.6590481 -0.53470945 -0.14214447 0
2.6096451 -0.52524883 0.61456627 0
2.6347532 -0.53030241 -0.04691207 0
2.6039822 -0.52458197 0.71175241 0
2.6476352 -0.53722388 0.047156405 0
2.6442218 -0.53749239 0.14141177 0
2.6239212 -0.5343197 0.23427464 0
2.6433947 -0.53876567 0.33124092 0
2.6089799 -0.53270006 0.42174736 0
2.637212 -0.53894395 -0.23549481 0
2.6063414 -0.53263521 0.51709241 0
2.6631305 -0.54472488 -0.14245848 0
2.6117072 -0.5346815 0.61546606 0
2.6270089 -0.53829193 -0.046807356 0
2.5945652 -0.53211588 0.70968187 0
2.6418271 -0.54565364 0.047086593 0
2.6521087 -0.54874259 0.14193512 0
2.6221352 -0.54301804 0.23427464 0
2.6376107 -0.5471831 0.33075345 0
2.6109726 -0.54260767 0.42237309 0
2.6412623 -0.54890245 -0.23601775 0
2.5967777 -0.54013056 0.51556593 0
2.6651235 -0.55483174 -0.14266783 0
2.6155481 -0.54498732 0.61681581 0
2.629029 -0.54827505 -0.046877164 0
2.5851278 -0.53959048 0.70761132 0
2.6340353 -0.55363798 0.046981879 0
2.6521316 -0.55840832 0.14203981 0
2.6260724 -0.55340022 0.23479758 0
2.620146 -0.55310667 0.32880351 0
2.6206586 -0.55417049 0.42425033 0
2.6393301 -0.55811882 -0.23601775 0
2.5948765 -0.54919171 0.51556593 0
2.6475394 -0.56082028 -0.14183044 0
2.6098173 -0.55330569 0.61591601 0
2.6407921 -0.56035429 -0.047121495 0
2.5870078 -0.54941362 0.7086466 0
2.6379535 -0.56408364 0.047086593 0
2.6286836 -0.56306106 0.14088841 0
2.6358132 -0.56506938 0.23584343 0
2.6162586 -0.56183255 0.32855979 0
2.6109836 -0.56165326 0.42299888 0
2.6490526 -0.56984234 -0.2370636 0
2.5967822 -0.55907261 0.51632917 0
2.6475182 -0.57047927 -0.14193512 0
2.60025 -0.56076896 0.61411637 0
2.6310012 -0.56788135 -0.046981879 0
2.590739 -0.55966437 0.71019953 0
2.6418304 -0.57456326 0.047191311 0
2.6286535 -0.5726586 0.14099309 0
2.6318784 -0.57384223 0.23566914 0
2.6181602 -0.5718087 0.32904723 0
2.6051474 -0.56991947 0.42237309 0
2.6431549 -0.57823426 -0.23671499 0
2.6024864 -0.56981331 0.51785564 0
2.6513636 -0.58099985 -0.14224915 0
2.5925663 -0.56858981 0.61276668 0
2.6250968 -0.57620442 -0.04691207 0
2.5925434 -0.56953329 0.71123475 0
2.6360049 -0.58245784 0.047121495 0
2.6345403 -0.58309877 0.14141177 0
2.614399 -0.57911956 0.23427464 0
2.6259394 -0.58263761 0.33026594 0
2.5955298 -0.57684112 0.42112163 0
2.6255615 -0.58399642 -0.23532049 0
2.5928159 -0.57718778 0.51632917 0
2.653218 -0.59112 -0.14245848 0
2.5963726 -0.57845515 0.61411637 0
2.6192679 -0.58403593 -0.046842258 0
2.5830989 -0.57644427 0.70916426 0
2.6299508 -0.5912382 0.047051687 0
2.6362822 -0.59362841 0.14162111 0
2.6142023 -0.58913589 0.23444894 0
2.6199136 -0.59138405 0.32977846 0
2.6011052 -0.5880928 0.42237309 0
2.6292334 -0.59493476 -0.23584343 0
2.590683 -0.58668703 0.51632917 0
2.6549294 -0.60172343 -0.14266783 0
2.5980363 -0.58882898 0.61501622 0
2.6268606 -0.59584385 -0.047016785 0
2.5753169 -0.58462501 0.70761132 0
2.6238673 -0.59998196 0.046981879 0
2.6361413 -0.60327274 0.14172579 0
2.6197937 -0.60049415 0.23514619 0
2.6138589 -0.6000942 0.32929099 0
2.6086626 -0.59938049 0.42393744 0
2.6329656 -0.60544831 -0.23636638 0
2.5847929 -0.59484601 0.51556593 0
2.6372423 -0.60740107 -0.14183044 0
2.5959651 -0.59789419 0.61501622 0
2.6364563 -0.60770458 -0.047226213 0
2.5770254 -0.59447938 0.7086466 0
2.6257589 -0.60958415 0.047051687 0
2.6166172 -0.60794312 0.14078373 0
2.629431 -0.61188769 0.23619205 0
2.6041217 -0.60695642 0.32831606 0
2.6028132 -0.60713047 0.42331171 0
2.6387043 -0.6159879 -0.2370636 0
2.5904531 -0.60520083 0.51709241 0
2.6352136 -0.61614317 -0.14183044 0
2.5806851 -0.60339373 0.61186683 0
2.6305323 -0.61553282 -0.047156405 0
2.5825636 -0.60478377 0.71071708 0
2.6256697 -0.61874682 0.047086593 0
2.6086473 -0.61569673 0.14046971 0
2.6235094 -0.61968791 0.23584343 0
2.6136849 -0.61833066 0.32977846 0
2.5872228 -0.61302412 0.42112163 0
2.636647 -0.62473482 -0.2370636 0
2.5941629 -0.6151467 0.51823723 0
2.6370428 -0.62580079 -0.14203981 0
2.5861471 -0.61419952 0.61366647 0
2.6108582 -0.62054974 -0.046842258 0
2.5729191 -0.61200678 0.7086466 0
2.6176591 -0.62651193 0.046981879 0
2.6161938 -0.62712675 0.14099309 0
2.6174555 -0.62791234 0.23549481 0
2.6095808 -0.62698662 0.32953474 0
2.5850673 -0.62205148 0.42112163 0
2.6228278 -0.63113791 -0.23601775 0
2.5843651 -0.62235969 0.51671082 0
2.6426089 -0.63687378 -0.14245848 0
2.5839875 -0.62322313 0.61366647 0
2.6047883 -0.62872112 -0.04677245 0
2.5670116 -0.62007701 0.70761132 0
2.6135132 -0.6351732 0.046946973 0
2.6295133 -0.6400339 0.14183044 0
2.5997615 -0.63327277 0.23410031 0
2.6112335 -0.63703293 0.33002222 0
2.594394 -0.63388437 0.42299888 0
2.620497 -0.64074677 -0.23601775 0
2.5764556 -0.62997806 0.51556593 0
2.6384296 -0.64561963 -0.1423538 0
2.5817964 -0.6322391 0.61366647 0
2.6200581 -0.64209354 -0.047086593 0
2.5648315 -0.6290338 0.70761132 0
2.6073973 -0.64333409 0.046877164 0
2.6253245 -0.64872968 0.14172579 0
2.603225 -0.64423299 0.23462325 0
2.6032128 -0.64471227 0.32929099 0
2.596 -0.6438877 0.4236246 0
2.6221116 -0.65085006 -0.23636638 0
2.5741293 -0.63941699 0.51556593 0
2.6282926 -0.65335828 -0.14193512 0
2.5832438 -0.6426385 0.61456627 0
2.6139197 -0.65026981 -0.047016785 0
2.5663693 -0.63891625 0.7086466 0
2.6166601 -0.65580326 0.047086593 0
2.6074317 -0.65445781 0.14088841 0
2.6067576 -0.65477222 0.23514619 0
2.5950572 -0.65279639 0.32855979 0
2.5897918 -0.6524331 0.42299888 0
2.6294842 -0.66243261 -0.23723793 0
2.5756888 -0.64935839 0.51632917 0
2.6240592 -0.66204017 -0.14183044 0
2.5696483 -0.64878953 0.61186683 0
2.6309063 -0.66474456 -0.047365833 0
2.5677559 -0.64926529 0.70968187 0
2.6143551 -0.66493315 0.047086593 0
2.6012604 -0.66256952 0.14067906 0
2.598664 -0.66239113 0.23462325 0
2.6119969 -0.66676068 0.33099717 0
2.579843 -0.65951216 0.42174736 0
2.6194344 -0.66963339 -0.23654069 0
2.5867205 -0.66175127 0.51900047 0
2.6294718 -0.67317724 -0.14224915 0
2.5635922 -0.65678799 0.61096704 0
2.6014512 -0.66697133 -0.046877164 0
2.565474 -0.65822446 0.70968187 0
2.6081455 -0.67305553 0.047016785 0
2.6144018 -0.67564344 0.14151645 0
2.5905492 -0.66996157 0.23410031 0
2.6019669 -0.6738835 0.33002222 0
2.5737009 -0.6675216 0.42112163 0
2.6112955 -0.6772722 -0.23601775 0
2.5786943 -0.66929704 0.51785564 0
2.6367717 -0.6848622 -0.14277251 0
2.5801449 -0.67063493 0.61546606 0
2.6145897 -0.68007511 -0.047156405 0
2.5556827 -0.66522914 0.70761132 0
2.6019111 -0.68114263 0.046946973 0
2.6100953 -0.68425876 0.14141177 0
2.5920491 -0.68001139 0.23444894 0
2.6072783 -0.6849795 0.33099717 0
2.5789964 -0.6785118 0.42237309 0
2.6127689 -0.687397 -0.23636638 0
2.5649507 -0.67529517 0.51556593 0
2.6305022 -0.69304442 -0.14256316 0
2.5759039 -0.67914039 0.61501622 0
2.6180005 -0.69072801 -0.047261119 0
2.553345 -0.67414612 0.70761132 0
2.597585 -0.6897077 0.04691207 0
2.6136026 -0.69444913 0.14172579 0
2.5954359 -0.69059211 0.23497188 0
2.5895259 -0.6899876 0.32904723 0
2.584367 -0.68909609 0.4236246 0
2.6045785 -0.6949721 -0.23584343 0
2.5625777 -0.68424439 0.51556593 0
2.6145599 -0.69861317 -0.14183044 0
2.5792859 -0.68918788 0.61636591 0
2.6234229 -0.70147192 -0.047400735 0
2.556694 -0.68410766 0.70916426 0
2.6010766 -0.69987661 0.047016785 0
2.5919998 -0.69791943 0.14067906 0
2.5989029 -0.70075113 0.23549481 0
2.5872238 -0.69857091 0.32904723 0
2.578254 -0.69663197 0.42299888 0
2.6157224 -0.70724559 -0.2370636 0
2.564085 -0.69376397 0.51632917 0
2.6122289 -0.70727956 -0.14183044 0
2.5713432 -0.69620943 0.61501622 0
2.6230123 -0.71069068 -0.047435641 0
2.5562756 -0.6930877 0.70968187 0
2.610317 -0.71165413 0.047226213 0
2.5934012 -0.70801491 0.14088841 0
2.5946426 -0.70884049 0.23532049 0
2.5906372 -0.70871812 0.32977846 0
2.5681858 -0.70353973 0.42174736 0
2.6095197 -0.71486294 -0.23671499 0
2.5769174 -0.7064153 0.51938212 0
2.6117954 -0.71646655 -0.14193512 0
2.5670178 -0.70466501 0.61456627 0
2.6070178 -0.71613461 -0.047191311 0
2.5612919 -0.70405471 0.71175241 0
2.6039622 -0.71969604 0.047156405 0
2.5966887 -0.71866149 0.14120242 0
2.5806317 -0.71470249 0.23427464 0
2.5900605 -0.71828735 0.33002222 0
2.5619075 -0.71144295 0.42112163 0
2.5916507 -0.71970266 -0.23532049 0
2.5687613 -0.71382916 0.51823723 0
2.6188996 -0.72825444 -0.14245848 0
2.5664201 -0.71414369 0.61501622 0
2.6006491 -0.72415751 -0.047121495 0
2.547653 -0.70987976 0.7086466 0
2.5898807 -0.72554451 0.046946973 0
2.6018562 -0.72987902 0.14162111 0
2.5742848 -0.72262925 0.233926 0
2.5913594 -0.72839826 0.33050969 0
2.5651133 -0.72198701 0.42206025 0
2.5889955 -0.72919667 -0.23532049 0
2.5568051 -0.72013021 0.51632917 0
2.6201863 -0.73847532 -0.14266783 0
2.5676625 -0.72415572 0.61591601 0
2.6058037 -0.7354036 -0.047261119 0
2.5451596 -0.71876842 0.7086466 0
2.5873322 -0.7345804 0.046946973 0
2.5935292 -0.73731828 0.14130709 0
2.5831165 -0.73533261 0.23497188 0
2.5792553 -0.73472011 0.32929099 0
2.5815735 -0.73635489 0.42518893 0
2.5979295 -0.74151051 -0.23636638 0
2.5503731 -0.72841823 0.51556593 0
2.6020992 -0.74368304 -0.14183044 0
2.5649912 -0.73356187 0.61591601 0
2.6051433 -0.74504495 -0.047296021 0
2.5463495 -0.72871125 0.70968187 0
2.5884659 -0.74516505 0.047016785 0
2.5871015 -0.74526119 0.14109775 0
2.5977631 -0.74931467 0.23654069 0
2.5708237 -0.74251616 0.32855979 0
2.5657034 -0.74152249 0.42299888 0
2.6029811 -0.75278854 -0.2370636 0
2.5478148 -0.73731625 0.51556593 0
2.5994873 -0.75276148 -0.14183044 0
2.5567997 -0.74088377 0.61456627 0
2.6082888 -0.75580376 -0.047400735 0
2.5512121 -0.73974729 0.71175241 0
2.5917399 -0.75542331 0.047121495 0
2.5902359 -0.75596601 0.14141177 0
2.5721827 -0.75167155 0.23444894 0
2.5759687 -0.75326586 0.32953474 0
2.5668907 -0.75158411 0.4236246 0
2.5984256 -0.76130992 -0.2368893 0
2.5566604 -0.74907321 0.51785564 0
2.6046431 -0.7636252 -0.14224915 0
2.5487189 -0.74771261 0.61321658 0
2.5883663 -0.75983441 -0.047086593 0
2.5430536 -0.74701476 0.71019953 0
2.5948408 -0.7661643 0.047226213 0
2.5800533 -0.76228774 0.14099309 0
2.5849602 -0.76471877 0.23584343 0
2.5809369 -0.76450837 0.33050969 0
2.554915 -0.75728536 0.42206025 0
2.5882459 -0.76765633 -0.23619205 0
2.5540302 -0.75799292 0.51785564 0
2.6153641 -0.77669263 -0.14298184 0
2.5554335 -0.7593801 0.61546606 0
2.591583 -0.77012241 -0.047191311 0
2.5350075 -0.75379193 0.7086466 0
2.5846221 -0.77247447 0.047086593 0
2.5888572 -0.77472466 0.14162111 0
2.5784583 -0.77259362 0.23549481 0
2.5764859 -0.77249271 0.33026594 0
2.5692832 -0.77131075 0.42487606 0
2.57601 -0.77382028 -0.23532049 0
2.5402207 -0.76306933 0.51556593 0
2.6108611 -0.78478622 -0.14287716 0
2.5678303 -0.77234048 0.61906528 0
2.5888789 -0.7791642 -0.047191311 0
2.5249612 -0.76040775 0.70657599 0
2.5780821 -0.78033316 0.047016785 0
2.5881855 -0.78388441 0.14172579 0
2.5625355 -0.7770924 0.23427464 0
2.5661759 -0.77917463 0.32929099 0
2.5648215 -0.77925235 0.4245632 0
2.5848672 -0.7858355 -0.23636638 0
2.5450547 -0.77421731 0.51709241 0
2.5966418 -0.79040545 -0.14224915 0
2.5502052 -0.77675682 0.61546606 0
2.6015842 -0.79240608 -0.047470544 0
2.5372095 -0.77328235 0.71071708 0
2.5831282 -0.79122066 0.047156405 0
2.5701575 -0.78822923 0.14088841 0
2.5864718 -0.79422039 0.23671499 0
2.5578854 -0.78593099 0.32855979 0
2.5658619 -0.78936219 0.42518893 0
2.593534 -0.79837066 -0.23741224 0
2.5387206 -0.78149742 0.51632917 0
2.590189 -0.79783595 -0.14203981 0
2.543891 -0.78406125 0.61456627 0
2.5949805 -0.8003037 -0.047400735 0
2.5381868 -0.78327346 0.71175241 0
2.5838907 -0.80231935 0.047226213 0
2.5653439 -0.79705137 0.14078373 0
2.5835435 -0.8036949 0.23671499 0
2.5605345 -0.79751772 0.32929099 0
2.5440924 -0.79288369 0.42206025 0
2.5867858 -0.80668479 -0.2370636 0
2.546946 -0.79474854 0.51861888 0
2.5947323 -0.8101567 -0.14245848 0
2.5408616 -0.79382342 0.61456627 0
2.5805776 -0.80623162 -0.047191311 0
2.5352991 -0.79257107 0.71175241 0
2.5888469 -0.8132807 0.047365833 0
2.5720723 -0.80899751 0.14130709 0
2.5731208 -0.81031454 0.23601775 0
2.5673425 -0.80898738 0.33050969 0
2.5488446 -0.80413675 0.42331171 0
2.5763545 -0.81331033 -0.23636638 0
2.5442965 -0.80319023 0.51861888 0
2.5958405 -0.81995982 -0.14266783 0
2.5437896 -0.8040067 0.61591601 0
2.5796542 -0.81583744 -0.047226213 0
2.519624 -0.79733616 0.70812893 0
2.5688412 -0.81685865 0.047051687 0
2.5825546 -0.82221216 0.14203981 0
2.566623 -0.81763339 0.23566914 0
2.5607204 -0.81673783 0.33002222 0
2.5497854 -0.81423068 0.42393744 0
2.5736432 -0.82184923 -0.23636638 0
2.5339968 -0.80967623 0.51709241 0
2.5910602 -0.82840788 -0.14256316 0
2.5502481 -0.81585008 0.61816549 0
2.5805995 -0.82605648 -0.047296021 0
2.520505 -0.80730504 0.70916426 0
2.5640707 -0.82520807 0.047016785 0
2.5739658 -0.82938427 0.14172579 0
2.5637534 -0.8265875 0.23566914 0
2.5502975 -0.82323205 0.32904723 0
2.5488076 -0.82373363 0.42425033 0
2.5745504 -0.8320533 -0.23671499 0
2.5274191 -0.81730849 0.51632917 0
2.5786514 -0.834373 -0.14203981 0
2.5399687 -0.82234627 0.61636591 0
2.575798 -0.83444303 -0.047261119 0
2.5231848 -0.81788534 0.71071708 0
2.5725827 -0.83786893 0.047226213 0
2.5653584 -0.83650661 0.14141177 0
2.5665345 -0.83738559 0.23619205 0
2.5436344 -0.83089656 0.32855979 0
2.5553041 -0.83569574 0.42581466 0
2.5867798 -0.8459897 -0.23810948 0
2.5320144 -0.82856822 0.51785564 0
2.5776212 -0.84399056 -0.14214447 0
2.5333788 -0.82999378 0.61546606 0
2.5804703 -0.84592092 -0.047400735 0
2.533164 -0.8309027 0.71434063 0
2.5734408 -0.8480956 0.047296021 0
2.5605261 -0.84483039 0.14130709 0
2.5617039 -0.84571487 0.23601775 0
2.5501425 -0.84288514 0.32977846 0
2.5317423 -0.83778393 0.42237309 0
2.5724618 -0.85125846 -0.2370636 0
2.5402889 -0.84110409 0.52014536 0
2.5803471 -0.85486728 -0.14245848 0
2.5286167 -0.83821887 0.61501622 0
2.56042 -0.84925741 -0.047086593 0
2.5247474 -0.83791441 0.71278769 0
2.5685678 -0.8564409 0.047261119 0
2.5651398 -0.85629278 0.14172579 0
2.5587363 -0.85465169 0.23601775 0
2.5528328 -0.85367054 0.33050969 0
2.5419149 -0.85100621 0.4245632 0
2.5619175 -0.85770285 -0.23636638 0
2.5336146 -0.84871906 0.51938212 0
2.5868161 -0.8670429 -0.14298184 0
2.5256753 -0.84704018 0.61501622 0
2.5669188 -0.86137056 -0.047261119 0
2.5071561 -0.84180319 0.7086466 0
2.563668 -0.86476243 0.047226213 0
2.5697041 -0.86779773 0.14214447 0
2.5462999 -0.86038917 0.23514619 0
2.557359 -0.86512077 0.33148462 0
2.5389287 -0.85987389 0.4245632 0
2.5664561 -0.86919671 -0.2370636 0
2.5231991 -0.85503751 0.51785564 0
2.5837739 -0.87606722 -0.14298184 0
2.5300846 -0.85835558 0.61681581 0
2.5620029 -0.86968273 -0.047226213 0
2.5078609 -0.85179228 0.70968187 0
2.5587411 -0.87306035 0.047191311 0
2.5704391 -0.87805355 0.1423538 0
2.5527074 -0.87249404 0.23601775 0
2.5430546 -0.87018633 0.33002222 0
2.5471246 -0.87257236 0.42644039 0
2.5596371 -0.87685877 -0.23671499 0
2.5183418 -0.86320329 0.517474 0
2.5655861 -0.87989753 -0.14214447 0
2.5344462 -0.86971205 0.61861545 0
2.5665166 -0.88121808 -0.047365833 0
2.5121806 -0.86305177 0.71175241 0
2.551897 -0.88068193 0.047121495 0
2.5465932 -0.87984633 0.14120242 0
2.5534122 -0.88270122 0.23636638 0
2.5400016 -0.87905788 0.33002222 0
2.5328641 -0.87757784 0.4245632 0
2.5753865 -0.89231092 -0.2384581 0
2.5208783 -0.87391794 0.51861888 0
2.5681598 -0.89081126 -0.14245848 0
2.5258718 -0.87663686 0.6172657 0
2.5634251 -0.89017147 -0.047365833 0
2.5128021 -0.87308383 0.71278769 0
2.5601358 -0.89353812 0.047330927 0
2.541621 -0.88807148 0.14109775 0
2.5559578 -0.89358157 0.2368893 0
2.5406649 -0.88923037 0.33050969 0
2.5297852 -0.88641393 0.4245632 0
2.5647349 -0.89866 -0.23776087 0
2.5289283 -0.8866092 0.52090853 0
2.5669196 -0.90043157 -0.14256316 0
2.5154412 -0.88286692 0.61546606 0
2.5470948 -0.89447606 -0.047121495 0
2.5060942 -0.88056892 0.71175241 0
2.5551152 -0.90180355 0.047296021 0
2.5516875 -0.90159559 0.14183044 0
2.5377955 -0.89718533 0.23549481 0
2.5450306 -0.90074277 0.33148462 0
2.5229516 -0.89391965 0.42393744 0
2.5521922 -0.90428007 -0.2368893 0
2.5221171 -0.8941195 0.52014536 0
2.5675256 -0.91072166 -0.14277251 0
2.5233631 -0.89555281 0.61816549 0
2.5477262 -0.90469998 -0.047191311 0
2.5030053 -0.88931143 0.71175241 0
2.5538354 -0.91138929 0.047330927 0
2.5505648 -0.9107241 0.14193512 0
2.5421526 -0.90872103 0.23619205 0
2.5381329 -0.90828341 0.33099717 0
2.5292723 -0.90561056 0.42550179 0
2.5508957 -0.9138552 -0.2370636 0
2.5078924 -0.89894319 0.51785564 0
2.5680907 -0.92102695 -0.14298184 0
2.5277166 -0.90654707 0.61996508 0
2.5447121 -0.91314358 -0.047191311 0
2.4964058 -0.89630133 0.71071708 0
2.5413933 -0.91646129 0.047156405 0
2.5531666 -0.92121065 0.14224915 0
2.5409992 -0.91782296 0.23636638 0
2.5351069 -0.91669512 0.33099717 0
2.5318282 -0.91600913 0.42644039 0
2.5478513 -0.92230934 -0.2370636 0
2.5067434 -0.90792328 0.51823723 0
2.5500004 -0.9240942 -0.14214447 0
2.5210326 -0.91359651 0.61906528 0
2.5567093 -0.92703027 -0.047470544 0
2.5043163 -0.90852761 0.71382296 0
2.5439768 -0.92693758 0.047261119 0
2.5424302 -0.92737943 0.14183044 0
2.5491717 -0.93034267 0.23741224 0
2.524595 -0.92237198 0.33002222 0
2.5267599 -0.92416281 0.42612755 0
2.5522637 -0.93349081 -0.23776087 0
2.5129371 -0.91960436 0.52014536 0
2.5506728 -0.93391842 -0.1423538 0
2.510509 -0.91970956 0.6172657 0
2.5459476 -0.93319631 -0.047330927 0
2.5120118 -0.92125475 0.71692878 0
2.5519845 -0.93995893 0.047470544 0
2.5391774 -0.9362486 0.14183044 0
2.5384314 -0.93647677 0.23671499 0
2.5288086 -0.93392968 0.33099717 0
2.5161073 -0.93023705 0.42487606 0
2.5489898 -0.94239414 -0.23776087 0
2.5097117 -0.92837048 0.52014536 0
2.5548897 -0.94558936 -0.14277251 0
2.5072832 -0.92846727 0.6172657 0
2.5314236 -0.93790919 -0.047121495 0
2.5015352 -0.92733181 0.71485823 0
2.5505617 -0.94955897 0.04750545 0
2.54338 -0.94789624 0.14224915 0
2.5202124 -0.93976295 0.23532049 0
2.5385513 -0.94761074 0.33270332 0
2.5091441 -0.93763143 0.42425033 0
2.538219 -0.94849628 -0.2370636 0
2.5174894 -0.94125074 0.52243507 0
2.5553148 -0.95590138 -0.14298184 0
2.5095024 -0.93926299 0.61861545 0
2.5337527 -0.94884366 -0.047226213 0
2.4874289 -0.93199128 0.71175241 0
2.537874 -0.95493525 0.047330927 0
2.5419247 -0.95747256 0.1423538 0
2.5206456 -0.94995964 0.23566914 0
2.535228 -0.95646614 0.33270332 0
2.5132477 -0.94917583 0.42550179 0
2.5348926 -0.95735043 -0.2370636 0
2.4994965 -0.9444809 0.51938212 0
2.5631716 -0.96905309 -0.14360988 0
2.5171444 -0.9521538 0.62131482 0
2.5397761 -0.96122146 -0.047400735 0
2.4877737 -0.94203651 0.71278769 0
2.532656 -0.96307743 0.047296021 0
2.5479 -0.96989238 0.14287716 0
2.5284855 -0.96300739 0.23671499 0
2.5207448 -0.96106672 0.33124092 0
2.5209925 -0.96216917 0.42737901 0
2.5352588 -0.96761411 -0.23741224 0
2.4998524 -0.95460081 0.52014536 0
2.5448477 -0.97229171 -0.14277251 0
2.5138054 -0.96093446 0.62131482 0
2.5364053 -0.97008103 -0.047400735 0
2.4862742 -0.95140517 0.71330529 0
2.5404785 -0.97621596 0.04750545 0
2.5333145 -0.97447801 0.14224915 0
2.5288274 -0.97325873 0.2370636 0
2.51367 -0.96843278 0.33075345 0
2.5139322 -0.96954167 0.42675328 0
2.5430191 -0.9807595 -0.2384581 0
2.4983368 -0.96402788 0.52052695 0
2.5414383 -0.98116899 -0.14277251 0
2.5031645 -0.96689475 0.61951524 0
2.5460603 -0.98397487 -0.04764507 0
2.4973531 -0.96565187 0.71744639 0
2.5370553 -0.9850778 0.04750545 0
2.5263457 -0.98142707 0.14203981 0
2.5254147 -0.98208004 0.2370636 0
2.5213735 -0.98152184 0.33221585 0
2.5014999 -0.97428828 0.42518893 0
2.5395801 -0.98963016 -0.2384581 0
2.5095897 -0.97844809 0.5235799 0
2.5454404 -0.99293756 -0.14319119 0
2.5015895 -0.97633511 0.61996508 0
2.5334694 -0.98877734 -0.047470544 0
2.4887383 -0.97182 0.71589351 0
2.5356364 -0.99421567 0.047540355 0
2.528482 -0.99242872 0.1423538 0
2.5126994 -0.98724645 0.23619205 0
2.5310371 -0.99496132 0.33392206 0
2.4925692 -0.98084414 0.42425033 0
2.524987 -0.99410975 -0.23741224 0
2.5063312 -0.98676479 0.5235799 0
2.5495672 -1.0043012 -0.14360988 0
2.5001512 -0.98533982 0.62041503 0
2.5318625 -0.99834824 -0.04750545 0
2.4763455 -0.97695649 0.71330529 0
2.5284324 -1.0015875 0.047470544 0
2.5344605 -1.0044874 0.14287716 0
2.5075598 -0.99483871 0.23601775 0
2.5201688 -1.0008595 0.33294708 0
2.5021534 -0.99421042 0.42644039 0
2.5216765 -1.0024775 -0.23741224 0
2.4937503 -0.99187958 0.52167183 0
2.546046 -1.0131947 -0.14360988 0
2.5075595 -0.99838609 0.62311447 0
2.5396855 -1.0111771 -0.047714882 0
2.4695029 -0.98373324 0.71227002 0
2.519527 -1.0077388 0.047365833 0
2.5346475 -1.0148131 0.14308652 0
2.5133188 -1.0072917 0.2368893 0
2.5020962 -1.0033008 0.33099717 0
2.5078335 -1.0066177 0.42800474 0
2.5255573 -1.0142435 -0.23810948 0
2.4886255 -0.999412 0.52129018 0
2.5352588 -1.0186535 -0.14319119 0
2.5006187 -1.0052422 0.62221462 0
2.5287192 -1.0170513 -0.047575258 0
2.4821837 -0.99883807 0.71692878 0
2.5230541 -1.0204047 0.04750545 0
2.5179508 -1.018852 0.1423538 0
2.5225368 -1.0217326 0.23810948 0
2.5074234 -1.0166301 0.33221585 0
2.5004663 -1.0143175 0.42737901 0
2.5292072 -1.0264904 -0.23880674 0
2.4902265 -1.0111762 0.52243507 0
2.5313289 -1.0283808 -0.14319119 0
2.4877138 -1.0111675 0.61996508 0
2.5342369 -1.0300775 -0.047749784 0
2.4838746 -1.0101122 0.71848166 0
2.528913 -1.0325452 0.047679976 0
2.5125303 -1.0268795 0.14224915 0
2.5226429 -1.0320404 0.2384581 0
2.5040383 -1.0249393 0.33221585 0
2.489599 -1.0200438 0.42612755 0
2.5256088 -1.0353128 -0.23880674 0
2.4977593 -1.0238965 0.52472478 0
2.5316005 -1.038285 -0.14340053 0
2.4825442 -1.0186718 0.61951524 0
2.5158269 -1.0328419 -0.047470544 0
2.4785469 -1.0180426 0.71796405 0
2.5234449 -1.0406041 0.04764507 0
2.5200071 -1.040216 0.14287716 0
2.5118406 -1.037358 0.23776087 0
2.5151217 -1.0397409 0.33416575 0
2.4860232 -1.028728 0.42612755 0
2.5147977 -1.040635 -0.23810948 0
2.49417 -1.032609 0.52472478 0
2.5353417 -1.0501729 -0.14381923 0
2.4861743 -1.0303155 0.62131482 0
2.5159009 -1.0431491 -0.047540355 0
2.4696248 -1.0244673 0.71641117 0
2.512413 -1.046331 0.04750545 0
2.5182045 -1.0497746 0.14298184 0
2.5063653 -1.0453527 0.23758654 0
2.5078132 -1.0469844 0.33367831 0
2.4933527 -1.0419695 0.42800474 0
2.5074735 -1.0478705 -0.23776087 0
2.4796822 -1.0367651 0.52243507 0
2.5316606 -1.0590165 -0.14381923 0
2.4915509 -1.0427494 0.6235643 0
2.5196223 -1.0550144 -0.047679976 0
2.4624701 -1.0315888 0.7153759 0
2.5087452 -1.0550946 0.04750545 0
2.5182064 -1.0601083 0.14319119 0
2.5118821 -1.0579621 0.2384581 0
2.4931681 -1.0511049 0.33221585 0
2.4933405 -1.0522028 0.4286305 0
2.5074713 -1.0581661 -0.23810948 0
2.4760482 -1.0454144 0.52243507 0
2.5205891 -1.0647385 -0.14340053 0
2.4861012 -1.0506816 0.62311447 0
2.5140822 -1.0630243 -0.04764507 0
2.4659708 -1.0431888 0.71744639 0
2.5124092 -1.066972 0.04764507 0
2.5071383 -1.0657666 0.14277251 0
2.5155077 -1.0698427 0.23915535 0
2.4894841 -1.0598012 0.33221585 0
2.4896526 -1.0608997 0.4286305 0
2.51476 -1.0715986 -0.23915535 0
2.4759958 -1.0555911 0.52319831 0
2.5168571 -1.0735306 -0.14340053 0
2.4824183 -1.0593532 0.62311447 0
2.5177128 -1.0749344 -0.04778469 0
2.4729741 -1.0563434 0.72055227 0
2.5123456 -1.0773118 0.047714882 0
2.5034027 -1.0745116 0.14277251 0
2.5154192 -1.0801895 0.23950398 0
2.496712 -1.0731884 0.33367831 0
2.4786758 -1.0664607 0.42737901 0
2.5146646 -1.0819452 -0.23950398 0
2.4867222 -1.0704373 0.52625126 0
2.5241005 -1.0870494 -0.14402856 0
2.4733362 -1.0656986 0.62176472 0
2.5084362 -1.0813414 -0.047679976 0
2.4692717 -1.0649694 0.72055227 0
2.5122397 -1.0876639 0.04778469 0
2.5069671 -1.0864204 0.14319119 0
2.5043216 -1.085793 0.23880674 0
2.5075188 -1.0882192 0.33562821 0
2.4749379 -1.0751065 0.42737901 0
2.4980805 -1.0851597 -0.2382838 0
2.4865718 -1.0806761 0.52701449 0
2.5276172 -1.0990393 -0.14444725 0
2.4803228 -1.0789899 0.62446409 0
2.5009792 -1.0884948 -0.047610167 0
2.4566829 -1.069726 0.71796405 0
2.4956019 -1.0908203 0.047540355 0
2.5125 -1.0987288 0.14371455 0
2.4950407 -1.0921314 0.2382838 0
2.5037048 -1.0969656 0.33562821 0
2.4822145 -1.0880661 0.42925623 0
2.4997513 -1.0962735 -0.23880674 0
2.4755931 -1.086194 0.52548802 0
2.5164502 -1.1046443 -0.14402856 0
2.4854627 -1.0915592 0.62671363 0
2.4973557 -1.0967824 -0.047610167 0
2.4513533 -1.0770895 0.71744639 0
2.4956298 -1.100704 0.047610167 0
2.5068226 -1.1066859 0.14360988 0
2.4948578 -1.1024445 0.23863243 0
2.4837129 -1.098038 0.33343455 0
2.4838204 -1.099122 0.43019485 0
2.499553 -1.1066056 -0.23915535 0
2.4683874 -1.092808 0.52472478 0
2.5054686 -1.1097478 -0.14360988 0
2.4747028 -1.0966374 0.62491405 0
2.5026526 -1.1095456 -0.04778469 0
2.4528763 -1.0879898 0.71899933 0
2.4990797 -1.112662 0.047749784 0
2.4919984 -1.1105515 0.14298184 0
2.5075657 -1.1180137 0.24020122 0
2.4780524 -1.1058922 0.33319083 0
2.4781651 -1.10698 0.42988196 0
2.5029511 -1.1185758 -0.23985259 0
2.4681423 -1.1030196 0.52548802 0
2.5052264 -1.1201172 -0.14381923 0
2.4673021 -1.1036775 0.62401426 0
2.50424 -1.1207253 -0.047889404 0
2.4614058 -1.1020713 0.72262281 0
2.4933569 -1.120559 0.047714882 0
2.493571 -1.1217016 0.14329587 0
2.4980011 -1.124743 0.23967829 0
2.4886565 -1.121058 0.33514073 0
2.4706843 -1.1139996 0.42925623 0
2.5026636 -1.1289443 -0.24020122 0
2.471241 -1.1152887 0.52701449 0
2.5120258 -1.1342231 -0.14444725 0
2.4632404 -1.1127132 0.62401426 0
2.487556 -1.1236972 -0.04764507 0
2.4645858 -1.113839 0.72469336 0
2.5001585 -1.1346483 0.047924306 0
2.4969144 -1.1337017 0.14371455 0
2.4922459 -1.1326314 0.23950398 0
2.4917586 -1.1334596 0.33611569 0
2.4667807 -1.1226172 0.42925623 0
2.4842014 -1.1310687 -0.23880674 0
2.470906 -1.125536 0.52777767 0
2.515321 -1.1462978 -0.14486594 0
2.4628873 -1.1229216 0.62491405 0
2.4908965 -1.135692 -0.04778469 0
2.4431064 -1.1144178 0.71951699 0
2.4854734 -1.1379385 0.047714882 0
2.5002048 -1.145739 0.14413324 0
2.488277 -1.1413242 0.23950398 0
2.4843779 -1.1400604 0.33562821 0
2.4700272 -1.1345191 0.43050769 0
2.4856689 -1.142229 -0.23932965 0
2.4564564 -1.128805 0.52548802 0
2.509691 -1.1537982 -0.14476126 0
2.4715433 -1.1367829 0.62806332 0
2.486917 -1.1443799 -0.04778469 0
2.4427111 -1.1245549 0.72055227 0
2.4851165 -1.1482849 0.04778469 0
2.4943776 -1.153621 0.14402856 0
2.4826701 -1.1487324 0.23932965 0
2.4731779 -1.1453887 0.33465323 0
2.4696364 -1.1447957 0.43113342 0
2.4909058 -1.1546551 -0.24020122 0
2.4525011 -1.1373727 0.52548802 0
2.4984014 -1.1591893 -0.14434259 0
2.4657924 -1.1445827 0.62761348 0
2.5010438 -1.1614765 -0.048133738 0
2.4457786 -1.1363305 0.72262281 0
2.4901547 -1.1611782 0.047959212 0
2.481286 -1.1580973 0.1435052 0
2.4930875 -1.1641353 0.24072415 0
2.4691646 -1.1540147 0.33465323 0
2.4692039 -1.1550834 0.43175918 0
2.4958835 -1.167564 -0.24107277 0
2.4591851 -1.1509198 0.52777767 0
2.4871047 -1.1645156 -0.14392389 0
2.4547231 -1.1498764 0.62581384 0
2.4951637 -1.1693511 -0.048098832 0
2.4557905 -1.1514218 0.7267639 0
2.4951329 -1.1741204 0.048133738 0
2.4736149 -1.1650496 0.14329587 0
2.4872067 -1.1719816 0.24054985 0
2.4794848 -1.1694009 0.33660313 0
2.4580114 -1.1603224 0.43050769 0
2.4881892 -1.1745682 -0.24072415 0
2.4622536 -1.1628505 0.52930421 0
2.4974711 -1.1800159 -0.14476126 0
2.4559798 -1.1609364 0.62716353 0
2.4838357 -1.1746342 -0.047959212 0
2.4517565 -1.1599871 0.7267639 0
2.489213 -1.1819652 0.048098832 0
2.4803562 -1.178821 0.14392389 0
2.4741037 -1.1763787 0.23967829 0
2.4789724 -1.1797547 0.33709061 0
2.4575129 -1.1705943 0.43113342 0
2.4840741 -1.1832464 -0.24072415 0
2.461724 -1.1731275 0.53006744 0
2.5005484 -1.1921647 -0.14517996 0
2.4536715 -1.1703414 0.62761348 0
2.4761107 -1.1815748 -0.047889404 0
2.437232 -1.1635445 0.72365808 0
2.4760549 -1.1863267 0.047924306 0
2.4888327 -1.1935171 0.1446566 0
2.4699824 -1.1850078 0.23967829 0
2.4712603 -1.1866823 0.33660313 0
2.4569726 -1.1808771 0.43175918 0
2.4781332 -1.1910473 -0.24054985 0
2.4505367 -1.1783103 0.52854097 0
2.4963717 -1.2008859 -0.14517996 0
2.461863 -1.1848147 0.63076276 0
2.4827816 -1.1954157 -0.048098832 0
2.4331558 -1.172045 0.72365808 0
2.4736996 -1.195833 0.047959212 0
2.4882472 -1.2039374 0.14486594 0
2.4765906 -1.1988308 0.24072415 0
2.4617436 -1.1927047 0.33587193 0
2.4599452 -1.1928939 0.43301064 0
2.4793384 -1.2022982 -0.24107277 0
2.4464085 -1.1868571 0.52854097 0
2.4813838 -1.20436 -0.14455192 0
2.4559591 -1.1925496 0.63031286 0
2.4785938 -1.2040751 -0.048098832 0
2.4359996 -1.1839088 0.72572863 0
2.4766994 -1.2079669 0.048098832 0
2.4696708 -1.2056061 0.14402856 0
2.4741812 -1.2083429 0.24089848 0
2.464699 -1.2047777 0.33684689 0
2.4557662 -1.2014736 0.43301064 0
2.4858649 -1.216199 -0.24211864 0
2.4510677 -1.199705 0.53044903 0
2.480752 -1.2147712 -0.14476126 0
2.4430313 -1.1968286 0.62806332 0
2.4797626 -1.2153597 -0.048203547 0
2.4439938 -1.1983583 0.72935206 0
2.4832332 -1.2219021 0.048308261 0
2.4690309 -1.2159846 0.14423791 0
2.4735227 -1.2187331 0.24124709 0
2.4640393 -1.2151297 0.33733436 0
2.4409294 -1.2047925 0.43113342 0
2.4726713 -1.2204596 -0.24124709 0
2.4486253 -1.2091225 0.53083062 0
2.4782875 -1.2243078 -0.14486594 0
2.442333 -1.2070761 0.62896317 0
2.4611645 -1.2169178 -0.047924306 0
2.439796 -1.2068821 0.72935206 0
2.4735794 -1.2278954 0.048203547 0
2.4701371 -1.2272615 0.14455192 0
2.462117 -1.2238127 0.24054985 0
2.4668918 -1.2272601 0.33830932 0
2.4349408 -1.2124251 0.43082058 0
2.464829 -1.2273073 -0.24089848 0
2.4408751 -1.2159119 0.53006744 0
2.4829366 -1.2374053 -0.1453893 0
2.4415925 -1.2173331 0.62986296 0
2.4604807 -1.2272866 -0.047994118 0
2.4321113 -1.2136661 0.72831684 0
2.4657018 -1.2347314 0.048133738 0
2.4694092 -1.2376664 0.14476126 0
2.452487 -1.2297205 0.24002692 0
2.4732382 -1.2412062 0.33977175 0
2.4465804 -1.2288971 0.43363637 0
2.4605298 -1.2359037 -0.24089848 0
2.4331074 -1.2226616 0.52930421 0
2.4786019 -1.2460649 -0.1453893 0
2.4477739 -1.231102 0.63256234 0
2.4668996 -1.2412606 -0.048203547 0
2.4261346 -1.2212797 0.72779918 0
2.4580238 -1.2410988 0.04806393 0
2.4688568 -1.2476501 0.14497061 0
2.4608419 -1.244139 0.24124709 0
2.4460824 -1.2377493 0.33660313 0
2.4565899 -1.2441435 0.43613935 0
2.4670825 -1.2494575 -0.24194433 0
2.4307909 -1.2316107 0.5296858 0
2.4708934 -1.2524714 -0.14517996 0
2.4471543 -1.2409751 0.63346219 0
2.4663363 -1.2512438 -0.048273355 0
2.4306846 -1.2336901 0.73038733 0
2.467932 -1.2569315 0.048343167 0
2.4609275 -1.2544463 0.14476126 0
2.4618092 -1.2554368 0.24177003 0
2.4488194 -1.24989 0.33757812 0
2.4451957 -1.2491164 0.43488789 0
2.4698033 -1.2616872 -0.24264158 0
2.4317214 -1.2427685 0.53083062 0
2.4647281 -1.2601796 -0.14507528 0
2.4323976 -1.2441852 0.63076276 0
2.4655142 -1.2616673 -0.048343167 0
2.4332416 -1.2456886 0.73245794 0
2.4635293 -1.2655385 0.048343167 0
2.4600863 -1.2648554 0.14497061 0
2.4627268 -1.2667567 0.24229297 0
2.4515011 -1.2620647 0.33855307 0
2.4373085 -1.2558347 0.4342621 0
2.4742396 -1.2748636 -0.24351314 0
2.4343488 -1.2548473 0.53235716 0
2.4691896 -1.2733525 -0.14559864 0
2.4349673 -1.256242 0.63256234 0
2.464649 -1.2721001 -0.048412975 0
2.4254458 -1.2524021 0.73142266 0
2.4626477 -1.27597 0.048412975 0
2.4556563 -1.273435 0.14497061 0
2.4512157 -1.2716752 0.24159572 0
2.4506044 -1.2724439 0.33904055 0
2.4258988 -1.260691 0.43301064 0
2.4520953 -1.274305 -0.24177003 0
2.4351797 -1.2660542 0.53350198 0
2.4718177 -1.2856504 -0.14601734 0
2.4340248 -1.2665333 0.63346219 0
2.4513245 -1.2760788 -0.048238453 0
2.4210591 -1.2608608 0.73142266 0
2.4528618 -1.2817801 0.048308261 0
2.4653544 -1.289404 0.14580798 0
2.4520578 -1.282995 0.24211864 0
2.4496648 -1.2828323 0.33952799 0
2.4424789 -1.2801557 0.43676507 0
2.4441028 -1.2810068 -0.24142142 0
2.4203129 -1.2690765 0.53121227 0
2.4708521 -1.2961264 -0.14622667 0
2.4382167 -1.2795496 0.63571167 0
2.459249 -1.2911347 -0.048482787 0
2.4166434 -1.2693042 0.73142266 0
2.4501419 -1.2912668 0.048343167 0
2.4608386 -1.2980019 0.14580798 0
2.4563749 -1.2961955 0.24299021 0
2.4346402 -1.2858131 0.33806559 0
2.4414883 -1.29052 0.43739083 0
2.4537079 -1.296979 -0.24281588 0
2.4176035 -1.278435 0.53159386 0
2.4592509 -1.3010074 -0.14580798 0
2.4389024 -1.2907873 0.63706136 0
2.4688652 -1.3071969 -0.048762023 0
2.415612 -1.2795407 0.73245794 0
2.4509168 -1.3026268 0.048447877 0
2.4474764 -1.3018942 0.14528462 0
2.455353 -1.3066339 0.24333882 0
2.4371452 -1.2980363 0.33904055 0
2.4334822 -1.297176 0.43676507 0
2.4509239 -1.3064734 -0.24299021 0
2.4200559 -1.2905616 0.53312039 0
2.4546945 -1.3095839 -0.14580798 0
2.4240668 -1.2937875 0.63436198 0
2.457231 -1.3120393 -0.048622403 0
2.424763 -1.2952466 0.73659903 0
2.4534049 -1.3149529 0.048587501 0
2.4464371 -1.3123178 0.14549398 0
2.4507771 -1.3151966 0.24333882 0
2.4360969 -1.3084142 0.33952799 0
2.4254594 -1.303792 0.43613935 0
2.4498582 -1.3169074 -0.24333882 0
2.4259107 -1.3045803 0.53541011 0
2.4606616 -1.3238219 -0.14643602 0
2.41782 -1.3013176 0.63391209 0
2.4420724 -1.3149204 -0.048412975 0
2.4168251 -1.3018705 0.73556381 0
2.4540775 -1.3263612 0.048692215 0
2.4418414 -1.3208494 0.14549398 0
2.4391623 -1.3199507 0.24264158 0
2.4419882 -1.3225821 0.34099045 0
2.4191568 -1.3113091 0.43582645 0
2.4382403 -1.3216532 -0.24264158 0
2.4247937 -1.3149122 0.53617334 0
2.4700701 -1.3400224 -0.14727339 0
2.4235394 -1.3153268 0.63661146 0
2.4409823 -1.3253454 -0.048482787 0
2.4088707 -1.3084546 0.73452848 0
2.4494326 -1.3349196 0.048692215 0
2.447736 -1.3351033 0.14612199 0
2.4380379 -1.3303654 0.24299021 0
2.4373567 -1.3310982 0.34099045 0
2.4249651 -1.32543 0.43770367 0
2.4336119 -1.3301562 -0.24264158 0
2.4081314 -1.316775 0.53350198 0
2.4618731 -1.3467195 -0.14706406 0
2.4308996 -1.3303272 0.63976079 0
2.4398491 -1.3357782 -0.048552595 0
2.4059832 -1.3177831 0.73504615 0
2.4359953 -1.3386462 0.048517693 0
2.4467959 -1.3451374 0.14633135 0
2.4403615 -1.3427097 0.24368747 0
2.4326954 -1.3395981 0.34099045 0
2.4309378 -1.3391831 0.43958092 0
2.4429135 -1.3463364 -0.24403608 0
2.4086778 -1.3280164 0.53464681 0
2.4501617 -1.3514462 -0.14664535 0
2.4177098 -1.334097 0.63751125 0
2.4459109 -1.3496585 -0.048762023 0
2.4066741 -1.3285553 0.73659903 0
2.4437881 -1.3534989 0.048762023 0
2.4350979 -1.3497968 0.14591266 0
2.4461133 -1.3570191 0.24473332 0
2.4247684 -1.3457311 0.34050298 0
2.4210677 -1.3447831 0.43864229 0
2.4416821 -1.356791 -0.24438471 0
2.4059768 -1.3369503 0.53502846 0
2.4421754 -1.3576229 -0.14643602 0
2.4098666 -1.3402128 0.63661146 0
2.441185 -1.3581882 -0.048762023 0
2.4138379 -1.3435247 0.74022251 0
2.4477782 -1.3668958 0.04893655 0
2.4323523 -1.3588386 0.14601734 0
2.4381216 -1.3631787 0.24438471 0
2.4304502 -1.3600032 0.34196541 0
2.4148712 -1.3518392 0.4383294 0
2.4389079 -1.3658541 -0.24455902 0
2.4115722 -1.3510983 0.53731817 0
2.447875 -1.3719984 -0.14706406 0
2.4017742 -1.3467106 0.63571167 0
2.4262023 -1.3604078 -0.048552595 0
2.4110539 -1.3524671 0.74074018 0
2.4362614 -1.3710824 0.048796929 0
2.4345548 -1.3712413 0.14643602 0
2.4264059 -1.3677675 0.24368747 0
2.4345722 -1.372931 0.34318411 0
2.406697 -1.3583186 0.43770367 0
2.4323902 -1.3733795 -0.24438471 0
2.4070785 -1.3590879 0.53731817 0
2.4572241 -1.3879668 -0.14790143 0
2.4108679 -1.3623375 0.6393109 0
2.4301429 -1.3737891 -0.048727117 0
2.4029551 -1.358973 0.73970485 0
2.4297211 -1.3785914 0.048762023 0
2.4453847 -1.3886074 0.14737807 0
2.4253218 -1.3777745 0.24403608 0
2.429765 -1.3814207 0.34318411 0
2.4088087 -1.3706191 0.43895519 0
2.4258499 -1.3808759 -0.24421038 0
2.4023197 -1.3674818 0.53731817 0
2.4506285 -1.3955474 -0.14779675 0
2.4162571 -1.3765324 0.64201027 0
2.4270699 -1.3832536 -0.048762023 0
2.3948402 -1.3654388 0.73866957 0
2.4248941 -1.3870642 0.048762023 0
2.4370558 -1.3951503 0.14716873 0
2.4271705 -1.3906163 0.24473332 0
2.416317 -1.384958 0.34196541 0
2.4142904 -1.3849164 0.44083238 0
2.4382954 -1.3992521 -0.24595349 0
2.3972914 -1.3762776 0.53731817 0
2.4333735 -1.3975569 -0.14706406 0
2.4111958 -1.3853791 0.64201027 0
2.4308963 -1.3966982 -0.04893655 0
2.396759 -1.3776411 0.74074018 0
2.4284549 -1.4009389 0.04893655 0
2.4180887 -1.3960842 0.14633135 0
2.424027 -1.4000769 0.24490763 0
2.4146619 -1.3957919 0.34245288 0
2.4091983 -1.3937559 0.44083238 0
2.3958712 -1.3866041 0.53808141 0
2.4267519 -1.4050418 -0.14695938 0
2.3962274 -1.3879272 0.6393109 0
2.4309514 -1.4086063 -0.049041264 0
2.4050643 -1.3941669 0.74488121 0
2.4304643 -1.4134282 0.049076166 0
2.4201055 -1.4085349 0.14675003 0
2.4294555 -1.4145446 0.24595349 0
2.4132051 -1.4062111 0.34294036 0
2.4009058 -1.4001669 0.44020665 0
2.3977995 -1.3989161 0.53960788 0
2.4373572 -1.422565 -0.14790143 0
2.3913682 -1.3962829 0.6393109 0
2.4173861 -1.4120405 -0.048866738 0
2.400183 -1.4025537 0.74488121 0
2.4272408 -1.4229151 0.049111072 0
2.4188669 -1.4185731 0.14695938 0
2.4159117 -1.4179738 0.24508193 0
2.4168401 -1.4196532 0.34415907 0
2.4013588 -1.4111233 0.44114524 0
2.4030554 -1.413249 0.54189759 0
2.4375408 -1.4341028 -0.14821544 0
2.3965559 -1.4105527 0.64201027 0
2.4144135 -1.4210632 -0.048901644 0
2.3921895 -1.4085449 0.74384594 0
2.4173436 -1.4279052 0.049006358 0
2.4190581 -1.4300572 0.14727339 0
2.4075179 -1.4243693 0.24473332 0
2.4155357 -1.4296819 0.34464651 0
2.404916 -1.4245305 0.44270959 0
2.3848438 -1.4132031 0.53884465 0
2.4327719 -1.4421779 -0.14821544 0
2.4035983 -1.4254507 0.6451596 0
2.4197574 -1.4356045 -0.049111072 0
2.3872581 -1.4168867 0.74384594 0
2.4089081 -1.4342885 0.04893655 0
2.4209146 -1.442582 0.14769208 0
2.409627 -1.4364259 0.24543057 0
2.4003019 -1.4320028 0.34318411 0
2.4067132 -1.4369673 0.44396105 0
2.3832672 -1.4235326 0.53960788 0
2.424294 -1.4486122 -0.1480061 0
2.4069712 -1.4388314 0.64740908 0
2.4198802 -1.4471214 -0.049215786 0
2.3856132 -1.4271945 0.74488121 0
2.4141746 -1.4488626 0.049145978 0
2.4124401 -1.4489672 0.14748274 0
2.4165528 -1.4520115 0.24665076 0
2.4003923 -1.4434417 0.34391531 0
2.4067602 -1.4484153 0.44489968 0
2.3850114 -1.4358937 0.54113436 0
2.4175117 -1.4560354 -0.14790143 0
2.3869116 -1.4381731 0.64336002 0
2.4113886 -1.4534948 -0.049145978 0
2.4227905 -1.4655607 0.049425215 0
2.4022419 -1.4542763 0.14716873 0
2.4114697 -1.4604379 0.24665076 0
2.4089198 -1.4600432 0.34586522 0
2.393245 -1.4516853 0.44333532 0
2.3917334 -1.4513395 0.54380566 0
2.4175363 -1.4675744 -0.14821544 0
2.4028821 -1.4598267 -0.049076166 0
2.4142451 -1.471927 0.049355406 0
2.4073806 -1.4688946 0.14779675 0
2.402956 -1.4667705 0.24630213 0
2.4122789 -1.4736173 0.3470839 0
2.4260283 -1.4843432 -0.14905281 0
2.4045935 -1.4723823 -0.049215786 0
2.3986127 -1.4744824 0.049145978 0
