# .PCD v0.7 - Point Cloud Data file format
VERSION 0.7
FIELDS x y z rgba
SIZE 4 4 4 4
TYPE F F F U
COUNT 1 1 1 1
WIDTH 1365
HEIGHT 1
VIEWPOINT 0 0 0 1 0 0 0
POINTS 1365
DATA ascii
1.9626943 -0.42865431 0.31818774 0
1.7868935 -0.39025924 -0.16001794 0
1.9620831 -0.42887962 0.39039519 0
1.8164887 -0.39738724 -0.097449563 0
2.0102491 -0.4401432 0.47509661 0
1.8361456 -0.40235916 -0.032810524 0
2.013432 -0.44157672 0.55231988 0
1.8648015 -0.41170952 0.033334095 0
1.8818872 -0.41617069 0.10100841 0
1.9141873 -0.42366412 0.1715225 0
1.9205954 -0.42578575 0.24154507 0
1.7654841 -0.3917217 -0.22204597 0
1.9573292 -0.43464631 0.31756201 0
1.7933004 -0.39822194 -0.16071519 0
1.9624907 -0.43615189 0.39077684 0
1.8111913 -0.40285826 -0.097240217 0
1.9972876 -0.444617 0.47239724 0
1.8386337 -0.40963578 -0.032880332 0
2.0231917 -0.45112482 0.5554257 0
1.8711576 -0.41996807 0.033473715 0
1.8765994 -0.42153352 0.10079906 0
1.910753 -0.42990595 0.17134818 0
1.9268436 -0.43423295 0.24252002 0
1.760233 -0.39700848 -0.22155848 0
1.9443153 -0.43852696 0.3156848 0
1.7957864 -0.40535668 -0.16106381 0
1.968616 -0.44473001 0.39230329 0
1.809774 -0.40917802 -0.097240217 0
1.9938227 -0.45115602 0.47194731 0
1.825563 -0.41308275 -0.032670904 0
2.0179164 -0.45697811 0.55439043 0
1.8600062 -0.42394882 0.033299193 0
1.880958 -0.42941505 0.10111307 0
1.8995296 -0.43435255 0.17047663 0
1.9292631 -0.44150585 0.2430075 0
1.7627769 -0.4037298 -0.22204597 0
1.9369963 -0.44398722 0.31474617 0
1.774941 -0.40716788 -0.1593207 0
1.9728713 -0.45257267 0.39344814 0
1.820087 -0.41785866 -0.097868249 0
1.996114 -0.45863801 0.4728471 0
1.8241098 -0.41945258 -0.032670904 0
2.0087783 -0.46228611 0.55231988 0
1.8546187 -0.42953646 0.033229381 0
1.8852844 -0.43733218 0.10142709 0
1.8903155 -0.43884698 0.16977938 0
1.9315773 -0.44913676 0.24349497 0
1.7729574 -0.4125801 -0.2235084 0
1.9431301 -0.45253804 0.31599763 0
1.777462 -0.41395542 -0.15966932 0
1.9540714 -0.45544577 0.39001361 0
1.8147271 -0.42330199 -0.097658902 0
2.0020919 -0.46737501 0.47464675 0
1.8304236 -0.42763707 -0.032810524 0
2.0033903 -0.46841559 0.55128461 0
1.849215 -0.4350917 0.033159573 0
1.8837464 -0.44391039 0.10142709 0
1.9023466 -0.44864404 0.17099957 0
1.9106785 -0.45131314 0.24105757 0
1.7715064 -0.41876638 -0.2235084 0
1.9511504 -0.46159199 0.31756201 0
1.7837615 -0.42199209 -0.16036656 0
1.9505591 -0.4618116 0.38963199 0
1.8015777 -0.42687106 -0.097030871 0
2.0004482 -0.47436079 0.47464675 0
1.8367023 -0.43587074 -0.032950144 0
2.005502 -0.47629866 0.55231988 0
1.8593545 -0.44433269 0.033369001 0
1.8685886 -0.44722897 0.1006944 0
1.9007689 -0.45528173 0.17099957 0
1.9129519 -0.45890605 0.24154507 0
1.7545918 -0.42124027 -0.22155848 0
1.9418443 -0.46655402 0.31631052 0
1.7822776 -0.42821598 -0.16036656 0
1.954662 -0.46999446 0.39077684 0
1.807844 -0.43502623 -0.097449563 0
1.9874127 -0.47860324 0.47194731 0
1.8351697 -0.4422794 -0.032950144 0
2.0150952 -0.48601395 0.5554257 0
1.8636222 -0.45223507 0.033473715 0
1.8611938 -0.45233378 0.10038038 0
1.901104 -0.46238479 0.17117387 0
1.9171245 -0.46699008 0.24227627 0
1.7473248 -0.42595187 -0.22082727 0
1.9363658 -0.47239316 0.3156848 0
1.7807721 -0.43443471 -0.16036656 0
1.964453 -0.47960851 0.39306656 0
1.8043745 -0.44086006 -0.09734489 0
1.981944 -0.48461199 0.47104752 0
1.8258451 -0.44678143 -0.032810524 0
2.0115101 -0.49258548 0.55490804 0
1.8464991 -0.45491076 0.033194479 0
1.86736 -0.46074158 0.10079906 0
1.8975441 -0.46854043 0.17099957 0
1.9174098 -0.47415581 0.24252002 0
1.7535353 -0.43395609 -0.22180222 0
1.9270351 -0.47724989 0.31443331 0
1.773443 -0.43921125 -0.15984364 0
1.9589553 -0.48551816 0.39230329 0
1.8183327 -0.4510023 -0.098182261 0
1.9878056 -0.49340513 0.4728471 0
1.8242744 -0.45315209 -0.032810524 0
2.0004044 -0.49727371 0.55231988 0
1.83714 -0.45941296 0.033054858 0
1.8754274 -0.46968311 0.10132242 0
1.8881665 -0.47322375 0.17030232 0
1.915743 -0.48084593 0.24252002 0
1.759711 -0.44200882 -0.22277717 0
1.9272734 -0.48445523 0.31474617 0
1.7718991 -0.44539905 -0.15984364 0
1.9420173 -0.48852175 0.3892504 0
1.8128736 -0.45637161 -0.097972922 0
1.9936302 -0.50224513 0.47464675 0
1.8168644 -0.4580507 -0.03270581 0
1.9967834 -0.5037809 0.55180228 0
1.8394017 -0.46680677 0.033124667 0
1.8777311 -0.47688296 0.10153177 0
1.8942269 -0.48177624 0.17099957 0
1.8986635 -0.48361039 0.2405701 0
1.7505409 -0.4458819 -0.22180222 0
1.9333128 -0.4927952 0.31599763 0
1.7741946 -0.4525663 -0.16019225 0
1.9364957 -0.49432647 0.38848713 0
1.7977237 -0.45923659 -0.097240217 0
1.9844011 -0.50692421 0.4728471 0
1.8192103 -0.46506372 -0.032775622 0
1.9932302 -0.50992078 0.55128461 0
1.8475267 -0.4753955 0.033299193 0
1.8684027 -0.48111492 0.10111307 0
1.8964773 -0.48905012 0.17134818 0
1.9008934 -0.49089658 0.24105757 0
1.7452085 -0.4506917 -0.22131474 0
1.9316679 -0.49920365 0.31599763 0
1.7765421 -0.45944503 -0.16054088 0
1.9386472 -0.50172919 0.3892504 0
1.7942574 -0.46469477 -0.097135544 0
1.9713904 -0.51057047 0.47014773 0
1.8157222 -0.47059211 -0.032740716 0
1.9990081 -0.51846778 0.5533551 0
1.8459401 -0.48151952 0.033299193 0
1.8628471 -0.48662433 0.10090373 0
1.89099 -0.49432856 0.17099957 0
1.9069366 -0.49920839 0.24203253 0
1.7359436 -0.4547686 -0.22033979 0
1.918449 -0.50293785 0.31412044 0
1.7750088 -0.46533373 -0.16054088 0
1.9521644 -0.51214075 0.39230329 0
1.7946384 -0.47114938 -0.097240217 0
1.9771352 -0.51942939 0.47194731 0
1.8063327 -0.47489351 -0.032601096 0
1.9934496 -0.52445942 0.55231988 0
1.8403816 -0.48693714 0.033229381 0
1.8611372 -0.49312389 0.10090373 0
1.8873271 -0.50041568 0.17082524 0
1.907101 -0.5063712 0.24227627 0
1.7458566 -0.46388406 -0.22180222 0
1.9166818 -0.5096314 0.31412044 0
1.7656716 -0.46947891 -0.15984364 0
1.9389815 -0.51592308 0.39001361 0
1.8064929 -0.48100823 -0.097972922 0
1.9790759 -0.52733123 0.4728471 0
1.8046639 -0.48119593 -0.032601096 0
1.9916067 -0.53141469 0.55231988 0
1.8290138 -0.49076709 0.033054858 0
1.8594046 -0.49961749 0.10090373 0
1.8759485 -0.50441384 0.16995369 0
1.9034051 -0.51250905 0.24203253 0
1.7518936 -0.47204122 -0.22277717 0
1.9148912 -0.51631874 0.31412044 0
1.7601748 -0.47460198 -0.159495 0
1.9333779 -0.52166539 0.3892504 0
1.8009465 -0.48626983 -0.097763576 0
1.9809859 -0.53525299 0.47374693 0
1.8106947 -0.48958018 -0.032740716 0
1.9841453 -0.5368498 0.55076694 0
1.8311487 -0.49819851 0.033124667 0
1.8634303 -0.50768006 0.10121775 0
1.8780208 -0.51200724 0.17030232 0
1.8901145 -0.51601321 0.2405701 0
1.7464056 -0.47710732 -0.22228971 0
1.920699 -0.52508348 0.3153719 0
1.7700386 -0.48389569 -0.16054088 0
1.9239703 -0.5263387 0.38772389 0
1.7896061 -0.48991653 -0.097240217 0
1.9791055 -0.54216456 0.47374693 0
1.8128319 -0.49695504 -0.032810524 0
1.9971634 -0.54786098 0.55490804 0
1.8313262 -0.50511914 0.033159573 0
1.8521101 -0.51119965 0.1006944 0
1.8839037 -0.52068275 0.17099957 0
1.8844755 -0.52154881 0.24008264 0
1.7313378 -0.47949168 -0.22058353 0
1.9227544 -0.53250426 0.31599763 0
1.7606585 -0.48794287 -0.15984364 0
1.9296888 -0.53515011 0.3892504 0
1.7859606 -0.49562633 -0.097135544 0
1.9621794 -0.54489821 0.47014773 0
1.8092473 -0.50242883 -0.032775622 0
1.9934746 -0.5539636 0.55439043 0
1.8392708 -0.51387966 0.033334095 0
1.8483909 -0.5171234 0.10058971 0
1.8820747 -0.52725559 0.17099957 0
1.8942039 -0.53101009 0.24154507 0
1.727827 -0.48469421 -0.22033979 0
1.9056692 -0.53494173 0.31349471 0
1.7627808 -0.49516335 -0.16019225 0
1.9354641 -0.54366994 0.39077684 0
1.7900755 -0.50316751 -0.097449563 0
1.9566096 -0.55034667 0.46924794 0
1.795933 -0.50549042 -0.03256619 0
1.9840904 -0.55882376 0.55231988 0
1.8278456 -0.51757276 0.033159573 0
1.8465747 -0.52357239 0.10058971 0
1.8707323 -0.53077471 0.17012802 0
1.899977 -0.53978884 0.24252002 0
1.7337623 -0.49289382 -0.22131474 0
1.9037904 -0.54159057 0.31349471 0
1.7496309 -0.49773526 -0.15914638 0
1.9260015 -0.54827255 0.3892504 0
1.7940707 -0.51105446 -0.097763576 0
1.9696693 -0.56144679 0.4728471 0
1.7980036 -0.51285338 -0.032636002 0
1.9821277 -0.56574613 0.55231988 0
1.8260279 -0.52394998 0.033159573 0
1.8562535 -0.53332406 0.10121775 0
1.8631237 -0.53565001 0.16960508 0
1.8942659 -0.54531944 0.24203253 0
1.7358462 -0.50004178 -0.22180222 0
1.9056844 -0.54932702 0.31412044 0
1.744054 -0.50273591 -0.15879777 0
1.9203031 -0.553904 0.38848713 0
1.7922758 -0.5173139 -0.097763576 0
1.9676976 -0.56831872 0.4728471 0
1.7962024 -0.51912647 -0.032636002 0
1.9764293 -0.57158822 0.55128461 0
1.8203473 -0.52920431 0.033089764 0
1.8524628 -0.53924215 0.10111307 0
1.8631554 -0.5427075 0.16977938 0
1.8847281 -0.54970503 0.24105757 0
1.730279 -0.50498569 -0.22131474 0
1.91134 -0.5581907 0.3153719 0
1.7499386 -0.51105481 -0.159495 0
1.918358 -0.56060374 0.38848713 0
1.7789572 -0.52020347 -0.097135544 0
1.9657018 -0.57518387 0.4728471 0
1.802056 -0.52764088 -0.032775622 0
1.976276 -0.579027 0.55180228 0
1.8204072 -0.53612024 0.033124667 0
1.8371593 -0.54175079 0.10038038 0
1.8765371 -0.55371881 0.17117387 0
1.875183 -0.55403078 0.24008264 0
1.7246984 -0.50989676 -0.22082727 0
1.9093798 -0.56485921 0.3153719 0
1.7557861 -0.51942092 -0.16019225 0
1.9201546 -0.56841117 0.3892504 0
1.7771306 -0.5264101 -0.097135544 0
1.9562086 -0.57982683 0.47104752 0
1.7963687 -0.53279084 -0.03270581 0
1.9853548 -0.58921975 0.55490804 0
1.8300222 -0.54590106 0.033334095 0
1.8314295 -0.54701716 0.10017103 0
1.8631392 -0.55684245 0.17012802 0
1.8846481 -0.56398761 0.24154507 0
1.722908 -0.51591402 -0.22082727 0
1.8998275 -0.56925279 0.31412044 0
1.7577795 -0.52669036 -0.16054088 0
1.9256809 -0.5773657 0.39077684 0
1.7771953 -0.53318411 -0.097240217 0
1.9504398 -0.58553106 0.47014773 0
1.7887526 -0.53733212 -0.032601096 0
1.9777354 -0.59447801 0.5533551 0
1.8204485 -0.54997247 0.033194479 0
1.8371558 -0.55571979 0.10058971 0
1.8573701 -0.56218827 0.16977938 0
1.8864673 -0.57171428 0.24203253 0
1.7248961 -0.52307713 -0.22131474 0
1.8978289 -0.57588094 0.31412044 0
1.744491 -0.52935177 -0.159495 0
1.9236538 -0.58408397 0.39077684 0
1.7867894 -0.54286814 -0.097868249 0
1.9595709 -0.59573674 0.4728471 0
1.7792135 -0.54124492 -0.032461476 0
1.9701042 -0.59969038 0.55180228 0
1.8108687 -0.55398375 0.033054858 0
1.8466629 -0.56563896 0.10121775 0
1.8477767 -0.56633282 0.16908213 0
1.8901535 -0.58004296 0.24276376 0
1.7268549 -0.53026032 -0.22180222 0
1.8958071 -0.58250207 0.31412044 0
1.7426325 -0.53543794 -0.159495 0
1.9103438 -0.58733356 0.38848713 0
1.7829746 -0.5485146 -0.097763576 0
1.9574794 -0.60257328 0.4728471 0
1.790691 -0.55157274 -0.03270581 0
1.9661528 -0.60599458 0.55128461 0
1.8070138 -0.55970979 0.033019952 0
1.8408619 -0.57089829 0.10100841 0
1.8553029 -0.57573187 0.16995369 0
1.8672646 -0.58015841 0.24008264 0
1.7249935 -0.53628492 -0.22180222 0
1.8975346 -0.59028965 0.31474617 0
1.7407529 -0.54151762 -0.159495 0
1.9045329 -0.59283125 0.38772389 0
1.7696074 -0.55117136 -0.097135544 0
1.9572246 -0.60998231 0.47329703 0
1.7887548 -0.55782014 -0.03270581 0
1.9640255 -0.61285412 0.55128461 0
1.8107733 -0.56780905 0.033124667 0
1.8293301 -0.57432944 0.10048504 0
1.853282 -0.58220458 0.16995369 0
1.8690155 -0.58786404 0.2405701 0
1.7155368 -0.53991926 -0.22082727 0
1.8954625 -0.5969097 0.31474617 0
1.7502544 -0.5511815 -0.16054088 0
1.909942 -0.60183591 0.3892504 0
1.7638631 -0.55614388 -0.096926205 0
1.9420744 -0.61270642 0.47014773 0
1.7848898 -0.56345868 -0.032670904 0
1.9655584 -0.62086976 0.55231988 0
1.8221221 -0.57836115 0.033369001 0
1.8330246 -0.58252615 0.10079906 0
1.8607318 -0.59168899 0.17082524 0
1.8764095 -0.5973956 0.24178879 0
1.7155331 -0.54650694 -0.22107102 0
1.8858392 -0.6011228 0.31349471 0
1.7464213 -0.55668253 -0.16036656 0
1.9153112 -0.6108855 0.39077684 0
1.7733276 -0.56594098 -0.097554229 0
1.9436365 -0.62066734 0.47104752 0
1.7771975 -0.56785971 -0.03256619 0
1.9707396 -0.6300804 0.55439043 0
1.8124768 -0.58227158 0.033229381 0
1.8348856 -0.5898239 0.10100841 0
1.8491722 -0.59512866 0.16995369 0
1.8780916 -0.6051594 0.24227627 0
1.7173938 -0.55371016 -0.22155848 0
1.8838354 -0.60737312 0.31349471 0
1.7330905 -0.55910498 -0.1593207 0
1.9094305 -0.6163612 0.39001361 0
1.7732418 -0.57274151 -0.097658902 0
1.9433126 -0.62804741 0.47149745 0
1.7791103 -0.5749799 -0.032636002 0
1.9539342 -0.63185686 0.55024934 0
1.8029288 -0.58580709 0.033089764 0
1.842312 -0.59931457 0.10153177 0
1.8414004 -0.59972882 0.16943076 0
1.8741871 -0.61076903 0.24203253 0
1.7193228 -0.56063306 -0.22204597 0
1.8910936 -0.61700886 0.31505907 0
1.7235523 -0.56267786 -0.15862344 0
1.8999107 -0.62025255 0.38848713 0
1.7713326 -0.57861865 -0.097658902 0
1.9486284 -0.6369099 0.47329703 0
1.784695 -0.583673 -0.032775622 0
1.9553889 -0.63987511 0.55128461 0
1.7970735 -0.59084767 0.033019952 0
1.8327256 -0.60292399 0.10111307 0
1.8526481 -0.61019486 0.17065094 0
1.8626176 -0.61419922 0.24081384 0
1.7173553 -0.5666312 -0.22204597 0
1.8984165 -0.62637126 0.31662342 0
1.7330287 -0.57213801 -0.15966932 0
1.8902774 -0.62441754 0.38696066 0
1.757924 -0.58103734 -0.097030871 0
1.9426929 -0.64248425 0.47239724 0
1.7922424 -0.59272748 -0.032950144 0
1.9532562 -0.64635593 0.55128461 0
1.810285 -0.60185075 0.033299193 0
1.8192395 -0.60553312 0.10048504 0
1.8542874 -0.61791784 0.17099957 0
1.8568044 -0.61911672 0.24032637 0
1.7079345 -0.56981003 -0.22107102 0
1.892471 -0.63174307 0.31599763 0
1.7348005 -0.57944626 -0.16001794 0
1.8956448 -0.63317037 0.38848713 0
1.7521989 -0.58559752 -0.096821532 0
1.9368556 -0.6476869 0.47149745 0
1.7901626 -0.59897995 -0.032950144 0
1.9583155 -0.65562332 0.5533551 0
1.8118572 -0.60975736 0.033369001 0
1.817008 -0.61219686 0.10048504 0
1.8502309 -0.62375015 0.17082524 0
1.8658078 -0.62972677 0.24178879 0
1.7020731 -0.57479584 -0.22058353 0
1.8807856 -0.63551337 0.31443331 0
1.7327673 -0.58549827 -0.16001794 0
1.9044704 -0.64388686 0.39077684 0
1.7576087 -0.59457582 -0.097240217 0
1.9344685 -0.65478146 0.47149745 0
1.7765908 -0.60168839 -0.032740716 0
1.9558995 -0.66279644 0.5533551 0
1.8059319 -0.61478937 0.033299193 0
1.8224219 -0.62111294 0.10090373 0
1.8329566 -0.62506044 0.16943076 0
1.8711127 -0.6388014 0.24276376 0
1.7075704 -0.58330041 -0.22155848 0
1.8748175 -0.6407969 0.31380758 0
1.7269424 -0.59025449 -0.15966932 0
1.9059265 -0.65180117 0.39154008 0
1.7630813 -0.60329384 -0.097658902 0
1.9358584 -0.6627925 0.47239724 0
1.7688046 -0.60594213 -0.032636002 0
1.9462643 -0.66711426 0.55128461 0
1.7924303 -0.61718327 0.033089764 0
1.8277956 -0.63007426 0.10132242 0
1.8326468 -0.6321044 0.16960508 0
1.8632424 -0.64338505 0.24203253 0
1.713029 -0.59185046 -0.22253343 0
1.8763031 -0.64862812 0.31443331 0
1.7248715 -0.59627903 -0.15966932 0
1.8887963 -0.65331608 0.38848713 0
1.7647395 -0.61075091 -0.097868249 0
1.9408989 -0.67209649 0.47419682 0
1.7780157 -0.61604065 -0.03284543 0
1.9366226 -0.67137289 0.54921407 0
1.794042 -0.62475151 0.033159573 0
1.8236992 -0.63579303 0.10121775 0
1.8398354 -0.64177883 0.17047663 0
1.8572369 -0.64857614 0.24154507 0
1.7109526 -0.59782642 -0.22253343 0
1.8814865 -0.65778148 0.3156848 0
1.726541 -0.60361141 -0.16001794 0
1.8827981 -0.65860873 0.38772389 0
1.7475157 -0.61162889 -0.097030871 0
1.9348626 -0.67757916 0.47329703 0
1.7777416 -0.6229046 -0.032880332 0
1.9452056 -0.68196362 0.55231988 0
1.7937363 -0.63167429 0.033194479 0
1.8046269 -0.63586348 0.1002757 0
1.8413417 -0.64952266 0.17082524 0
1.8512181 -0.65373313 0.24105757 0
1.6976253 -0.59982717 -0.22107102 0
1.8792949 -0.66401708 0.3156848 0
1.7244235 -0.6096344 -0.16001794 0
1.8915931 -0.66910523 0.39001361 0
1.7378387 -0.61505967 -0.096612185 0
1.9214637 -0.680426 0.47059759 0
1.7775512 -0.62946391 -0.032915238 0
1.9502172 -0.69099122 0.55439043 0
1.7935157 -0.63828957 0.033229381 0
1.8080406 -0.64416987 0.10058971 0
1.8409399 -0.65661556 0.17099957 0
1.8565185 -0.66253728 0.24203253 0
1.6956267 -0.60545343 -0.22107102 0
1.8676645 -0.66725004 0.31412044 0
1.7260373 -0.6169914 -0.16036656 0
1.8893639 -0.67537433 0.39001361 0
1.743312 -0.62350959 -0.097030871 0
1.9228666 -0.68810731 0.47149745 0
1.7640473 -0.63162029 -0.03270581 0
1.9477934 -0.69779456 0.55439043 0
1.7912768 -0.64454609 0.033229381 0
1.8114183 -0.65250784 0.10090373 0
1.8256317 -0.65798783 0.16977938 0
1.8672652 -0.67372984 0.2437387 0
1.693503 -0.61136854 -0.22107102 0
1.8634659 -0.67309421 0.31380758 0
1.7164862 -0.62000436 -0.15966932 0
1.8869948 -0.68196523 0.39001361 0
1.756151 -0.63502449 -0.097868249 0
1.920453 -0.6948151 0.47149745 0
1.7580712 -0.63641292 -0.032636002 0
1.9344474 -0.70064205 0.55128461 0
1.7814991 -0.64806056 0.033089764 0
1.8222665 -0.66361099 0.10163644 0
1.8214519 -0.66367441 0.16960508 0
1.8611723 -0.67888314 0.24325122 0
1.7025474 -0.62135965 -0.22253343 0
1.8648162 -0.68094987 0.31443331 0
1.7105684 -0.62462533 -0.1593207 0
1.8790706 -0.68652672 0.38886875 0
1.7501719 -0.63977933 -0.097658902 0
1.932657 -0.70686954 0.47509661 0
1.7577169 -0.64323306 -0.032670904 0
1.9247336 -0.70473331 0.54921407 0
1.7829797 -0.6556555 0.033159573 0
1.8105674 -0.66651785 0.10111307 0
1.8209938 -0.670717 0.16977938 0
1.8438913 -0.67988181 0.24130133 0
1.700368 -0.62729889 -0.22253343 0
1.8754001 -0.69224352 0.31662342 0
1.712116 -0.63197249 -0.15966932 0
1.8748211 -0.69240159 0.38848713 0
1.7366872 -0.64173102 -0.097030871 0
1.9265223 -0.71225989 0.47419682 0
1.7760911 -0.65699601 -0.033054858 0
1.9295088 -0.71412987 0.55128461 0
1.7881778 -0.66466218 0.033299193 0
1.804486 -0.6714409 0.10090373 0
1.8298445 -0.6812402 0.17082524 0
1.8377866 -0.68492752 0.24081384 0
1.687008 -0.62906903 -0.22107102 0
1.8711214 -0.69809508 0.31631052 0
1.7173662 -0.64073068 -0.16036656 0
1.87975 -0.70168811 0.39001361 0
1.7306945 -0.64639169 -0.096821532 0
1.9112461 -0.71420544 0.47104752 0
1.7644217 -0.65969026 -0.032880332 0
1.9378607 -0.724922 0.55439043 0
1.7821029 -0.66949344 0.033229381 0
1.796523 -0.67562646 0.10058971 0
1.8218611 -0.6855185 0.17030232 0
1.8502458 -0.69693625 0.24276376 0
1.6810868 -0.63355374 -0.22058353 0
1.8538864 -0.69904667 0.31380758 0
1.7151192 -0.6467216 -0.16036656 0
1.8772892 -0.7082454 0.39001361 0
1.735902 -0.65525037 -0.097240217 0
1.9087414 -0.72087252 0.47104752 0
1.7490141 -0.66089731 -0.032636002 0
1.9371253 -0.73236501 0.55490804 0
1.7834941 -0.67712969 0.033299193 0
1.7978876 -0.68331254 0.10079906 0
1.8175949 -0.69116563 0.17012802 0
1.8478018 -0.7033906 0.24276376 0
1.6862854 -0.64224422 -0.22155848 0
1.8551267 -0.70692039 0.31443331 0
1.7016805 -0.64844769 -0.1593207 0
1.8858119 -0.71899033 0.39230329 0
1.7410686 -0.66415316 -0.097658902 0
1.9043928 -0.72683603 0.47059759 0
1.7448282 -0.66628516 -0.032601096 0
1.925534 -0.73567498 0.55231988 0
1.7736516 -0.6804859 0.033159573 0
1.8085427 -0.69459671 0.10153177 0
1.8133113 -0.69679141 0.16995369 0
1.839777 -0.70769823 0.24203253 0
1.6914438 -0.65097857 -0.22253343 0
1.8600217 -0.71623111 0.3156848 0
1.7031255 -0.65581572 -0.15966932 0
1.8649708 -0.71851069 0.38848713 0
1.7424668 -0.67166328 -0.097868249 0
1.9127533 -0.73768657 0.47329703 0
1.7499543 -0.67525113 -0.032740716 0
1.9229543 -0.74239188 0.55231988 0
1.7638075 -0.68378168 0.033019952 0
1.8061072 -0.70090544 0.10153177 0
1.8238691 -0.70816475 0.17117387 0
1.8354452 -0.71339685 0.24178879 0
1.6891612 -0.65687883 -0.22253343 0
1.8556693 -0.72200322 0.3153719 0
1.7082529 -0.66464651 -0.16036656 0
1.8624514 -0.7250163 0.38848713 0
1.7289451 -0.67339236 -0.097240217 0
1.9083509 -0.74365115 0.4728471 0
1.7606285 -0.68644029 -0.03298505 0
1.9257506 -0.75120592 0.55387276 0
1.7781675 -0.69649822 0.033334095 0
1.7813364 -0.69845682 0.1002757 0
1.8195314 -0.71379936 0.17099957 0
1.8255529 -0.71689695 0.24081384 0
1.6757724 -0.65841556 -0.22107102 0
1.8549763 -0.72919893 0.3156848 0
1.7170482 -0.67497879 -0.16141243 0
1.8653904 -0.73366874 0.38963199 0
1.7228669 -0.67796063 -0.097030871 0
1.8984903 -0.7474525 0.47104752 0
1.7656637 -0.69551337 -0.033124667 0
1.9285085 -0.76004851 0.5554257 0
1.7757255 -0.70270091 0.033334095 0
1.7826012 -0.70614159 0.10048504 0
1.8188808 -0.72088039 0.17117387 0
1.8322653 -0.72692519 0.24203253 0
1.6716187 -0.66352862 -0.22082727 0
1.8450758 -0.73275316 0.31443331 0
1.6980162 -0.6743499 -0.15984364 0
1.8682917 -0.74235058 0.39077684 0
1.7316258 -0.68839753 -0.097658902 0
1.901302 -0.7562356 0.47239724 0
1.7334974 -0.68984234 -0.03256619 0
1.9222542 -0.76534647 0.55439043 0
1.7732618 -0.70889509 0.033334095 0
1.7876674 -0.71501595 0.10090373 0
1.8145039 -0.72648454 0.17099957 0
1.8389298 -0.73700905 0.24325122 0
1.680465 -0.67349929 -0.22228971 0
1.8408024 -0.73813248 0.31412044 0
1.6938027 -0.6795311 -0.15966932 0
1.8729767 -0.75179285 0.39230329 0
1.7366259 -0.69741499 -0.098077588 0
1.8969754 -0.76181012 0.47194731 0
1.7312002 -0.69558704 -0.03256619 0
1.9125355 -0.76883441 0.55231988 0
1.7597752 -0.71028084 0.033124667 0
1.7926944 -0.72393161 0.10132242 0
1.8028488 -0.72876424 0.17012802 0
1.8327954 -0.74161386 0.24276376 0
1.6782223 -0.67906815 -0.22228971 0
1.8474996 -0.74793905 0.3156848 0
1.69154 -0.68514425 -0.15966932 0
1.8559173 -0.75210094 0.3892504 0
1.7306018 -0.70166916 -0.097868249 0
1.9052745 -0.77248985 0.47464675 0
1.7325902 -0.70282757 -0.032636002 0
1.9135555 -0.77662528 0.5533551 0
1.7500027 -0.71309423 0.03298505 0
1.7920058 -0.73093915 0.10142709 0
1.807801 -0.73774981 0.17082524 0
1.8193001 -0.74318349 0.24130133 0
1.6721666 -0.68342012 -0.22180222 0
1.8485345 -0.75587875 0.31631052 0
1.692947 -0.69225794 -0.16001794 0
1.85523 -0.75899458 0.38963199 0
1.7171749 -0.70286471 -0.097240217 0
1.9025664 -0.77913582 0.47464675 0
1.7412288 -0.71341997 -0.03284543 0
1.9126207 -0.78403294 0.55387276 0
1.7659949 -0.72680897 0.033334095 0
1.7783632 -0.73262537 0.10079906 0
1.8107409 -0.74633354 0.17134818 0
1.8166947 -0.74952954 0.24130133 0
1.6642661 -0.68698066 -0.22107102 0
1.8422331 -0.76081866 0.3156848 0
1.7015693 -0.70272636 -0.16106381 0
1.8543839 -0.76621568 0.39001361 0
1.7184026 -0.71038055 -0.097449563 0
1.8872296 -0.78055859 0.47149745 0
1.7350324 -0.71796447 -0.032775622 0
1.9152271 -0.79292136 0.5554257 0
1.7616006 -0.73220158 0.033299193 0
1.772107 -0.73729414 0.10058971 0
1.8081245 -0.75264961 0.17134818 0
1.8213967 -0.75892031 0.24227627 0
1.6636901 -0.69354963 -0.22131474 0
1.8322732 -0.76420295 0.31443331 0
1.6917505 -0.70559388 -0.16036656 0
1.8589451 -0.7757082 0.39154008 0
1.7232848 -0.71945244 -0.097868249 0
1.8898878 -0.78939474 0.4728471 0
1.7251353 -0.7209323 -0.032636002 0
1.9124476 -0.79960197 0.5554257 0
1.759034 -0.73834622 0.033299193 0
1.776888 -0.74656999 0.10100841 0
1.7999762 -0.75664032 0.17082524 0
1.8242257 -0.76758325 0.2430075 0
1.6667479 -0.70166343 -0.22204597 0
1.8332359 -0.77212781 0.31505907 0
1.6819328 -0.70840156 -0.15966932 0
1.8598444 -0.7837171 0.39230329 0
1.7281245 -0.728567 -0.098286942 0
1.8943032 -0.7990163 0.47464675 0
1.7281352 -0.7292822 -0.032740716 0
1.9025257 -0.803267 0.5533551 0
1.7546048 -0.74370158 0.033264287 0
1.7797871 -0.75510818 0.10132242 0
1.7973242 -0.76291883 0.17082524 0
1.8178812 -0.77239376 0.24252002 0
1.6734228 -0.71136016 -0.22326466 0
1.834165 -0.7800684 0.3156848 0
1.6831166 -0.7158277 -0.16001794 0
1.851678 -0.78789842 0.39115849 0
1.7255708 -0.73459488 -0.098286942 0
1.8915025 -0.80562389 0.47464675 0
1.7274189 -0.73609406 -0.032775622 0
1.894379 -0.80763048 0.55180228 0
1.7519982 -0.74982172 0.033264287 0
1.7789763 -0.7621026 0.10142709 0
1.7964814 -0.76997292 0.17099957 0
1.8078767 -0.77560407 0.24154507 0
1.6672812 -0.71563119 -0.22277717 0
1.8423214 -0.79114288 0.31756201 0
1.684269 -0.72327083 -0.16036656 0
1.8435051 -0.7920323 0.39001361 0
1.7119864 -0.73588145 -0.097658902 0
1.8922592 -0.81376123 0.47554654 0
1.7340233 -0.74607092 -0.032950144 0
1.9075181 -0.82111239 0.55646098 0
1.7547446 -0.75861859 0.033369001 0
1.768839 -0.76544499 0.10100841 0
1.8009608 -0.77971864 0.17169681 0
1.8086647 -0.78380376 0.24203253 0
1.6573619 -0.7185787 -0.22180222 0
1.8394094 -0.79788995 0.31756201 0
1.6852626 -0.73102492 -0.16071519 0
1.8513954 -0.80347311 0.39230329 0
1.7092779 -0.74215114 -0.097658902 0
1.8856891 -0.81913841 0.47464675 0
1.7257752 -0.75003028 -0.03284543 0
1.9080392 -0.82963908 0.55749625 0
1.7557513 -0.76633918 0.033438813 0
1.7679864 -0.77241433 0.10111307 0
1.7982281 -0.78600031 0.17169681 0
1.8131924 -0.79329509 0.2430075 0
1.653025 -0.72356361 -0.22155848 0
1.8257561 -0.79955137 0.3156848 0
1.6845255 -0.73770237 -0.16088949 0
1.8557725 -0.81308252 0.39382979 0
1.7103354 -0.74971688 -0.097868249 0
1.8756796 -0.82258499 0.4728471 0
1.7121595 -0.75122905 -0.032636002 0
1.8980559 -0.83318818 0.5554257 0
1.7475759 -0.77004415 0.033334095 0
1.7690705 -0.77988422 0.10132242 0
1.7845366 -0.7874465 0.17065094 0
1.8176756 -0.80282766 0.24398245 0
1.6506165 -0.72904128 -0.22155848 0
1.8194811 -0.80400455 0.31505907 0
1.6764734 -0.74116111 -0.16036656 0
1.8421501 -0.81479037 0.39154008 0
1.7186664 -0.76053166 -0.098496281 0
1.883634 -0.83353192 0.47554654 0
1.7114875 -0.75771219 -0.032670904 0
1.8846843 -0.83478361 0.55231988 0
1.7377036 -0.77258557 0.033194479 0
1.7737741 -0.78899336 0.10174111 0
1.7855557 -0.79498065 0.17099957 0
1.8095638 -0.80642658 0.24325122 0
1.6590691 -0.73935908 -0.22302091 0
1.8276299 -0.81486011 0.31693625 0
1.6703674 -0.74509311 -0.16001794 0
1.839438 -0.82089472 0.39154008 0
1.7124876 -0.76459831 -0.098286942 0
1.8879772 -0.84295171 0.47734615 0
1.7107911 -0.76419914 -0.03270581 0
1.8836696 -0.84181714 0.55283749 0
1.7387813 -0.77998066 0.033264287 0
1.7710092 -0.79518014 0.10174111 0
1.7883619 -0.80334657 0.1715225 0
1.7996376 -0.80916667 0.24227627 0
1.6528574 -0.74351716 -0.22253343 0
1.8319799 -0.82447761 0.31818774 0
1.6751548 -0.75389892 -0.16071519 0
1.8295451 -0.82376593 0.39001361 0
1.7026585 -0.76699167 -0.097868249 0
1.8832467 -0.84873617 0.47689623 0
1.7172281 -0.7742759 -0.032880332 0
1.8895245 -0.85235906 0.5554257 0
1.7415129 -0.7885198 0.033369001 0
1.7609462 -0.79805952 0.10132242 0
1.7891761 -0.81122983 0.17187113 0
1.7968022 -0.81544369 0.24227627 0
1.646637 -0.74764079 -0.22204597 0
1.8254936 -0.82923347 0.31756201 0
1.6761409 -0.76138973 -0.16106381 0
1.8373824 -0.83502072 0.39230329 0
1.6963345 -0.77127707 -0.097658902 0
1.8731769 -0.85207707 0.47509661 0
1.7108747 -0.77860886 -0.032810524 0
1.890054 -0.86055052 0.55646098 0
1.7460251 -0.79791868 0.033508621 0
1.7545171 -0.80253989 0.10111307 0
1.7845218 -0.81664121 0.17169681 0
1.8011639 -0.82501739 0.24325122 0
1.6404079 -0.75173008 -0.22155848 0
1.8136096 -0.83148414 0.31599763 0
1.6769611 -0.7691893 -0.16141243 0
1.8432312 -0.84584361 0.39421138 0
1.7043869 -0.78248924 -0.098286942 0
1.8684205 -0.85779756 0.47464675 0
1.7135979 -0.78708023 -0.032915238 0
1.8870385 -0.86714286 0.55646098 0
1.7412732 -0.80347496 0.033473715 0
1.7551903 -0.81063998 0.10132242 0
1.7778994 -0.82150477 0.17134818 0
1.8071367 -0.83577991 0.24446991 0
1.6484511 -0.762739 -0.22302091 0
1.8033794 -0.83480656 0.31474617 0
1.663283 -0.77030677 -0.16036656 0
1.8383377 -0.85176843 0.39382979 0
1.7051315 -0.79041076 -0.098496281 0
1.8652639 -0.86463982 0.47464675 0
1.6998169 -0.78830767 -0.03270581 0
1.880343 -0.87242723 0.5554257 0
1.7201902 -0.80140692 0.033124667 0
1.7614013 -0.82098061 0.10184578 0
1.7676542 -0.82464629 0.17065094 0
1.8040612 -0.84239775 0.24446991 0
1.6528385 -0.77213651 -0.22399586 0
1.8076131 -0.8444407 0.31599763 0
1.664194 -0.7777952 -0.16071519 0
1.8246824 -0.85319078 0.39154008 0
1.7023622 -0.79635799 -0.098496281 0
1.8762025 -0.87807894 0.47824594 0
1.7042996 -0.79762691 -0.03284543 0
1.8772861 -0.87898552 0.5554257 0
1.7301918 -0.81306022 0.033369001 0
1.7603321 -0.82797414 0.10195045 0
1.7719753 -0.83420604 0.17134818 0
1.7868909 -0.84160894 0.24252002 0
1.6502689 -0.77761322 -0.22399586 0
1.8118019 -0.85411465 0.31724915 0
1.6650728 -0.78529936 -0.16106381 0
1.821843 -0.85923696 0.39154008 0
1.6888742 -0.79688513 -0.097868249 0
1.8697557 -0.88263202 0.47734615 0
1.7069296 -0.80613303 -0.032950144 0
1.8776997 -0.88718367 0.55646098 0
1.7363775 -0.82337868 0.033543523 0
1.7431407 -0.82695854 0.10111307 0
1.7799979 -0.84520519 0.17239405 0
1.7893207 -0.85039759 0.24325122 0
1.6403735 -0.77995938 -0.22302091 0
1.8125274 -0.86181456 0.31787488 0
1.6624596 -0.79081661 -0.16106381 0
1.8223782 -0.8672784 0.39230329 0
1.6860824 -0.80277556 -0.097868249 0
1.8578665 -0.88496304 0.47509661 0
1.7078576 -0.81350881 -0.033019952 0
1.8817233 -0.89672977 0.55853152 0
1.7372456 -0.83085781 0.033613335 0
1.7438467 -0.83476293 0.10132242 0
1.7734432 -0.84969157 0.17204544 0
1.7882812 -0.85718453 0.24349497 0
1.6359881 -0.78453642 -0.22277717 0
1.7988218 -0.86300939 0.31599763 0
1.6578928 -0.79575276 -0.16088949 0
1.8283417 -0.87756449 0.39421138 0
1.6906127 -0.81182069 -0.098286942 0
1.8478956 -0.88774365 0.47329703 0
1.6923912 -0.81340182 -0.032775622 0
1.8785816 -0.90329272 0.55853152 0
1.7307327 -0.83517879 0.033543523 0
1.7517129 -0.84605688 0.10195045 0
1.7580583 -0.8495 0.17082524 0
1.7995747 -0.87033588 0.24544489 0
1.6421741 -0.79456532 -0.22399586 0
1.7957984 -0.8692832 0.31599763 0
1.6515187 -0.79979825 -0.16054088 0
1.8341024 -0.88821995 0.39611951 0
1.6913635 -0.81945866 -0.098496281 0
1.8553072 -0.89928865 0.47599643 0
1.6895416 -0.81930435 -0.032775622 0
1.8684646 -0.90647185 0.55646098 0
1.7206151 -0.8377136 0.033403907 0
1.7541353 -0.85479105 0.10226447 0
1.7549329 -0.85593796 0.17082524 0
1.7965257 -0.87661237 0.24544489 0
1.6393906 -0.80029261 -0.22399586 0
1.7998534 -0.87901407 0.31724915 0
1.6487169 -0.8055582 -0.16054088 0
1.8167241 -0.88803893 0.39306656 0
1.691937 -0.82740712 -0.09870562 0
1.8642519 -0.91207749 0.47914574 0
1.6956526 -0.82959104 -0.032950144 0
1.8635539 -0.91213912 0.55594331 0
1.7193279 -0.84489632 0.033438813 0
1.7493484 -0.86002779 0.1021598 0
1.7572975 -0.86469752 0.17134818 0
1.7754922 -0.87442046 0.2430075 0
1.6364464 -0.80629599 -0.22399586 0
1.8003179 -0.8870374 0.31787488 0
1.6548302 -0.81571287 -0.16141243 0
1.8136132 -0.89437503 0.39306656 0
1.681874 -0.82977343 -0.098286942 0
1.8575619 -0.91685432 0.47824594 0
1.7052985 -0.84170026 -0.033194479 0
1.872484 -0.92462599 0.5595668 0
1.7254757 -0.85503256 0.033613335 0
1.7373894 -0.86169177 0.10163644 0
1.7685454 -0.87791353 0.17274268 0
1.7725827 -0.88030338 0.2430075 0
1.6302081 -0.80995172 -0.2235084 0
1.8007486 -0.89507484 0.31850061 0
1.6573247 -0.82414573 -0.16193536 0
1.8141532 -0.90213257 0.39382979 0
1.6755368 -0.83356684 -0.098077588 0
1.8510221 -0.92127264 0.47734615 0
1.6987699 -0.84586513 -0.033124667 0
1.8727033 -0.93287939 0.56060207 0
1.7278464 -0.86373276 0.03371805 0
1.7361571 -0.86864483 0.10174111 0
1.7656244 -0.88377339 0.17274268 0
1.7765985 -0.89004201 0.24398245 0
1.6202723 -0.81207943 -0.22253343 0
1.7905499 -0.8978135 0.31724915 0
1.6581447 -0.83142322 -0.16228399 0
1.8215221 -0.91374135 0.39611951 0
1.676187 -0.84120226 -0.098286942 0
1.8460534 -0.92685384 0.47689623 0
1.6904461 -0.84909713 -0.033019952 0
1.8625307 -0.93594092 0.55853152 0
1.7230352 -0.86885846 0.033683144 0
1.7420295 -0.87919933 0.10226447 0
1.7518574 -0.88454312 0.17169681 0
1.7876545 -0.90340096 0.24593236 0
1.628057 -0.82310414 -0.22399586 0
1.7909303 -0.90584135 0.31787488 0
1.6338974 -0.82641512 -0.16019225 0
1.813066 -0.91743487 0.39497465 0
1.6803681 -0.85065633 -0.09870562 0
1.8445454 -0.93417263 0.47734615 0
1.6856883 -0.8540889 -0.03298505 0
1.85236 -0.93894291 0.55646098 0
1.7092978 -0.8694281 0.033473715 0
1.7408844 -0.88587707 0.10236914 0
1.7487592 -0.89065289 0.17169681 0
1.780953 -0.90783244 0.24544489 0
1.6357845 -0.83419311 -0.22545831 0
1.7879167 -0.91177517 0.31787488 0
1.6416514 -0.83754617 -0.16123812 0
1.8098526 -0.92375803 0.39497465 0
1.6809461 -0.85833341 -0.098914966 0
1.8482149 -0.94415164 0.47914574 0
1.6881891 -0.86240327 -0.033089764 0
1.8509566 -0.94595969 0.55697864 0
1.7081845 -0.87600404 0.033508621 0
1.7377815 -0.89194846 0.10236914 0
1.7527283 -0.90039325 0.17239405 0
1.7673392 -0.90828896 0.24398245 0
1.6330092 -0.83961296 -0.22545831 0
1.7952628 -0.92343205 0.3197521 0
1.6387178 -0.84327149 -0.16123812 0
1.7963052 -0.92436475 0.39268494 0
1.6638845 -0.85658938 -0.098077588 0
1.8485386 -0.95205992 0.48004553 0
1.6851685 -0.86829096 -0.033089764 0
1.8562287 -0.95684057 0.5595668 0
1.7157733 -0.88747358 0.03371805 0
1.7240155 -0.8924998 0.10174111 0
1.7568097 -0.90986574 0.17309129 0
1.764158 -0.91445261 0.24398245 0
1.6124461 -0.83616966 -0.22302091 0
1.7920284 -0.92969304 0.3197521 0
1.6465237 -0.85420614 -0.16228399 0
1.8035229 -0.9360559 0.39497465 0
1.6679746 -0.86607373 -0.098496281 0
1.8382868 -0.9549135 0.47824594 0
1.6892247 -0.87785637 -0.033229381 0
1.8614478 -0.96776986 0.56215501 0
1.710892 -0.89253253 0.033683144 0
1.7208896 -0.89851236 0.10174111 0
1.7536229 -0.91599262 0.17309129 0
1.7644736 -0.92244446 0.24446991 0
1.6130356 -0.84363306 -0.2235084 0
1.7817713 -0.93227959 0.31850061 0
1.6435319 -0.85994834 -0.16228399 0
1.8089414 -0.94689804 0.39688274 0
1.6720185 -0.875597 -0.098914966 0
1.833216 -0.96042013 0.47779605 0
1.6808367 -0.88096261 -0.033124667 0
1.8529257 -0.97157037 0.56060207 0
1.7095358 -0.89943027 0.03371805 0
1.721277 -0.90637493 0.10195045 0
1.7433639 -0.91839379 0.17239405 0
1.7752907 -0.93600458 0.24641983 0
1.6153481 -0.85203683 -0.2242396 0
1.7785062 -0.93849343 0.31850061 0
1.6369959 -0.86382037 -0.16193536 0
1.8056251 -0.95320672 0.39688274 0
1.6724842 -0.88329351 -0.099124312 0
1.8315754 -0.96772373 0.47824594 0
1.6777513 -0.88682443 -0.033124667 0
1.8426915 -0.97441995 0.55853152 0
1.7010866 -0.90258038 0.033613335 0
1.7322146 -0.91987163 0.10278783 0
1.7366284 -0.92260426 0.17204544 0
1.7755181 -0.94405973 0.24690731 0
1.6246324 -0.864196 -0.22594579 0
1.7839384 -0.94933575 0.32006493 0
1.6234175 -0.86391342 -0.16088949 0
1.7953547 -0.95581311 0.39535624 0
1.6764419 -0.89288181 -0.099542998 0
1.8350656 -0.97777671 0.48004553 0
1.6764102 -0.8936162 -0.033159573 0
1.8409836 -0.98175532 0.55904913 0
1.6963208 -0.90727335 0.033578429 0
1.7256328 -0.92372566 0.10257848 0
1.740585 -0.93212044 0.17274268 0
1.7653792 -0.94619137 0.24593236 0
1.6182587 -0.86770266 -0.22545831 0
1.7842623 -0.95711398 0.32069072 0
1.6344366 -0.87711185 -0.16228399 0
1.7887155 -0.95990479 0.39459303 0
1.6558748 -0.88898891 -0.098496281 0
1.8335299 -0.98477876 0.48049545 0
1.6787221 -0.90200996 -0.033264287 0
1.8445244 -0.99151361 0.56111974 0
1.7001834 -0.91698611 0.03371805 0
1.7136102 -0.92500007 0.10205512 0
1.7459216 -0.94322878 0.17361423 0
1.7550801 -0.9485724 0.24495739 0
1.6064888 -0.86862528 -0.2242396 0
1.7861226 -0.96615577 0.32162929 0
1.6383741 -0.88660485 -0.16298124 0
1.7938178 -0.97112781 0.39650109 0
1.6596304 -0.8988567 -0.098914966 0
1.8196278 -0.98592216 0.47779605 0
1.6755633 -0.90786427 -0.033264287 0
1.8427504 -0.99886674 0.56163734 0
1.7003243 -0.92512286 0.033787858 0
1.7121252 -0.9319309 0.1021598 0
1.7461177 -0.95122373 0.17396286 0
1.7585633 -0.95879972 0.24593236 0
1.6067799 -0.8764087 -0.22472709 0
1.7758025 -0.96860111 0.32037783 0
1.6387671 -0.89422703 -0.16332985 0
1.7990329 -0.9820869 0.39840919 0
1.6599884 -0.90655893 -0.099124312 0
1.8161751 -0.99226785 0.47779605 0
1.6653646 -0.90987247 -0.033124667 0
1.8443382 -1.0080727 0.56319028 0
1.6990005 -0.93171769 0.033822764 0
1.7123634 -0.93982357 0.10236914 0
1.7358015 -0.95347607 0.17326561 0
1.7623329 -0.96845019 0.24690731 0
1.6090835 -0.88460112 -0.22545831 0
1.7689488 -0.97288996 0.3197521 0
1.625162 -0.89417928 -0.16228399 0
1.7854459 -0.98236901 0.39611951 0
1.6604725 -0.91398495 -0.099333659 0
1.823117 -1.0039251 0.48049545 0
1.6639301 -0.91664499 -0.033159573 0
1.8357322 -1.0117071 0.56163734 0
1.6904877 -0.93473983 0.03371805 0
1.71781 -0.95063043 0.1028925 0
1.7256578 -0.95536685 0.17256837 0
1.7624146 -0.9765203 0.2473948 0
1.607722 -0.89117485 -0.22570205 0
1.7689972 -0.98097479 0.32037783 0
1.6291577 -0.90342855 -0.16298124 0
1.7785723 -0.9866904 0.39535624 0
1.6642573 -0.92365229 -0.099752344 0
1.8298239 -1.0159585 0.48319483 0
1.6747051 -0.93021566 -0.033438813 0
1.830501 -1.0171705 0.56111974 0
1.6907079 -0.94258249 0.033787858 0
1.7179695 -0.95856732 0.10310185 0
1.7327507 -0.96721131 0.17361423 0
1.7451311 -0.97492111 0.24544489 0
1.6046016 -0.89678144 -0.22570205 0
1.7759073 -0.99292785 0.32225505 0
1.6259941 -0.90910989 -0.16298124 0
1.7785443 -0.99480975 0.39611951 0
1.6470795 -0.92165369 -0.098914966 0
1.8194648 -1.018532 0.48139524 0
1.6819162 -0.94191837 -0.033648241 0
1.835366 -1.0282753 0.56370795 0
1.6891505 -0.9494583 0.033822764 0
1.7041687 -0.95868272 0.10247381 0
1.7363092 -0.97716242 0.17431147 0
1.7451766 -0.98295516 0.24593236 0
1.5962729 -0.89945358 -0.22497083 0
1.7689888 -0.99718076 0.32162929 0
1.631489 -0.91967201 -0.1638528 0
1.781901 -1.0048693 0.39764598 0
1.6490709 -0.93034154 -0.099228986 0
1.8125042 -1.0229613 0.48049545 0
1.6768768 -0.94680041 -0.033613335 0
1.8418578 -1.0403762 0.56681371 0
1.6893057 -0.95732051 0.033892576 0
1.7008117 -0.9646256 0.10247381 0
1.7311548 -0.98223418 0.17413718 0
1.745187 -0.99100143 0.24641983 0
1.5931237 -0.90502012 -0.22497083 0
1.76378 -1.0023736 0.32131645 0
1.6196078 -0.92043912 -0.16298124 0
1.7852094 -1.0149645 0.39917243 0
1.6510215 -0.93905449 -0.099542998 0
1.8123097 -1.0312093 0.48139524 0
1.6579208 -0.94374478 -0.033299193 0
1.8315001 -1.0429753 0.56474322 0
1.6894262 -0.96519548 0.033962384 0
1.7078373 -0.97650504 0.10310185 0
1.7225271 -0.98530322 0.17361423 0
1.7554991 -1.0049771 0.24836974 0
1.5916774 -0.9115622 -0.22521456 0
1.7551283 -1.0055783 0.32037783 0
1.6094699 -0.92212516 -0.16228399 0
1.7850624 -1.0231425 0.39993569 0
1.6511989 -0.94679898 -0.099752344 0
1.8120798 -1.0394686 0.48229504 0
1.6563509 -0.95052153 -0.033334095 0
1.8228221 -1.0464765 0.56319028 0
1.6825811 -0.96909064 0.033892576 0
1.7096094 -0.98545271 0.10341586 0
1.7156254 -0.98931938 0.17326561 0
1.7485421 -1.0091145 0.24788228 0
1.6022389 -0.92505306 -0.22716448 0
1.7618707 -1.0176266 0.32225505 0
1.6062413 -0.92773771 -0.16228399 0
1.7746804 -1.0254383 0.39840919 0
1.649613 -0.95355642 -0.099857017 0
1.8135014 -1.0487142 0.48364475 0
1.6634084 -0.96230567 -0.033543523 0
1.8191582 -1.0528331 0.56319028 0
1.6757294 -0.97294992 0.033822764 0
1.7063321 -0.99111652 0.10341586 0
1.7207742 -1.0003086 0.17413718 0
1.7415774 -1.0132153 0.2473948 0
1.593853 -0.92764461 -0.22643325 0
1.7670228 -1.0284319 0.3238194 0
1.6098803 -0.93734896 -0.16298124 0
1.7710901 -1.0316268 0.39840919 0
1.6341947 -0.95226997 -0.099124312 0
1.8131967 -1.057001 0.48454455 0
1.6688459 -0.97285187 -0.03371805 0
1.8189943 -1.0608062 0.56422555 0
1.6828496 -0.98456043 0.034032192 0
1.6976916 -0.99403918 0.10310185 0
1.7241478 -1.0103384 0.17483442 0
1.7382078 -1.018985 0.2473948 0
1.5873435 -0.93091637 -0.22594579 0
1.7617183 -1.033594 0.3235065 0
1.6134716 -0.94699675 -0.16367848 0
1.7744322 -1.0414695 0.39993569 0
1.6379173 -0.96172899 -0.099542998 0
1.80128 -1.0580729 0.48229504 0
1.6688881 -0.98069757 -0.033787858 0
1.8219419 -1.0710652 0.5662961 0
1.6828476 -0.99246019 0.034102004 0
1.6907712 -0.99792874 0.1028925 0
1.7207879 -1.0160502 0.17483442 0
1.7380583 -1.027066 0.24788228 0
1.5875019 -0.93847203 -0.22643325 0
1.7512985 -1.035715 0.32225505 0
1.6103225 -0.95234197 -0.16367848 0
1.7775445 -1.0516557 0.40146214 0
1.636269 -0.9684577 -0.099647671 0
1.7992526 -1.0653471 0.48274496 0
1.6516904 -0.97836399 -0.033508621 0
1.8248399 -1.0813578 0.56836665 0
1.679373 -0.99832845 0.034102004 0
1.6941434 -1.0079094 0.10331119 0
1.7086704 -1.0169559 0.17396286 0
1.7412843 -1.03719 0.24885722 0
1.5910375 -0.94807237 -0.22740822 0
1.7476727 -1.041822 0.32225505 0
1.6035656 -0.95591694 -0.16332985 0
1.7704904 -1.055843 0.40069893 0
1.6448848 -0.98132652 -0.10038038 0
1.8005431 -1.0746173 0.48409468 0
1.6465484 -0.98309851 -0.033473715 0
1.8144201 -1.0837586 0.5662961 0
1.6690167 -1.0000732 0.033962384 0
1.7026049 -1.0210071 0.10404389 0
1.7068187 -1.023939 0.17413718 0
1.7444608 -1.0473493 0.24983218 0
1.5894202 -0.95464247 -0.22765194 0
1.7524915 -1.0530032 0.3238194 0
1.5933877 -0.95740396 -0.16263261 0
1.766794 -1.0620167 0.40069893 0
1.6363145 -0.98397446 -0.10006636 0
1.8034605 -1.084914 0.48589426 0
1.6482468 -0.99193341 -0.033578429 0
1.8089709 -1.089089 0.56577843 0
1.6620922 -1.0038253 0.033892576 0
1.6956121 -1.0248778 0.10383455 0
1.7117586 -1.0350451 0.17500873 0
1.7221127 -1.042127 0.24715105 0
1.5860782 -0.96018475 -0.22765194 0
1.7521844 -1.0611606 0.32444513 0
1.6036699 -0.97121704 -0.16402711 0
1.7597181 -1.0661429 0.39993569 0
1.6243297 -0.98450416 -0.099542998 0
1.8029951 -1.0932232 0.48679405 0
1.6567423 -1.0049404 -0.033822764 0
1.8068099 -1.0963992 0.5662961 0
1.6619943 -1.0117006 0.033962384 0
1.6869072 -1.027673 0.10352053 0
1.7098365 -1.0420508 0.17518303 0
1.7184645 -1.0481319 0.24715105 0
1.5776333 -0.96261346 -0.22692074 0
1.7518418 -1.0693288 0.32507086 0
1.6002699 -0.97680897 -0.16402711 0
1.7610122 -1.0753484 0.40108052 0
1.6208832 -0.99016809 -0.099542998 0
1.7925167 -1.0954456 0.48499447 0
1.6583428 -1.0138465 -0.033927478 0
1.8145083 -1.109755 0.56991959 0
1.666975 -1.0227244 0.034136906 0
1.6799057 -1.0314651 0.10331119 0
1.7078865 -1.0490557 0.17535736 0
1.7232507 -1.0593219 0.24836974 0
1.5742635 -0.96811467 -0.22692074 0
1.7363212 -1.0681919 0.32288077 0
1.6019415 -0.98552096 -0.16455004 0
1.7706236 -1.0897208 0.40413347 0
1.6276215 -1.0021027 -0.10017103 0
1.7903411 -1.1027178 0.48544434 0
1.6445788 -1.0133351 -0.03371805 0
1.8139124 -1.1181096 0.57095486 0
1.6650957 -1.0295888 0.034171812 0
1.68139 -1.0404757 0.10362521 0
1.700826 -1.0529137 0.17500873 0
1.7246052 -1.0684673 0.24910097 0
1.579311 -0.97883272 -0.22813943 0
1.732582 -1.0742463 0.32288077 0
1.5917184 -0.98690718 -0.1638528 0
1.766809 -1.0958951 0.40413347 0
1.6275078 -1.0098844 -0.10038038 0
1.7881368 -1.1099885 0.48589426 0
1.6410316 -1.0190694 -0.03371805 0
1.8034345 -1.1203567 0.56888431 0
1.6547031 -1.0311643 0.034032192 0
1.6845266 -1.0505661 0.10404389 0
1.6954499 -1.0577896 0.17483442 0
1.7225486 -1.075532 0.24934469 0
1.5775682 -0.98539126 -0.22838317 0
1.7388728 -1.0865684 0.32475799 0
1.5848843 -0.9903456 -0.16350417 0
1.7529845 -1.0958117 0.40184379 0
1.629053 -1.0187361 -0.1006944 0
1.7941639 -1.1224246 0.4885937 0
1.6391596 -1.0258524 -0.033752955 0
1.7946005 -1.1235697 0.56733137 0
1.6510935 -1.0369343 0.034032192 0
1.6909951 -1.0628166 0.10467192 0
1.7001806 -1.0690041 0.17570597 0
1.707023 -1.0741377 0.24763852 0
1.5757989 -0.99194938 -0.22862691 0
1.7484416 -1.1010525 0.32726091 0
1.5814176 -0.9958719 -0.16350417 0
1.7491487 -1.1019242 0.40184379 0
1.620418 -1.0212216 -0.10038038 0
1.7984774 -1.133877 0.49084321 0
1.6423342 -1.035835 -0.033892576 0
1.7988368 -1.1349815 0.56991959 0
1.659292 -1.0501771 0.034276526 0
1.6737767 -1.0601633 0.10383455 0
1.7048535 -1.0802643 0.17657752 0
1.709969 -1.0843422 0.24861349 0
1.5656217 -0.99319047 -0.22765194 0
1.7412519 -1.1050318 0.32663518 0
1.5913898 -1.0099264 -0.16489866 0
1.7519215 -1.1122321 0.40337023 0
1.6134713 -1.0247302 -0.10017103 0
1.7797048 -1.1307427 0.48679405 0
1.6471468 -1.0469247 -0.034067098 0
1.8030149 -1.1464363 0.57250774 0
1.655616 -1.0559628 0.034276526 0
1.6700658 -1.0659993 0.10383455 0
1.7010725 -1.0862085 0.17657752 0
1.714537 -1.095649 0.24983218 0
1.5621452 -0.99864954 -0.22765194 0
1.7307273 -1.1068462 0.32538372 0
1.5878546 -1.0154753 -0.16489866 0
1.757951 -1.124689 0.40565994 0
1.6166135 -1.0346627 -0.10058971 0
1.7790295 -1.1390498 0.48769391 0
1.6199077 -1.0375683 -0.033578429 0
1.803882 -1.1558498 0.57406068 0
1.6552842 -1.063898 0.034346335 0
1.6680144 -1.0729028 0.10393922 0
1.6821911 -1.0824368 0.17500873 0
1.7223852 -1.1091506 0.25153834 0
1.5653249 -1.0083965 -0.22862691 0
1.7235326 -1.1107408 0.32475799 0
1.580951 -1.0188533 -0.16455004 0
1.7540144 -1.1308185 0.40565994 0
1.6180273 -1.0435469 -0.10090373 0
1.7799549 -1.1484221 0.48904356 0
1.6196363 -1.0453855 -0.033648241 0
1.7917216 -1.1568999 0.57147247 0
1.64149 -1.0631472 0.034136906 0
1.6761806 -1.0860305 0.10467192 0
1.6817458 -1.09047 0.17535736 0
1.7118418 -1.1108336 0.25056338 0
1.5684556 -1.0181777 -0.22960186 0
1.7281241 -1.1218281 0.32632235 0
1.5757138 -1.0232805 -0.16437572 0
1.7401785 -1.1305169 0.40337023 0
1.6177241 -1.0513654 -0.10111307 0
1.7808367 -1.1578151 0.49039328 0
1.6195138 -1.0529306 -0.03371805 0
1.7846363 -1.1607286 0.57043719 0
1.6379554 -1.0685846 0.034136906 0
1.6707071 -1.090783 0.10456725 0
1.6862688 -1.1017829 0.17622891 0
1.6981791 -1.1099877 0.24910097 0
1.5683935 -1.0255463 -0.23008935 0
1.7324631 -1.1332603 0.3278867 0
1.5737995 -1.0298655 -0.16455004 0
1.7364199 -1.1362813 0.40337023 0
1.6042025 -1.0501605 -0.10048504 0
1.7786179 -1.1647818 0.49084321 0
1.6292101 -1.067344 -0.033997286 0
1.7934998 -1.1754223 0.57457829 0
1.6475834 -1.0830833 0.034416147 0
1.6635523 -1.0944129 0.10435791 0
1.6975849 -1.1172265 0.17779772 0
1.6959518 -1.1170005 0.24934469 0
1.5565159 -1.0255538 -0.22887065 0
1.7317954 -1.141475 0.32851243 0
1.5770299 -1.0394647 -0.16524729 0
1.742277 -1.14882 0.40565994 0
1.6038615 -1.0579535 -0.1006944 0
1.7729145 -1.16991 0.49039328 0
1.6204679 -1.0697194 -0.033892576 0
1.7893859 -1.1816758 0.57457829 0
1.6421254 -1.0877236 0.034381241 0
1.6580571 -1.0991095 0.10425323 0
1.6853722 -1.1176398 0.17692617 0
1.7003126 -1.1284022 0.25056338 0
1.5545805 -1.0320786 -0.22911438 0
1.7179271 -1.1409558 0.32663518 0
1.5767112 -1.0471678 -0.1655959 0
1.7447971 -1.1592404 0.40718642 0
1.6068121 -1.0679678 -0.10111307 0
1.7639517 -1.1728543 0.48904356 0
1.6083988 -1.069832 -0.03371805 0
1.7900753 -1.1911254 0.57613122 0
1.6466349 -1.0989996 0.034555767 0
1.6660305 -1.1123649 0.10498594 0
1.683117 -1.1246229 0.17710046 0
1.7095647 -1.143158 0.25251329 0
1.5544497 -1.039435 -0.22960186 0
1.7092084 -1.1433514 0.32569659 0
1.5664228 -1.0482329 -0.16489866 0
1.7440028 -1.1675081 0.40794963 0
1.608053 -1.0769041 -0.10142709 0
1.7681485 -1.1841191 0.49129307 0
1.608165 -1.0773857 -0.033787858 0
1.781301 -1.1938282 0.57457829 0
1.6280453 -1.0944136 0.034241624 0
1.6656475 -1.1201127 0.10519528 0
1.6727668 -1.1257485 0.17640322 0
1.7024715 -1.146603 0.25202581 0
1.5641663 -1.0534554 -0.23155177 0
1.7185135 -1.1578431 0.32819954 0
1.5596339 -1.0511944 -0.16455004 0
1.730355 -1.1666998 0.40565994 0
1.604473 -1.0822307 -0.10142709 0
1.7690589 -1.1932453 0.49264279 0
1.6145291 -1.0894237 -0.033997286 0
1.7757314 -1.1986481 0.57406068 0
1.6260629 -1.1009274 0.034276526 0
1.6617273 -1.1259201 0.10519528 0
1.6723229 -1.1335253 0.17675185 0
1.6920887 -1.1477849 0.25105089 0
1.5539091 -1.0544503 -0.23057681 0
1.725902 -1.1716012 0.33038962 0
1.572624 -1.0675509 -0.16629316 0
1.7264766 -1.1724315 0.40565994 0
1.592615 -1.0819336 -0.10090373 0
1.7729417 -1.2048899 0.4948923 0
1.6173314 -1.09955 -0.034136906 0
1.7763287 -1.2080983 0.57561362 0
1.6370776 -1.1167386 0.034590669 0
1.6544878 -1.1294616 0.10498594 0
1.6880997 -1.1528393 0.17884357 0
1.6880718 -1.1536844 0.25105089 0
1.5436639 -1.0553865 -0.22960186 0
1.7201713 -1.1765034 0.33007675 0
1.5688879 -1.0730339 -0.16629316 0
1.7353358 -1.1873198 0.40871289 0
1.5855323 -1.0852301 -0.1006944 0
1.7590777 -1.2044655 0.49219292 0
1.6167829 -1.1074489 -0.034206714 0
1.7768816 -1.2175673 0.5771665 0
1.6381134 -1.1258441 0.034695383 0
1.6455984 -1.1318345 0.10467192 0
1.6807827 -1.156466 0.17849496 0
1.6889392 -1.1629471 0.25178206 0
1.5448749 -1.0641468 -0.23033307 0
1.7062945 -1.1757756 0.32819954 0
1.5682254 -1.0810384 -0.16664177 0
1.7344137 -1.1955984 0.40947613 0
1.5948881 -1.0998288 -0.10153177 0
1.7548625 -1.2105986 0.49219292 0
1.6030325 -1.1062709 -0.033997286 0
1.7789801 -1.2281529 0.57923704 0
1.6308854 -1.1292787 0.034625575 0
1.6547709 -1.1466724 0.1055093 0
1.6617976 -1.1524004 0.17692617 0
1.6962868 -1.176756 0.25348827 0
1.5444126 -1.0717964 -0.23082055 0
1.7070479 -1.1851041 0.32913816 0
1.5578964 -1.0819598 -0.16594453 0
1.7348566 -1.205308 0.41062099 0
1.6023268 -1.1136459 -0.10226447 0
1.7600137 -1.2236969 0.4948923 0
1.6024449 -1.114143 -0.034067098 0
1.7683381 -1.2299427 0.5771665 0
1.6185362 -1.1295265 0.034451049 0
1.6571069 -1.1573042 0.10592799 0
