# .PCD v0.7 - Point Cloud Data file format
VERSION 0.7
FIELDS x y z rgba
SIZE 4 4 4 4
TYPE F F F U
COUNT 1 1 1 1
WIDTH 734
HEIGHT 1
VIEWPOINT 0 0 0 1 0 0 0
POINTS 734
DATA ascii
3.3698118 -1.6268544 0.72736394 0
3.2921591 -1.5978764 0.063875809 0
3.2947767 -1.6005683 0.19196831 0
3.3258882 -1.6163994 0.32352212 0
3.3824654 -1.6490079 0.868761 0
3.2747068 -1.5971813 -0.063596569 0
3.291949 -1.6119969 0.06398052 0
3.3220146 -1.6288763 0.32369643 0
3.346704 -1.6424316 0.45774129 0
3.352803 -1.6468772 0.59163523 0
3.3795161 -1.6607307 0.73194337 0
3.3906782 -1.6676854 0.87236023 0
3.2583463 -1.6033051 -0.063387141 0
3.2701669 -1.6155069 0.063666381 0
3.3014259 -1.6323833 0.19301502 0
3.3145227 -1.6395789 0.32352212 0
3.3373923 -1.6523421 0.45725381 0
3.3417242 -1.6559393 0.59069663 0
3.3613861 -1.6664133 0.72927201 0
3.3813446 -1.6777786 0.87146038 0
3.2401919 -1.6084452 -0.063142806 0
3.2734563 -1.6313717 0.063840903 0
3.2959948 -1.6433223 0.19301502 0
3.3087792 -1.6511388 0.32352212 0
3.3280525 -1.6622077 0.45676634 0
3.3379817 -1.6678947 0.5910095 0
3.3450129 -1.6728677 0.7269823 0
3.3879621 -1.6950861 0.87460971 0
3.2437813 -1.6236566 -0.063317336 0
3.2519474 -1.634137 0.063526757 0
3.2833891 -1.6506547 0.19259633 0
3.308625 -1.6647886 0.32404503 0
3.3189766 -1.6714492 0.45627886 0
3.3430169 -1.6842875 0.59288669 0
3.342953 -1.6857188 0.72774553 0
3.387542 -1.7089448 0.87595946 0
3.2401643 -1.6353053 -0.063352235 0
3.2572131 -1.6503347 0.063736185 0
3.2633572 -1.6548793 0.19175896 0
3.3084166 -1.6784556 0.32456797 0
3.3134155 -1.6824461 0.45627886 0
3.3318343 -1.6932617 0.59194809 0
3.3338447 -1.6950157 0.7269823 0
3.3659246 -1.7128049 0.87191027 0
3.2397826 -1.6493274 -0.063456953 0
3.2585552 -1.6653345 0.063875809 0
3.2557824 -1.665351 0.19165429 0
3.3025377 -1.6899937 0.32456797 0
3.3075225 -1.6940019 0.45627886 0
3.315356 -1.699475 0.59007084 0
3.3453767 -1.7156013 0.73079848 0
3.3599253 -1.7245438 0.87191027 0
3.2215533 -1.6542321 -0.063212618 0
3.2491674 -1.6748663 0.063805997 0
3.267699 -1.6858629 0.19270101 0
3.284225 -1.695115 0.32334781 0
3.3192255 -1.7146478 0.45871624 0
3.3094037 -1.7110376 0.59007084 0
3.3289051 -1.7218565 0.72850877 0
3.3573463 -1.7380533 0.87281007 0
3.2157593 -1.6654674 -0.063212618 0
3.2379787 -1.6834307 0.063701279 0
3.263566 -1.6981812 0.19280569 0
3.2818224 -1.7084086 0.32369643 0
3.2956157 -1.7170513 0.45627886 0
3.3121686 -1.7271458 0.59163523 0
3.315912 -1.7298341 0.7269823 0
3.3581688 -1.75337 0.87460971 0
3.2152436 -1.6794599 -0.063317336 0
3.2303116 -1.6937945 0.063666381 0
3.2579167 -1.7089942 0.19280569 0
3.2846591 -1.7244847 0.32456797 0
3.2825727 -1.7248511 0.45530388 0
3.3169141 -1.7436348 0.59351242 0
3.3115909 -1.7423123 0.72736394 0
3.3451307 -1.7614495 0.87281007 0
3.2185035 -1.6947713 -0.063491859 0
3.2282128 -1.7063661 0.063736185 0
3.2378078 -1.7128842 0.19196831 0
3.2715764 -1.7322105 0.32387072 0
3.2838516 -1.7394439 0.45627886 0
3.3073168 -1.7533519 0.59288669 0
3.3144672 -1.7578837 0.72927201 0
3.3341074 -1.7697916 0.87146038 0
3.2037377 -1.7013062 -0.063317336 0
3.2292953 -1.7213869 0.063875809 0
3.221236 -1.7185351 0.19134027 0
3.2658143 -1.74305 0.32387072 0
3.2865148 -1.7555724 0.45749757 0
3.2872398 -1.7574352 0.59038377 0
3.3149259 -1.7737248 0.73079848 0
3.3347816 -1.7850977 0.87326002 0
3.1924906 -1.7096469 -0.063212618 0
3.2176809 -1.73037 0.063771099 0
3.2448137 -1.7464217 0.19311969 0
3.2541411 -1.7521744 0.32334781 0
3.2818055 -1.7685481 0.45774129 0
3.2842538 -1.7713472 0.5910095 0
3.3049476 -1.7839978 0.73003525 0
3.3265016 -1.7963824 0.87281007 0
3.1862032 -1.7213365 -0.063212618 0
3.2060442 -1.7392912 0.063666381 0
3.2366357 -1.75735 0.19301502 0
3.2459462 -1.7631387 0.32317349 0
3.2718132 -1.7786683 0.45725381 0
3.2812097 -1.7852607 0.59163523 0
3.2880414 -1.7904656 0.72774553 0
3.3284519 -1.8132238 0.8750596 0
3.1851404 -1.7358739 -0.063317336 0
3.190877 -1.74623 0.063491859 0
3.2301729 -1.7692008 0.19301502 0
3.2464511 -1.7788533 0.32387072 0
3.2600508 -1.7877847 0.45652261 0
3.2850347 -1.8029777 0.59351242 0
3.2814567 -1.8025048 0.72774553 0
3.3217835 -1.825411 0.8750596 0
3.1822615 -1.7494628 -0.063387141 0
3.1979411 -1.7624463 0.063736185 0
3.2126675 -1.7720249 0.19228233 0
3.2481368 -1.7923282 0.32456797 0
3.2495186 -1.7945707 0.45579138 0
3.2796707 -1.8127167 0.59351242 0
3.2867191 -1.8173615 0.73003525 0
3.3044176 -1.8286538 0.87191027 0
3.1770566 -1.7588971 -0.063387141 0
3.1952653 -1.7755412 0.063805997 0
3.2099535 -1.7851697 0.19249167 0
3.2366374 -1.8007495 0.32404503 0
3.2553751 -1.8126627 0.45749757 0
3.2629697 -1.8183841 0.59163523 0
3.2820702 -1.829779 0.73041683 0
3.2946107 -1.8382783 0.87101048 0
3.1551828 -1.7612046 -0.063072994 0
3.1925371 -1.7886387 0.063875809 0
3.2089286 -1.7992942 0.19280569 0
3.2251189 -1.8091122 0.32352212 0
3.2507589 -1.8249868 0.45774129 0
3.2600472 -1.8316984 0.59226096 0
3.2790859 -1.8431486 0.73118013 0
3.2966661 -1.8545446 0.87326002 0
3.1559865 -1.7761303 -0.063212618 0
3.1793096 -1.7958379 0.063736185 0
3.209583 -1.8144159 0.19322437 0
3.2219346 -1.822883 0.32387072 0
3.2443686 -1.836323 0.45774129 0
3.257071 -1.8450139 0.59288669 0
3.2620609 -1.8493451 0.72889042 0
3.3000162 -1.8723853 0.87595946 0
3.1549852 -1.7900966 -0.063317336 0
3.1692312 -1.805499 0.063666381 0
3.2049654 -1.8265975 0.19332905 0
3.2190135 -1.8360927 0.32421938 0
3.2289965 -1.8432814 0.45652261 0
3.2557569 -1.8593109 0.59382528 0
3.2538812 -1.8597462 0.72850877 0
3.2883854 -1.8809901 0.87460971 0
3.1521888 -1.8030843 -0.063387141 0
3.1701634 -1.819981 0.063805997 0
3.1881793 -1.8318036 0.19270101 0
3.2074032 -1.8443385 0.32369643 0
3.229749 -1.8579382 0.45749757 0
3.2458231 -1.868693 0.59319955 0
3.2528 -1.8734658 0.7296536 0
3.2719998 -1.8860455 0.87191027 0
3.1528051 -1.8180723 -0.063526757 0
3.1655219 -1.8320376 0.063840903 0
3.185544 -1.8443675 0.19291034 0
3.2202322 -1.8659524 0.32561383 0
3.2249613 -1.8701967 0.45774129 0
3.2327735 -1.8754812 0.59194809 0
3.253032 -1.888752 0.73118013 0
3.2603414 -1.8945183 0.87056059 0
3.1381135 -1.8234942 -0.063352235 0
3.1646116 -1.845547 0.063945621 0
3.1859865 -1.859503 0.19332905 0
3.2033768 -1.8711524 0.32456797 0
3.2187417 -1.8808807 0.45774129 0
3.2262073 -1.8867542 0.59194809 0
3.2450559 -1.8985378 0.73079848 0
3.2590864 -1.9082732 0.87191027 0
3.133455 -1.8354477 -0.063387141 0
3.1512544 -1.8525283 0.063805997 0
3.176033 -1.8685873 0.19311969 0
3.2023053 -1.8847966 0.32509091 0
3.2155771 -1.8941199 0.45822877 0
3.2264085 -1.9020171 0.59319955 0
3.238409 -1.9098533 0.73079848 0
3.2540834 -1.9206285 0.87236023 0
3.1270289 -1.8463743 -0.063387141 0
3.144769 -1.863517 0.063805997 0
3.1780806 -1.8847564 0.19364306 0
3.1974201 -1.8969797 0.32526523 0
3.195291 -1.897225 0.45627886 0
3.223146 -1.9152858 0.59382528 0
3.2283478 -1.9191396 0.73003525 0
3.2440097 -1.929983 0.87146038 0
3.1343119 -1.8654604 -0.063666381 0
3.145112 -1.8785847 0.063945621 0
3.1543391 -1.8855906 0.19259633 0
3.1856489 -1.9050616 0.32474229 0
3.1920555 -1.9104059 0.45676634 0
3.2181351 -1.9275402 0.59413815 0
3.2233131 -1.931406 0.73041683 0
3.2339106 -1.9392905 0.87056059 0
3.1277812 -1.8763897 -0.063666381 0
3.1436746 -1.892646 0.064050332 0
3.1408949 -1.8924667 0.19217765 0
3.1926308 -1.9243983 0.32613677 0
3.1955662 -1.9276887 0.45822877 0
3.2012408 -1.9326363 0.59226096 0
3.2249544 -1.9477204 0.73232496 0
3.2254539 -1.9495591 0.87011069 0
3.1075227 -1.8790187 -0.063387141 0
3.1387584 -1.9046454 0.064085238 0
3.1564627 -1.9168963 0.19353838 0
3.1722717 -1.927255 0.32474229 0
3.1854258 -1.936769 0.45774129 0
3.1944752 -1.943799 0.59226096 0
3.2181361 -1.9589659 0.73232496 0
3.2369354 -1.9719586 0.8750596 0
3.0941143 -1.8856916 -0.063247517 0
3.1218553 -1.9093298 0.063875809 0
3.1582694 -1.9331161 0.19406174 0
3.1672242 -1.9393569 0.3249166 0
3.1888008 -1.9540997 0.45920372 0
3.1977742 -1.9611341 0.59413815 0
3.2012379 -1.964027 0.73003525 0
3.2333539 -1.9852849 0.87595946 0
3.1062565 -1.9079936 -0.063631475 0
3.1151714 -1.9202157 0.063875809 0
3.1382415 -1.9351921 0.19322437 0
3.1536534 -1.9462155 0.32421938 0
3.1752048 -1.9610462 0.45822877 0
3.1962945 -1.9748425 0.5950768 0
3.1926925 -1.9741572 0.7296536 0
3.2264042 -1.9965595 0.87595946 0
3.1050136 -1.9214407 -0.063736185 0
3.113883 -1.9337 0.06398052 0
3.1331639 -1.9471892 0.19332905 0
3.163759 -1.9677348 0.32596248 0
3.1720552 -1.9736624 0.45871624 0
3.186028 -1.9838991 0.59445107 0
3.1961269 -1.990962 0.73194337 0
3.2131505 -2.0031238 0.87415981 0
3.0898037 -1.9269764 -0.063561663 0
3.1138947 -1.9488014 0.064120144 0
3.124655 -1.9570538 0.19322437 0
3.1589048 -1.9792731 0.32613677 0
3.1617827 -1.9826137 0.45822877 0
3.1723907 -1.9908085 0.59319955 0
3.1924832 -2.004194 0.73270655 0
3.2061388 -2.0143275 0.87415981 0
3.0712073 -1.9303013 -0.063317336 0
3.1070731 -1.959659 0.064120144 0
3.1245606 -1.9722133 0.19364306 0
3.1401837 -1.9828413 0.3249166 0
3.1649115 -2.0000007 0.4596912 0
3.1721003 -2.0060933 0.59445107 0
3.1854677 -2.0153258 0.73270655 0
3.2040274 -2.0286343 0.8755095 0
3.0745864 -1.9474303 -0.063526757 0
3.0900879 -1.9640565 0.063910715 0
3.1210275 -1.9852519 0.19385241 0
3.1332436 -1.9937904 0.3249166 0
3.1545622 -2.0089035 0.45920372 0
3.1684098 -2.0192771 0.5950768 0
3.1734471 -2.0232663 0.73156172 0
3.2018552 -2.0429506 0.87685925 0
3.0660841 -1.9570748 -0.063491859 0
3.0798452 -1.9726741 0.063840903 0
3.1107156 -1.9939786 0.19364306 0
3.1326227 -2.0095642 0.32561383 0
3.1475306 -2.0199029 0.45920372 0
3.1679904 -2.0345945 0.59632826 0
3.1627069 -2.0327613 0.73079848 0
3.1943457 -2.0546722 0.87685925 0
3.0676432 -1.9731743 -0.063666381 0
3.0877137 -1.9937115 0.064155042 0
3.1020589 -2.003741 0.19353838 0
3.1289356 -2.0226502 0.32596248 0
3.1367726 -2.029269 0.45871624 0
3.1575522 -2.043494 0.59570253 0
3.1638312 -2.0491252 0.73270655 0
3.180613 -2.0615704 0.8750596 0
3.0624149 -1.9849583 -0.063701279 0
3.0810852 -2.0039399 0.064155042 0
3.0983934 -2.0167363 0.19374773 0
3.1285336 -2.0379097 0.32665971 0
3.1333523 -2.0418274 0.45920372 0
3.1470904 -2.0523455 0.5950768 0
3.1619515 -2.0628235 0.73385143 0
3.1770227 -2.0742371 0.87595946 0
3.0470963 -1.9901683 -0.063526757 0
3.0774164 -2.0168746 0.064224854 0
3.0983698 -2.0313802 0.19416642 0
3.1100976 -2.040622 0.32543954 0
3.1328435 -2.0571108 0.4601787 0
3.1369658 -2.0606012 0.59445107 0
3.1530914 -2.0727696 0.73346978 0
3.1811593 -2.0928116 0.87910873 0
3.0488329 -2.0057573 -0.063701279 0
3.0640361 -2.0226619 0.064085238 0
3.0945928 -2.044385 0.19437577 0
3.099632 -2.0492682 0.32509091 0
3.1293161 -2.0696785 0.46066615 0
3.1330478 -2.0737193 0.5950768 0
3.1412899 -2.0799627 0.73232496 0
3.1758258 -2.1044254 0.87955862 0
3.0434794 -2.0174923 -0.063736185 0
3.0499427 -2.0294478 0.063945621 0
3.0874379 -2.0551748 0.19437577 0
3.089143 -2.0578663 0.32474229 0
3.1117988 -2.0745275 0.45920372 0
3.1372941 -2.0923152 0.59726685 0
3.1336451 -2.0914621 0.73232496 0
3.1700816 -2.1165802 0.88000852 0
3.0380816 -2.0292141 -0.063771099 0
3.0465183 -2.0417771 0.064015426 0
3.0772879 -2.0631773 0.19416642 0
3.0955381 -2.0769796 0.32613677 0
3.1098466 -2.088155 0.45993495 0
3.1270592 -2.1005042 0.59664112 0
3.129951 -2.104033 0.7330882 0
3.1501086 -2.1183815 0.87640929 0
3.0363133 -2.0426264 -0.063875809 0
3.0596201 -2.065294 0.064434282 0
3.071722 -2.0750244 0.19427109 0
3.0985382 -2.0939269 0.32718265 0
3.1045494 -2.0995681 0.4601787 0
3.1148002 -2.1080856 0.59570253 0
3.1294591 -2.118803 0.73461467 0
3.1475346 -2.1326439 0.87775904 0
3.0175776 -2.0453589 -0.063631475 0
3.0556991 -2.0782106 0.064504094 0
3.0710649 -2.0902293 0.19468978 0
3.0846229 -2.100245 0.32648543 0
3.1070442 -2.1170988 0.4616411 0
3.1057906 -2.1178327 0.59538966 0
3.1285317 -2.1341395 0.73614115 0
3.1448996 -2.1469142 0.87910873 0
3.0137224 -2.0581353 -0.063701279 0
3.0401783 -2.0832124 0.064329572 0
3.0703387 -2.1054544 0.19510846 0
3.0805585 -2.1132536 0.32683402 0
3.0996354 -2.1279314 0.4616411 0
3.1065199 -2.1342537 0.59695399 0
3.1113551 -2.138375 0.73385143 0
3.1438086 -2.1622961 0.88090831 0
3.0164044 -2.0754433 -0.063910715 0
3.0279512 -2.0904038 0.064224854 0
3.0563977 -2.1116183 0.19468978 0
3.0780804 -2.1273921 0.32735696 0
3.0856581 -2.1342216 0.46066615 0
3.1071723 -2.1507058 0.59851831 0
3.1071 -2.151458 0.73461467 0
3.1394453 -2.1754766 0.8818081 0
3.0124283 -2.0882385 -0.06398052 0
3.0337689 -2.1100953 0.064504094 0
3.0457294 -2.119992 0.19448043 0
3.0755408 -2.1415391 0.32787988 0
3.0684175 -2.1381698 0.45920372 0
3.0996459 -2.1615386 0.59851831 0
3.1027913 -2.1645372 0.73537791 0
3.123843 -2.1808443 0.87955862 0
3.0083992 -2.1010311 -0.064050332 0
3.0296605 -2.1229677 0.064573906 0
3.0383108 -2.1306107 0.19448043 0
3.0664155 -2.1511176 0.32770559 0
3.0804317 -2.162555 0.46212861 0
3.0823836 -2.1655321 0.59664112 0
3.1016419 -2.1798704 0.73690438 0
3.1209931 -2.1950986 0.88090831 0
2.9928696 -2.1057663 -0.063875809 0
3.0222316 -2.1335299 0.064573906 0
3.0373802 -2.1458132 0.19489913 0
3.0572608 -2.1606581 0.32753128 0
3.0777261 -2.1767333 0.46285981 0
3.0812554 -2.1808431 0.59789258 0
3.0940137 -2.1906838 0.73690438 0
3.1133118 -2.2059796 0.88090831 0
2.980607 -2.1127312 -0.063771099 0
3.0115061 -2.1417484 0.064504094 0
3.0396345 -2.1633511 0.19552715 0
3.0464542 -2.1690059 0.32718265 0
3.0717258 -2.1886151 0.46310353 0
3.0704072 -2.1892915 0.59726685 0
3.0799546 -2.1969104 0.73537791 0
3.1151092 -2.2236269 0.88360775 0
2.9829781 -2.130095 -0.06398052 0
3.0007608 -2.1499183 0.064434282 0
3.0275738 -2.1699286 0.19521314 0
3.0453403 -2.1842716 0.32787988 0
3.052779 -2.191221 0.46139738 0
3.0759668 -2.2086785 0.59976977 0
3.0738616 -2.2087936 0.7357595 0
3.1057463 -2.2333493 0.88315785 0
2.9840157 -2.1458125 -0.064155042 0
3.0082099 -2.1703877 0.064748429 0
3.0151231 -2.176976 0.19489913 0
3.042542 -2.1983893 0.32840282 0
3.0487132 -2.2036581 0.46188486 0
3.0682385 -2.2194026 0.59976977 0
3.0697012 -2.2212768 0.73652273 0
3.0983231 -2.2436359 0.88315785 0
2.9700296 -2.1515234 -0.064015426 0
3.0006156 -2.1808748 0.064748429 0
3.010736 -2.189837 0.19510846 0
3.0304019 -2.2049501 0.32787988 0
3.0490265 -2.2201293 0.46310353 0
3.0508938 -2.2231193 0.59789258 0
3.0730343 -2.2400734 0.7391941 0
3.0888982 -2.2532895 0.88270795 0
2.9608858 -2.1606987 -0.06398052 0
2.9962115 -2.1936984 0.064818241 0
3.0062957 -2.2026942 0.1953178 0
3.02108 -2.2143366 0.32770559 0
3.0524628 -2.2389774 0.46480972 0
3.0462997 -2.2360928 0.59851831 0
3.0636137 -2.249625 0.73881245 0
3.0857253 -2.2675195 0.88405764 0
2.9549367 -2.1722052 -0.064015426 0
2.9853172 -2.2017701 0.064748429 0
3.0050168 -2.2179189 0.1957365 0
3.0117292 -2.2236853 0.32753128 0
3.0414355 -2.2472596 0.46432224 0
3.0448291 -2.2514105 0.59976977 0
3.0494287 -2.255635 0.73728597 0
3.0903215 -2.2875521 0.88765687 0
2.9521577 -2.1860769 -0.064120144 0
2.9776134 -2.2121775 0.064748429 0
2.9972563 -2.228395 0.1957365 0
3.0151396 -2.2425077 0.32875144 0
3.0272031 -2.2531216 0.46334729 0
3.0432885 -2.2667453 0.60102129 0
3.0462594 -2.2697849 0.73843086 0
3.0854421 -2.3006556 0.88855666 0
2.9573319 -2.2059333 -0.064399377 0
2.9730756 -2.2249537 0.064818241 0
2.9894595 -2.2388437 0.1957365 0
3.0152657 -2.258992 0.32962301 0
3.0161428 -2.2612932 0.46285981 0
3.0385175 -2.2797258 0.60164702 0
3.0398881 -2.2815831 0.73881245 0
3.0680435 -2.3043895 0.88585728 0
2.9512126 -2.2174442 -0.064434282 0
2.971678 -2.2401333 0.064957857 0
2.973654 -2.2432511 0.19521314 0
3.0073621 -2.2695034 0.32962301 0
3.0209041 -2.2813783 0.46480972 0
3.021086 -2.2831719 0.59976977 0
3.0381696 -2.296916 0.74033892 0
3.0630891 -2.3174367 0.88675708 0
2.9354818 -2.2216985 -0.06425976 0
2.9638402 -2.2504926 0.064957857 0
2.9753468 -2.2608674 0.19584116 0
2.9914911 -2.2739587 0.32875144 0
3.0176623 -2.2955146 0.46554092 0
3.0178132 -2.2972932 0.60070843 0
3.0379429 -2.3134546 0.74224705 0
3.0596311 -2.3316581 0.88810676 0
2.9292989 -2.233144 -0.064294666 0
2.9559665 -2.2608247 0.064957857 0
2.9817109 -2.2821651 0.19678321 0
2.9819536 -2.2831762 0.32857716 0
3.0080552 -2.304827 0.46529719 0
3.0207486 -2.316227 0.60289848 0
3.023618 -2.3192651 0.74072057 0
3.0576568 -2.3470705 0.88990635 0
2.9230719 -2.2445736 -0.064329572 0
2.9448886 -2.2686884 0.064888045 0
2.9693809 -2.2883825 0.1964692 0
2.981854 -2.2996547 0.3294487 0
2.9968486 -2.3128874 0.46480972 0
3.0224328 -2.3334746 0.60477573 0
3.0123968 -2.327405 0.73995733 0
3.0509868 -2.3589213 0.89035624 0
2.9251044 -2.2615933 -0.064539 0
2.9484096 -2.2870209 0.06513238 0
2.9566414 -2.2950597 0.19615518 0
2.9848225 -2.3186052 0.33066887 0
2.9828923 -2.3179405 0.46383476 0
3.0111504 -2.3415854 0.60415 0
3.0077615 -2.3397925 0.74072057 0
3.0431476 -2.3690257 0.89035624 0
2.9250808 -2.2779334 -0.064713523 0
2.9482875 -2.3034546 0.065306902 0
2.9537356 -2.3085413 0.1964692 0
2.9755483 -2.3272629 0.33049458 0
2.9857254 -2.3369031 0.46554092 0
3.0064795 -2.3539934 0.60477573 0
3.0057573 -2.3551209 0.74224705 0
3.0379267 -2.3820388 0.89125609 0
2.9017744 -2.2752819 -0.064364478 0
2.9374893 -2.310746 0.065237097 0
2.9487979 -2.3213084 0.19667853 0
2.9689715 -2.3388684 0.33066887 0
2.9873145 -2.3541634 0.46700338 0
2.9827332 -2.3522415 0.60164702 0
3.0071788 -2.3723714 0.74453676 0
3.0514245 -2.4090052 0.8975547 0
2.8922453 -2.2841575 -0.064329572 0
2.927433 -2.3202548 0.065202191 0
2.9465294 -2.3370655 0.19709724 0
2.9576676 -2.3467412 0.33032027 0
2.9786658 -2.3650966 0.46700338 0
2.9833717 -2.3705316 0.60352427 0
2.9892421 -2.3760474 0.74224705 0
3.0303736 -2.4104681 0.89395547 0
2.8916776 -2.3009684 -0.064504094 0
2.9146276 -2.3267164 0.065097481 0
2.9414742 -2.3498297 0.19730657 0
2.9494581 -2.3570507 0.33032027 0
2.9610901 -2.3680408 0.46554092 0
2.9843326 -2.3883364 0.60540146 0
2.9809299 -2.3864675 0.74224705 0
3.0280244 -2.4259052 0.89575505 0
2.8914304 -2.317301 -0.064678617 0
2.9142802 -2.3431413 0.065272003 0
2.9270294 -2.3550749 0.19688788 0
2.9536293 -2.377326 0.33171475 0
2.9589899 -2.3833435 0.46651587 0
2.9759772 -2.3987393 0.60540146 0
2.9817517 -2.4042521 0.74453676 0
2.998306 -2.4193277 0.88945645 0
2.8942161 -2.3361721 -0.064922951 0
2.9076374 -2.3545582 0.065306902 0
2.9141359 -2.3615055 0.19657388 0
2.9453127 -2.3876214 0.33171475 0
2.9537358 -2.3961589 0.46700338 0
2.9614515 -2.4041328 0.60415 0
2.9779131 -2.4183588 0.74568158 0
2.982281 -2.4236341 0.88720697 0
2.8782854 -2.3399537 -0.064748429 0
2.9025002 -2.3672214 0.065376714 0
2.9155741 -2.3787317 0.19720189 0
2.9385035 -2.399148 0.33188906 0
2.9576516 -2.4165027 0.46895328 0
2.9595809 -2.4189403 0.60540146 0
2.9724925 -2.4312246 0.74644482 0
2.9843588 -2.4426694 0.89035624 0
2.8627729 -2.3431525 -0.064573906 0
2.8930888 -2.3755643 0.065341808 0
2.9180546 -2.3977704 0.1979346 0
2.9254944 -2.4055946 0.33136615 0
2.9526882 -2.4288194 0.46944076 0
2.954169 -2.4317672 0.60602719 0
2.9613831 -2.4385724 0.74568158 0
2.9747384 -2.451313 0.88990635 0
2.8607483 -2.3582191 -0.064713523 0
2.8847787 -2.3856487 0.065341808 0
2.911206 -2.409215 0.19803928 0
2.9221053 -2.4190938 0.33188906 0
2.9380772 -2.4340458 0.46846578 0
2.9517457 -2.4471076 0.60727865 0
2.9513414 -2.4476414 0.74529999 0
2.9721618 -2.46666 0.89170599 0
2.854038 -2.369468 -0.064748429 0
2.8779705 -2.3969836 0.065376714 0
2.8905048 -2.4091322 0.19720189 0
2.9274156 -2.4407623 0.33345786 0
2.9326115 -2.4468303 0.46895328 0
2.9462185 -2.4599283 0.60790437 0
2.9503136 -2.4642212 0.74720806 0
2.9590478 -2.4732704 0.89035624 0
2.8564882 -2.3883948 -0.064992763 0
2.8849065 -2.4198661 0.065725766 0
2.8881967 -2.4243438 0.1976206 0
2.9219296 -2.4535286 0.33380648 0
2.9301317 -2.4621601 0.46992823 0
2.9315662 -2.4651122 0.60665292 0
2.9507084 -2.4820876 0.74949777 0
2.842015 -2.3931987 -0.064853139 0
2.8703318 -2.4247596 0.065586142 0
2.8873429 -2.4408576 0.19814396 0
2.8966129 -2.4495611 0.33188906 0
2.9306111 -2.4800675 0.47139066 0
2.9259584 -2.4778833 0.60727865 0
2.9405282 -2.4911034 0.74911612 0
2.8336442 -2.4031045 -0.064853139 0
2.8572807 -2.4308767 0.065481432 0
2.8864088 -2.4573956 0.19866732 0
2.8925953 -2.4635327 0.332412 0
2.9219363 -2.4902823 0.47139066 0
2.9263091 -2.4957731 0.60915589 0
2.9333084 -2.5026267 0.74949777 0
2.8343618 -2.4207737 -0.065062575 0
2.853334 -2.4447391 0.065586142 0
2.8823621 -2.4713559 0.19898133 0
2.897589 -2.4852889 0.3339808 0
2.9102132 -2.4978805 0.47090316 0
2.9235733 -2.5111208 0.61040735 0
2.9230654 -2.5115712 0.74911612 0
2.8334744 -2.4371727 -0.065237097 0
2.8508387 -2.4599099 0.065725766 0
2.8631361 -2.472265 0.19824862 0
2.887388 -2.4940858 0.33380648 0
2.9044797 -2.5106201 0.47139066 0
2.9147899 -2.521311 0.61040735 0
2.9202192 -2.5268979 0.75064266 0
2.8264616 -2.4483578 -0.065272003 0
2.8512912 -2.4777157 0.065935194 0
2.8590102 -2.4861758 0.19856264 0
2.8921938 -2.5159185 0.33537531 0
2.8971953 -2.5220468 0.47163439 0
2.9029925 -2.5288746 0.60978162 0
2.9217415 -2.5461047 0.75331396 0
2.8118703 -2.4529507 -0.06513238 0
2.8366058 -2.4823861 0.065795571 0
2.8582637 -2.5022211 0.199086 0
2.8684072 -2.5128696 0.33363217 0
2.9003158 -2.5426133 0.47358429 0
2.9005311 -2.5436974 0.61103308 0
2.9128361 -2.5562882 0.75331396 0
2.8007157 -2.4596229 -0.065062575 0
2.8298588 -2.4931009 0.065830477 0
2.8619378 -2.5222497 0.19992337 0
2.8690243 -2.5302751 0.33467805 0
2.8859148 -2.546963 0.47260937 0
2.8950415 -2.5559165 0.61165881 0
2.8984582 -2.560734 0.75178748 0
2.8060272 -2.4808173 -0.065376714 0
2.8185835 -2.4998176 0.065760665 0
2.8516221 -2.5308986 0.1998187 0
2.8635976 -2.5424209 0.33502665 0
2.8744848 -2.5538819 0.47212186 0
2.8920071 -2.5712566 0.61291033 0
2.8899505 -2.5703313 0.75178748 0
2.8018308 -2.4945862 -0.065481432 0
2.8217716 -2.5202978 0.066039905 0
2.8353245 -2.5341823 0.19929534 0
2.8621318 -2.559041 0.33589822 0
2.8655527 -2.5639002 0.47212186 0
2.8800709 -2.5787008 0.6122846 0
2.889735 -2.5882626 0.7540772 0
2.8005505 -2.5110259 -0.065655954 0
2.8203909 -2.5368185 0.066214427 0
2.8279459 -2.5454001 0.19940001 0
2.8531816 -2.5690162 0.33589822 0
2.8698583 -2.5858464 0.47431552 0
2.8681173 -2.5860929 0.61165881 0
2.8894298 -2.6062233 0.75636691 0
2.781379 -2.5114055 -0.06541162 0
2.8174469 -2.5520179 0.066354051 0
2.8294022 -2.5646455 0.20013271 0
2.8441968 -2.5789599 0.33589822 0
2.8696353 -2.6038523 0.47577798 0
2.8619983 -2.5987444 0.6122846 0
2.8875809 -2.6228938 0.75827497 0
2.7770343 -2.525135 -0.065516338 0
2.7967026 -2.5510561 0.066074811 0
2.8278081 -2.5812387 0.20065607 0
2.8307633 -2.584842 0.33537531 0
2.8546667 -2.6084969 0.474803 0
2.8587406 -2.6140509 0.61353606 0
2.8755105 -2.6303072 0.75751179 0
2.7755768 -2.5415657 -0.06569086 0
2.7907257 -2.5635085 0.066144623 0
2.8290739 -2.6005557 0.20138879 0
2.8319895 -2.6041477 0.33659548 0
2.8411617 -2.614413 0.47407177 0
2.8583171 -2.6320424 0.61541325 0
2.8605356 -2.6350076 0.75598526 0
2.7725682 -2.5566614 -0.065830477 0
2.7920361 -2.5827396 0.066388957 0
2.8053217 -2.5968473 0.20034206 0
2.8301914 -2.6207862 0.33746704 0
2.8363867 -2.6283624 0.474803 0
2.8578026 -2.6500628 0.61729044 0
2.8628349 -2.6556582 0.75903821 0
2.7694888 -2.5717664 -0.0659701 0
2.7873933 -2.5965588 0.066493668 0
2.7991621 -2.6093478 0.20055141 0
2.8253973 -2.6347256 0.33798996 0
2.8344514 -2.6450191 0.47602168 0
2.8398726 -2.651933 0.61541325 0
2.8592863 -2.6709964 0.76056474 0
2.7517309 -2.5732229 -0.065760665 0
2.7895231 -2.6177049 0.066772908 0
2.7866676 -2.6168551 0.20034206 0
2.8171735 -2.6464276 0.33816427 0
2.8348622 -2.6649075 0.47772786 0
2.8358889 -2.6677377 0.61666471 0
2.8523369 -2.684149 0.76132792 0
2.7437365 -2.5846629 -0.065795571 0
2.7687416 -2.6164384 0.066493668 0
2.7978325 -2.6457784 0.20180747 0
2.8079188 -2.6562452 0.33816427 0
2.8241014 -2.6734223 0.47748414 0
2.8322959 -2.6830549 0.61791623 0
2.8372498 -2.6886873 0.75980145 0
2.7419519 -2.6011055 -0.0659701 0
2.7639375 -2.630223 0.066598386 0
2.7856872 -2.6527739 0.20159812 0
2.7971871 -2.6646562 0.33798996 0
2.8104415 -2.6791546 0.47675291 0
2.8300598 -2.6997426 0.61948055 0
2.830688 -2.7012858 0.76056474 0
2.7415314 -2.6189489 -0.066179529 0
2.763402 -2.6481562 0.066807814 0
2.7706442 -2.6569521 0.20117943 0
2.8036845 -2.6895759 0.33990738 0
2.8025048 -2.6903234 0.47699666 0
2.8206184 -2.7096047 0.61948055 0
2.8297348 -2.7193122 0.7628544 0
2.7294903 -2.6257298 -0.066109717 0
2.7627752 -2.6661177 0.067017242 0
2.7675662 -2.6716738 0.20159812 0
2.7842481 -2.6896563 0.33868721 0
2.8102233 -2.716646 0.47992152 0
2.8073575 -2.7148237 0.61854196 0
2.8286905 -2.7373648 0.76514411 0
2.717895 -2.6319845 -0.066039905 0
2.7539189 -2.6752646 0.067017242 0
2.7615557 -2.6836207 0.20180747 0
2.7867405 -2.7099867 0.34008169 0
2.7997766 -2.7245657 0.47967777 0
2.8011701 -2.7268744 0.61916769 0
2.8181913 -2.7453601 0.76476252 0
2.7177436 -2.6493583 -0.066249333 0
2.7407429 -2.6801882 0.066912524 0
2.7664464 -2.7072132 0.20285419 0
2.7777386 -2.719213 0.34008169 0
2.7949803 -2.7380025 0.480409 0
2.797277 -2.742167 0.62041914 0
2.7084792 -2.6588287 -0.066249333 0
2.7237782 -2.6831987 0.066738002 0
2.7565053 -2.7173345 0.20285419 0
2.7748468 -2.7363703 0.34095326 0
2.7100909 -2.6799865 -0.066528574 0
2.7224424 -2.7016151 0.06694743 0
2.7328289 -2.7128689 0.20180747 0
2.6964686 -2.6851969 -0.066423863 0
2.7177129 -2.7148678 0.067052148 0
2.685667 -2.693177 -0.066388957 0
