# .PCD v0.7 - Point Cloud Data file format
VERSION 0.7
FIELDS x y z rgba
SIZE 4 4 4 4
TYPE F F F U
COUNT 1 1 1 1
WIDTH 423
HEIGHT 1
VIEWPOINT 0 0 0 1 0 0 0
POINTS 423
DATA ascii
4.1780396 -1.6205546 0.078221686 0
4.3607368 -1.6957977 0.57449216 0
4.1835279 -1.6395067 0.078431122 0
4.2373567 -1.6623085 0.23854731 0
4.310195 -1.6917509 0.4050999 0
4.3695717 -1.7168165 0.576442 0
4.4192829 -1.7381294 0.75213701 0
4.1814976 -1.6555721 0.078500926 0
4.2315283 -1.6770893 0.23854731 0
4.3061152 -1.7075202 0.40527418 0
4.3561716 -1.7291292 0.57546705 0
4.3985033 -1.7477096 0.74963403 0
4.1831198 -1.6731286 0.078640543 0
4.22194 -1.6903653 0.23833798 0
4.2871823 -1.717355 0.40405402 0
4.3501096 -1.7443247 0.57546705 0
4.3905425 -1.7623168 0.74932122 0
4.1642756 -1.6824765 0.078396209 0
4.2252712 -1.7088364 0.23886132 0
4.2774677 -1.7308148 0.40370542 0
4.3476744 -1.7609894 0.57595456 0
4.3916864 -1.7806009 0.75057268 0
4.152823 -1.6947355 0.078291491 0
4.2211299 -1.7243302 0.23896599 0
4.2750888 -1.7472432 0.40405402 0
4.3231277 -1.7686383 0.5735172 0
4.3909287 -1.7981658 0.75151128 0
4.1524282 -1.7115074 0.078396209 0
4.200315 -1.7329603 0.23812862 0
4.2726469 -1.7636758 0.40440264 0
4.3205972 -1.7852341 0.57400465 0
4.3809738 -1.8119718 0.75088555 0
4.151967 -1.7282971 0.078500926 0
4.1923962 -1.7468433 0.23802395 0
4.2664647 -1.7785792 0.40440264 0
4.3143392 -1.800305 0.57400465 0
4.3636856 -1.8226851 0.7490083 0
4.1499004 -1.7436053 0.078570738 0
4.195786 -1.7646077 0.23854731 0
4.2568703 -1.7911721 0.40405402 0
4.317493 -1.8184549 0.57522333 0
4.3557973 -1.8363781 0.74869543 0
4.1216984 -1.7487082 0.078151874 0
4.1896005 -1.7792431 0.23854731 0
4.2395892 -1.8013455 0.40300813 0
4.3074651 -1.8319603 0.57473588 0
4.3529959 -1.8531191 0.74932122 0
4.1210837 -1.7654473 0.078256592 0
4.1796932 -1.7922823 0.23833798 0
4.2369375 -1.8177047 0.40335676 0
4.2864518 -1.840719 0.57278597 0
4.3555746 -1.8722031 0.75088555 0
4.124073 -1.7837913 0.078431122 0
4.1715784 -1.8060678 0.23823328 0
4.2378798 -1.8356509 0.40405402 0
4.2800007 -1.8556702 0.57278597 0
4.3417649 -1.8842498 0.74963403 0
4.1178217 -1.7981762 0.078431122 0
4.1597586 -1.8182184 0.23791927 0
4.2277956 -1.8488361 0.40370542 0
4.2771339 -1.872191 0.57327342 0
4.331542 -1.8978086 0.7490083 0
4.113349 -1.8133454 0.078466021 0
4.1606956 -1.835953 0.23833798 0
4.215848 -1.8611686 0.40318248 0
4.281467 -1.8919235 0.57473588 0
4.3212781 -1.9113187 0.74838257 0
4.3752174 -1.9360893 0.93000305 0
4.0942059 -1.8220017 0.078221686 0
4.1652083 -1.8553413 0.23896599 0
4.203866 -1.8734401 0.40265954 0
4.2766504 -1.9076658 0.57497966 0
4.3163834 -1.9271963 0.74869543 0
4.3433371 -1.94014 0.92466044 0
4.0841722 -1.834643 0.078151874 0
4.1477771 -1.8649549 0.23833798 0
4.2045689 -1.8913726 0.40335676 0
4.253674 -1.9152476 0.57278597 0
4.3186345 -1.9463098 0.75025976 0
4.3365388 -1.9552891 0.92466044 0
4.0850282 -1.8521913 0.078291491 0
4.1379318 -1.8770493 0.23812862 0
4.2015696 -1.9076852 0.40370542 0
4.2451558 -1.9292625 0.57254225 0
4.3085608 -1.9589851 0.74963403 0
4.3332605 -1.972041 0.92542368 0
4.0879564 -1.8698866 0.078466021 0
4.1244206 -1.8874365 0.23770994 0
4.2024665 -1.9249264 0.40440264 0
4.2423439 -1.944984 0.5730297 0
4.2948585 -1.9699678 0.74838257 0
4.0835485 -1.8842702 0.078500926 0
4.1232462 -1.9043339 0.23802395 0
4.1815901 -1.9321659 0.40300813 0
4.2394738 -1.960708 0.5735172 0
4.2861633 -1.9841177 0.7480697 0
4.067883 -1.8942924 0.078326404 0
4.122005 -1.9212465 0.23833798 0
4.1762862 -1.9483216 0.40318248 0
4.232604 -1.9754946 0.5735172 0
4.2827907 -2.0007393 0.74869543 0
4.0554838 -1.9066368 0.078221686 0
4.1152735 -1.9356234 0.23833798 0
4.1694598 -1.9628878 0.40318248 0
4.218152 -1.98761 0.57254225 0
4.282928 -2.0190461 0.74994689 0
4.0527515 -1.9217881 0.078291491 0
4.101274 -1.9465508 0.23791927 0
4.1661816 -1.9791396 0.40353107 0
4.2115378 -2.0015872 0.57254225 0
4.2758541 -2.0339842 0.74994689 0
4.0550385 -1.9402387 0.078466021 0
4.0980573 -1.9625807 0.23812862 0
4.1631899 -1.9946662 0.4038797 0
4.2116852 -2.0197091 0.5735172 0
4.2544813 -2.0420592 0.74744397 0
4.0464406 -1.9535124 0.078431122 0
4.0893831 -1.9760045 0.23802395 0
4.1468825 -2.0055742 0.40300813 0
4.2099705 -2.0369925 0.57424843 0
4.2526608 -2.0594804 0.74838257 0
4.0212765 -1.9595702 0.078082062 0
4.0874987 -1.9936063 0.23833798 0
4.1362753 -2.01829 0.40265954 0
4.1989083 -2.0506666 0.57376093 0
4.2486329 -2.0767884 0.7490083 0
4.0180011 -1.9753598 0.078151874 0
4.076931 -2.0060987 0.23812862 0
4.1309924 -2.0335958 0.40283385 0
4.1846018 -2.0618017 0.57278597 0
4.2431297 -2.0924799 0.74932122 0
4.0146646 -1.9911503 0.078221686 0
4.0684667 -2.0187194 0.23802395 0
4.1292219 -2.050662 0.40335676 0
4.1791568 -2.0772796 0.5730297 0
4.2414732 -2.1091776 0.75025976 0
4.434412 -2.207052 0.9628222 0
4.0187707 -2.0098193 0.078431122 0
4.0578232 -2.0311208 0.23781461 0
4.1238203 -2.0659554 0.40353107 0
4.1775694 -2.0937951 0.57376093 0
4.2199597 -2.1168845 0.74775684 0
4.402503 -2.2094166 0.9574796 0
4.0170865 -2.0265367 0.078535825 0
4.0581975 -2.0481653 0.23823328 0
4.106276 -2.0742292 0.40248519 0
4.17555 -2.1110516 0.57449216 0
4.2129169 -2.130867 0.74775684 0
4.3807516 -2.2176771 0.95442665 0
3.9960852 -2.0325942 0.078256592 0
4.0599232 -2.0668492 0.23875666 0
4.0990105 -2.0885503 0.40248519 0
4.1720638 -2.1266899 0.57497966 0
4.2089725 -2.1473553 0.74838257 0
4.3314056 -2.2107716 0.94526786 0
3.9871867 -2.0456181 0.078221686 0
4.0477161 -2.077565 0.23844264 0
4.0956068 -2.1039522 0.40283385 0
4.1504912 -2.1339784 0.5730297 0
4.2070985 -2.1640117 0.74932122 0
4.3096981 -2.2186887 0.94221485 0
3.9874856 -2.0625033 0.078361303 0
4.0368919 -2.0898449 0.23823328 0
4.0900064 -2.1191523 0.40300813 0
4.1363425 -2.1440761 0.57205474 0
4.196012 -2.1768644 0.74869543 0
4.2848916 -2.2239239 0.93839866 0
3.9827192 -2.0803454 0.078431122 0
4.0217571 -2.1016302 0.23781461 0
4.0906672 -2.1394584 0.4038797 0
4.1382542 -2.1661868 0.5735172 0
4.1841226 -2.1911271 0.7480697 0
4.2794075 -2.2429295 0.93916196 0
3.9775679 -2.0944726 0.078466021 0
4.0179305 -2.1175182 0.23802395 0
4.0743628 -2.1490765 0.40300813 0
4.1363158 -2.1826773 0.57424843 0
4.1764483 -2.205719 0.7480697 0
4.2511158 -2.2461021 0.93458253 0
3.9525714 -2.0989654 0.078116976 0
4.0197053 -2.1355159 0.23854731 0
4.0672135 -2.162576 0.40300813 0
4.1304235 -2.1980348 0.57449216 0
4.1725984 -2.2214129 0.74869543 0
4.2397842 -2.2590811 0.93381923 0
3.9526412 -2.1158359 0.078256592 0
4.0139875 -2.1504774 0.23865199 0
4.064908 -2.1795843 0.40353107 0
4.1091175 -2.2042129 0.57254225 0
4.1682997 -2.2378335 0.74932122 0
4.2322693 -2.2731285 0.93381923 0
3.9487512 -2.1315203 0.078326404 0
3.9941554 -2.1578302 0.23791927 0
4.0646691 -2.1968415 0.4042283 0
4.1048903 -2.2204318 0.5730297 0
4.1604629 -2.2523701 0.74932122 0
4.2208567 -2.2860181 0.93305606 0
3.950068 -2.1500709 0.078500926 0
3.986599 -2.1717594 0.23791927 0
4.0618377 -2.2145855 0.40475124 0
4.1075706 -2.2404504 0.57449216 0
4.1491075 -2.2649858 0.74869543 0
4.2262325 -2.3090034 0.93610895 0
3.9369023 -2.1616468 0.078396209 0
3.9877465 -2.1904697 0.23844264 0
4.036623 -2.219152 0.40300813 0
4.109767 -2.2612321 0.57595456 0
4.1394458 -2.2785027 0.74838257 0
4.2112684 -2.3199522 0.93458253 0
3.920965 -2.1698492 0.078221686 0
3.9853177 -2.2072794 0.23875666 0
4.0305948 -2.2341952 0.40318248 0
4.0918293 -2.2690718 0.57449216 0
4.1349211 -2.2948551 0.7490083 0
4.193253 -2.3281868 0.93229276 0
3.9168587 -2.1854711 0.078291491 0
3.9758451 -2.2202036 0.23865199 0
4.0196853 -2.2456052 0.40283385 0
4.0734878 -2.2775288 0.5730297 0
4.1337805 -2.3131332 0.75025976 0
4.181675 -2.3408916 0.93152958 0
3.9126923 -2.2010911 0.078361303 0
3.9628494 -2.2311289 0.23833798 0
4.0218425 -2.2661917 0.4038797 0
4.0620546 -2.2897842 0.57254225 0
4.1274018 -2.3285196 0.75057268 0
4.1867433 -2.3639247 0.93458253 0
3.9063373 -2.2164037 0.078396209 0
3.956774 -2.2459338 0.23844264 0
4.0173721 -2.2821848 0.4042283 0
4.0639892 -2.3105438 0.57400465 0
4.1106629 -2.3380294 0.7490083 0
4.1852913 -2.3824096 0.93610895 0
3.90591 -2.2333162 0.078535825 0
3.9558442 -2.2636998 0.23886132 0
4.0007367 -2.2912433 0.40335676 0
4.0614719 -2.3269682 0.57473588 0
4.0973358 -2.3494163 0.7480697 0
4.1705561 -2.3923681 0.93458253 0
3.8824985 -2.2379491 0.078221686 0
3.9483156 -2.2768054 0.23886132 0
3.989665 -2.302506 0.40300813 0
4.0567627 -2.3431172 0.57522333 0
4.1014948 -2.3699083 0.75025976 0
4.1519823 -2.4010143 0.93229276 0
3.8785136 -2.25282 0.078291491 0
3.9386177 -2.2895701 0.23875666 0
3.9902148 -2.3214281 0.4038797 0
4.0352449 -2.3485684 0.57327342 0
4.0983181 -2.3871937 0.75119835 0
4.1456933 -2.4157581 0.93267435 0
3.8775296 -2.2703867 0.078431122 0
3.9306016 -2.3033047 0.23875666 0
3.9893699 -2.3386779 0.40457696 0
4.0287342 -2.3636444 0.5735172 0
4.0899606 -2.4014847 0.75119835 0
4.142314 -2.4331975 0.93381923 0
3.8833573 -2.2920392 0.078710355 0
3.9173784 -2.3139637 0.23844264 0
3.9760361 -2.3495481 0.40405402 0
4.0290022 -2.382745 0.57473588 0
4.0747533 -2.4117222 0.74994689 0
4.1439314 -2.453644 0.93610895 0
3.8650212 -2.2994461 0.078500926 0
3.9109936 -2.3286455 0.23854731 0
3.9678106 -2.3634126 0.40405402 0
4.0325961 -2.4039099 0.576442 0
4.0663099 -2.4259312 0.74994689 0
4.133656 -2.4670877 0.93572736 0
3.8586862 -2.313952 0.078535825 0
3.9182539 -2.3515332 0.23948936 0
3.9646609 -2.3803256 0.40457696 0
4.0207777 -2.4159269 0.57595456 0
4.0645881 -2.4441824 0.75119835 0
4.121654 -2.4794779 0.93496412 0
3.8420289 -2.3222351 0.078361303 0
3.9066041 -2.3631287 0.23928 0
3.9614418 -2.3972447 0.4050999 0
4.00383 -2.4248054 0.57473588 0
4.0627894 -2.4624515 0.75244987 0
4.1096168 -2.4918141 0.93420094 0
3.844146 -2.3418746 0.078570738 0
3.886394 -2.369473 0.23854731 0
3.9543295 -2.4127855 0.40527418 0
3.9936469 -2.4377325 0.57449216 0
4.0491118 -2.4735289 0.75151128 0
4.1088309 -2.5119801 0.93610895 0
3.8389444 -2.3580413 0.078640543 0
3.8798013 -2.3840702 0.23865199 0
3.9492774 -2.4286618 0.40562281 0
3.9931386 -2.4575558 0.57571083 0
4.0421348 -2.4886832 0.75182414 0
3.8345048 -2.3728638 0.078710355 0
3.8765492 -2.4007533 0.23896599 0
3.9340019 -2.4382339 0.40492558 0
3.9950893 -2.4770601 0.57717323 0
4.0267096 -2.4986119 0.75057268 0
3.8177145 -2.3809428 0.078535825 0
3.8787339 -2.4199383 0.23959403 0
3.9326546 -2.455487 0.40562281 0
3.9864182 -2.4909906 0.57717323 0
4.0267763 -2.5171864 0.75213701 0
3.809798 -2.3935897 0.078535825 0
3.8668816 -2.4313369 0.2393847 0
3.9190009 -2.4660163 0.4050999 0
3.9730961 -2.5010238 0.576442 0
4.029665 -2.5385976 0.75432706 0
3.8094466 -2.4128876 0.078710355 0
3.856684 -2.4437511 0.23928 0
3.9120512 -2.4807482 0.40527418 0
3.9605513 -2.5134418 0.57595456 0
4.0224466 -2.5537071 0.75463998 0
4.063159 -2.5815446 0.93572736 0
3.8031096 -2.4265823 0.078745253 0
3.8498139 -2.4582732 0.2393847 0
3.9100833 -2.4986796 0.40597141 0
3.957212 -2.5297697 0.57668579 0
4.0085163 -2.564539 0.75370133 0
3.8013439 -2.4441688 0.078884877 0
3.8428888 -2.4727774 0.23948936 0
3.8950746 -2.507319 0.40527418 0
3.9583697 -2.5500176 0.57814825 0
3.9978797 -2.5774455 0.75338852 0
4.0553923 -2.6155257 0.93801707 0
3.7793639 -2.4487245 0.078605637 0
3.8459644 -2.4937828 0.24022207 0
3.8846276 -2.5198154 0.4050999 0
3.9544396 -2.5670617 0.57887942 0
3.9987974 -2.5978415 0.75526565 0
4.0330682 -2.6211073 0.93496412 0
3.7758162 -2.4651816 0.078710355 0
3.8305478 -2.5028229 0.23980337 0
3.8841465 -2.5388105 0.40597141 0
3.9354875 -2.5743299 0.57741702 0
3.9963157 -2.6161118 0.75651717 0
4.0370336 -2.6437738 0.93801707 0
3.7722001 -2.4816439 0.078815073 0
3.8167837 -2.5128839 0.23948936 0
3.8802524 -2.5556409 0.40649435 0
3.9281349 -2.589144 0.57766074 0
3.9805634 -2.625695 0.75526565 0
4.0392509 -2.6654189 0.94068843 0
3.7701809 -2.4992154 0.078954689 0
3.8113179 -2.5283997 0.23969871 0
3.8713078 -2.5691702 0.40649435 0
3.9240339 -2.6061347 0.57839197 0
3.9647934 -2.6352003 0.75401419 0
4.0364618 -2.68385 0.94221485 0
3.7614343 -2.5123603 0.078954689 0
3.8074498 -2.545018 0.24001274 0
3.8656287 -2.5848827 0.40684301 0
3.919862 -2.6231287 0.5791232 0
3.9588532 -2.6512218 0.75463998 0
4.0156512 -2.6902745 0.93954355 0
3.7460058 -2.5210092 0.078815073 0
3.8072734 -2.5632071 0.24053608 0
3.8615394 -2.6017001 0.40736595 0
3.9156201 -2.6401246 0.57985443 0
3.9598658 -2.670963 0.75651717 0
3.9932189 -2.6954887 0.93649065 0
3.7409353 -2.5356615 0.078884877 0
3.7999556 -2.5776021 0.24064074 0
3.8557312 -2.6174018 0.40771458 0
3.9035585 -2.6508644 0.57936692 0
3.9554195 -2.6881003 0.75745571 0
3.9956229 -2.7164421 0.93916196 0
3.7403185 -2.5543432 0.0790594 0
3.7859881 -2.5874701 0.24032672 0
3.8536096 -2.6346719 0.4084118 0
3.8893666 -2.6611114 0.57863569 0
3.9476426 -2.703007 0.75776863 0
3.7363217 -2.5707839 0.079164118 0
3.776933 -2.6006699 0.24032672 0
3.8476706 -2.6503675 0.4087604 0
3.8931296 -2.6836846 0.5805856 0
3.9251747 -2.7077966 0.75526565 0
3.7289689 -2.58495 0.079199016 0
3.773212 -2.6165946 0.24064074 0
3.8285747 -2.6569664 0.40771458 0
3.8967814 -2.7063167 0.58253551 0
3.9259071 -2.727561 0.7571429 0
3.7138176 -2.5927227 0.0790594 0
3.7722416 -2.6354694 0.24116412 0
3.8225424 -2.6725979 0.40806317 0
3.884532 -2.7169483 0.582048 0
3.9293096 -2.7503099 0.75964588 0
3.7063804 -2.6068211 0.079094306 0
3.7613864 -2.6474712 0.24105945 0
3.8234334 -2.6921418 0.40910906 0
3.8604202 -2.720201 0.57985443 0
3.9229138 -2.7662859 0.76027155 0
3.702153 -2.6232111 0.079199016 0
3.748863 -2.6582742 0.24085009 0
3.815165 -2.7072902 0.40928334 0
3.8557577 -2.7371068 0.5805856 0
3.9164548 -2.7822506 0.76089734 0
3.7006505 -2.6425729 0.079373546 0
3.74072 -2.6731579 0.24095476 0
3.8040714 -2.7194324 0.40910906 0
3.8553863 -2.7581501 0.582048 0
3.9030182 -2.7942865 0.76027155 0
3.6914036 -2.6554744 0.079373546 0
3.7427123 -2.6943672 0.24168746 0
3.7880886 -2.7280374 0.4084118 0
3.8537874 -2.7773945 0.58326674 0
3.8932407 -2.8078938 0.76027155 0
3.6707773 -2.6601303 0.079129212 0
3.7349017 -2.7085884 0.24179214 0
3.7753167 -2.7389033 0.40806317 0
3.8440692 -2.7908299 0.58326674 0
3.6646996 -2.6752853 0.079199016 0
3.727037 -2.7227869 0.24189681 0
3.7802112 -2.7626452 0.409632 0
3.8278944 -2.7995441 0.58229178 0
3.660172 -2.6916151 0.079303734 0
3.7094667 -2.729861 0.24137343 0
3.7737532 -2.7781863 0.4099806 0
3.6668222 -2.7162778 0.079652779 0
3.7079375 -2.74874 0.24189681 0
3.7624326 -2.7901554 0.40980628 0
3.6557159 -2.7278655 0.07961788 0
3.6951189 -2.7592762 0.24168746 0
3.6365805 -2.7334006 0.079408452 0
