# .PCD v0.7 - Point Cloud Data file format
VERSION 0.7
FIELDS x y z rgba
SIZE 4 4 4 4
TYPE F F F U
COUNT 1 1 1 1
WIDTH 365
HEIGHT 1
VIEWPOINT 0 0 0 1 0 0 0
POINTS 365
DATA ascii
5.1745806 -1.7767013 0.4786593 0
5.1526518 -1.8094826 0.47778779 0
5.1203361 -1.8172301 0.47534743 0
5.0932603 -1.8256571 0.28355622 0
5.1402159 -1.8445132 0.47778779 0
5.0662007 -1.8359396 0.28240484 0
5.1134672 -1.8540781 0.47587034 0
5.0653877 -1.8556738 0.28271887 0
5.0935435 -1.8680053 0.47465014 0
5.0585523 -1.8742269 0.28271887 0
5.081387 -1.883696 0.4741272 0
5.0463676 -1.8897717 0.28240484 0
5.0747805 -1.9014218 0.4741272 0
5.1317377 -1.9248056 0.67296261 0
5.0269971 -1.9015492 0.28167215 0
5.0737028 -1.9212413 0.47465014 0
5.0971446 -1.9321526 0.66930646 0
5.0165973 -1.9176589 0.28146279 0
5.0632439 -1.9375161 0.47430155 0
5.0888553 -1.9483349 0.66906273 0
5.0117359 -1.9358779 0.28156745 0
5.0400648 -1.9478317 0.47273275 0
5.0746179 -1.9632215 0.66808778 0
5.0105295 -1.9555391 0.28188148 0
5.0369473 -1.9668624 0.47308138 0
5.0751295 -1.9838142 0.66906273 0
4.9962411 -1.9700865 0.28146279 0
5.0226369 -1.9815078 0.4723841 0
5.0460176 -1.9927677 0.66613787 0
4.9800563 -1.9838189 0.28093943 0
5.0286455 -2.0041916 0.47360432 0
5.039031 -2.0103693 0.66613787 0
5.2062912 -2.0792067 0.88792211 0
4.9545722 -1.9937345 0.27989271 0
5.0086808 -2.0165238 0.4723841 0
5.0393476 -2.0309148 0.66711289 0
5.1990018 -2.0973673 0.88792211 0
4.9302344 -2.0019608 0.092881702 0
4.9568338 -2.0147774 0.28041607 0
4.992384 -2.0302424 0.47151256 0
5.0359049 -2.0499899 0.66760033 0
5.0581083 -2.0610869 0.86508268 0
4.9084153 -2.0130877 0.092602469 0
4.9649072 -2.0372691 0.28125346 0
4.9742088 -2.0431151 0.4704667 0
5.0268826 -2.0668013 0.66735661 0
5.0548992 -2.0793517 0.86570847 0
5.2069135 -2.1461349 1.300217 0
4.8998652 -2.0285888 0.092567563 0
4.9485407 -2.0507646 0.2807301 0
4.9707274 -2.0619926 0.47081533 0
4.9888325 -2.0705233 0.66321301 0
5.0512586 -2.0984995 0.86633414 0
5.2193146 -2.1693852 1.0986782 0
5.1871729 -2.1581497 1.2970678 0
5.1101136 -2.127135 -0.096616521 0
4.9038239 -2.0503085 0.092776999 0
4.9247704 -2.0610859 0.27978805 0
4.9675374 -2.0800035 0.47116393 0
4.9834051 -2.0886927 0.66345674 0
5.0256867 -2.1084769 0.86320543 0
5.1954174 -2.1807518 1.0952437 0
5.1598458 -2.1679397 1.2921189 0
5.0750055 -2.1333358 -0.096092947 0
4.8947949 -2.0666356 0.092742085 0
4.919385 -2.0790415 0.27989271 0
4.9565768 -2.0957792 0.47081533 0
4.9779119 -2.1068487 0.66370046 0
5.0146589 -2.1244657 0.86257976 0
5.195004 -2.2019389 1.0967702 0
5.139689 -2.1806099 1.2889696 0
5.0546432 -2.1455686 -0.095848612 0
4.8801928 -2.0805721 0.092602469 0
4.9139352 -2.0969846 0.27999741 0
4.9364042 -2.1075916 0.46959516 0
4.9760036 -2.1265523 0.66443169 0
4.9999475 -2.1388497 0.86132824 0
5.1818714 -2.217742 1.0956253 0
5.1445851 -2.2039089 1.2921189 0
5.0489607 -2.1639874 -0.095883526 0
4.8600435 -2.0920599 0.092358135 0
4.9102535 -2.1157053 0.28020674 0
4.9216986 -2.121655 0.46889788 0
4.9667277 -2.1431224 0.66418797 0
4.9942651 -2.1570728 0.86164117 0
5.1777029 -2.2373741 1.0963886 0
5.1565347 -2.2303634 1.2970678 0
5.0597291 -2.1895401 -0.096232571 0
4.8472095 -2.1066206 0.092253424 0
4.8955126 -2.1296456 0.27978805 0
4.9160895 -2.1396172 0.46907222 0
4.9410176 -2.1525183 0.66175061 0
4.992137 -2.1768618 0.86257976 0
5.1752601 -2.2577894 1.0975335 0
5.1558619 -2.2514689 1.2988673 0
5.0740438 -2.2167954 -0.096651427 0
4.8434892 -2.1251347 0.092323236 0
4.8770766 -2.1419022 0.27916002 0
4.9177108 -2.1607718 0.46994376 0
4.937108 -2.171351 0.66223812 0
4.9772758 -2.1910906 0.86132824 0
5.0236106 -2.2125349 1.067004 0
5.1747184 -2.281244 1.3056159 0
4.8378696 -2.1428385 0.092358135 0
4.8644695 -2.1556361 0.278846 0
4.906496 -2.1763093 0.46959516 0
4.9331269 -2.1901824 0.66272557 0
4.9627614 -2.2043762 0.86007679 0
5.0015044 -2.2236762 1.063951 0
4.8307371 -2.1588697 0.092358135 0
4.8554711 -2.1709402 0.27874133 0
4.8847036 -2.1860569 0.46820062 0
4.9204021 -2.2040946 0.66199434 0
4.9518189 -2.2192056 0.85945106 0
4.992312 -2.2394459 1.0635694 0
4.812614 -2.1699452 0.092148706 0
4.855145 -2.1911619 0.27916002 0
4.8701644 -2.1989634 0.4675034 0
4.9058304 -2.2171292 0.66101938 0
4.9476418 -2.2381055 0.86007679 0
4.9705496 -2.2495131 1.0605165 0
4.7849894 -2.1776202 0.091764756 0
4.8365617 -2.2031288 0.27853197 0
4.8660846 -2.2176025 0.467852 0
4.8926425 -2.2317686 0.66028816 0
4.9362054 -2.2537215 0.85945106 0
4.9590955 -2.2652185 1.0597532 0
4.7937131 -2.2018213 0.092078894 0
4.8179536 -2.2149923 0.27790397 0
4.8655548 -2.237905 0.46854928 0
4.881216 -2.2471733 0.65980065 0
4.9283085 -2.2709384 0.85945106 0
4.9582896 -2.2858031 1.0612797 0
4.7586122 -2.1967719 -0.091485515 0
4.784184 -2.2177 0.092043988 0
4.8101926 -2.2317967 0.27790397 0
4.8522916 -2.2523587 0.46802634 0
4.8733425 -2.2641983 0.65980065 0
4.9060216 -2.2814636 0.85694808 0
4.9502807 -2.3030965 1.0612797 0
4.7255383 -2.2015467 -0.090996847 0
4.7727909 -2.232692 0.091974184 0
4.8059902 -2.2502677 0.27811331 0
4.8317704 -2.2633667 0.46680617 0
4.8672066 -2.2820385 0.66004443 0
4.8944521 -2.2968969 0.85632241 0
4.9386568 -2.3186936 1.0605165 0
4.7123957 -2.215476 -0.090892136 0
4.7559261 -2.2450702 0.091799662 0
4.8017178 -2.2687364 0.27832264 0
4.821641 -2.2802088 0.46663183 0
4.8538284 -2.2964673 0.6593132 0
4.8935456 -2.3173494 0.85757387 0
4.9194813 -2.3317339 1.0582268 0
4.9720969 -2.3587985 1.2705235 0
4.7082467 -2.2336261 -0.090961948 0
4.7440553 -2.2607658 0.091729842 0
4.7933702 -2.2863204 0.27832264 0
4.8154507 -2.297884 0.46680617 0
4.8417954 -2.3125308 0.6588257 0
4.8814545 -2.3335655 0.85694808 0
4.9095402 -2.3480446 1.0578451 0
4.9620752 -2.3752987 1.2700737 0
4.6946177 -2.2482765 -0.09085723 0
4.736135 -2.2773118 0.091729842 0
4.7709627 -2.2961092 0.27748525 0
4.809195 -2.3155429 0.46698046 0
4.8265409 -2.3259706 0.65785074 0
4.8732791 -2.3505907 0.85694808 0
4.9013138 -2.3651679 1.0578451 0
4.9607725 -2.3959951 1.2718732 0
4.6867414 -2.2646501 -0.09085723 0
4.7299562 -2.2947035 0.091764756 0
4.756135 -2.3084292 0.27706659 0
4.802875 -2.3331869 0.46715477 0
4.8237481 -2.3454082 0.65858197 0
4.8619056 -2.3650103 0.85632241 0
4.8965588 -2.383981 1.0586084 0
4.9335284 -2.4030459 1.2669244 0
4.6720152 -2.2766757 -0.090717614 0
4.7205238 -2.3094969 0.091729842 0
4.7394848 -2.3197987 0.27654323 0
4.7825875 -2.3429651 0.46593457 0
4.819509 -2.3631396 0.65906948 0
4.8504887 -2.3793797 0.85569662 0
4.8833394 -2.3976097 1.0574635 0
4.932529 -2.4228294 1.268724 0
4.6590557 -2.2895103 -0.090612896 0
4.6931129 -2.3154056 0.091345899 0
4.7407207 -2.3399222 0.27706659 0
4.7640734 -2.3535171 0.46488872 0
4.8063078 -2.3764691 0.65833825 0
4.8461132 -2.3972034 0.85632241 0
4.8630462 -2.4076929 1.0547922 0
4.9279599 -2.4409027 1.2696238 0
4.6532292 -2.3058352 -0.090647802 0
4.6871996 -2.3318465 0.091380797 0
4.7293596 -2.3538506 0.27685726 0
4.7615924 -2.3719676 0.46541166 0
4.785965 -2.386194 0.65663213 0
4.8381367 -2.4132605 0.85632241 0
4.851522 -2.4220519 1.054029 0
4.9198384 -2.4572308 1.2696238 0
4.6527128 -2.3248286 -0.090787418 0
4.6799984 -2.3507245 0.091415711 0
4.714519 -2.3701251 0.27654323 0
4.7577901 -2.3929188 0.46593457 0
4.7696748 -2.4009829 0.65565711 0
4.824882 -2.4308846 0.85569662 0
4.8421865 -2.4406629 1.054029 0
4.8925362 -2.468183 1.2651247 0
4.6397729 -2.3416853 -0.090717614 0
4.6788998 -2.3706617 0.091555327 0
4.7026544 -2.3847606 0.27633387 0
4.7387471 -2.4041035 0.46488872 0
4.7736545 -2.4239087 0.6573633 0
4.7987571 -2.4387622 0.85256797 0
4.8388872 -2.4602196 1.0551738 0
4.8856277 -2.4861302 1.2655747 0
4.6226597 -2.3533306 -0.090543084 0
4.6616926 -2.3824294 0.091380797 0
4.6978574 -2.4029806 0.27654323 0
4.7285528 -2.4197226 0.46471441 0
4.7598639 -2.4378424 0.65663213 0
4.7937307 -2.4573004 0.8531937 0
4.8250289 -2.4744079 1.054029 0
4.8717189 -2.5004995 1.264225 0
4.6073017 -2.3657987 -0.090403467 0
4.6337962 -2.3886087 0.090996847 0
4.6929908 -2.421196 0.27675256 0
4.7006025 -2.4261618 0.46279699 0
4.742507 -2.4498873 0.65541339 0
4.7886333 -2.4758332 0.85381943 0
4.8041558 -2.4849212 1.0513576 0
4.8785357 -2.525553 1.2682741 0
4.6025662 -2.3837056 -0.090473272 0
4.6236558 -2.4038467 0.090961948 0
4.6743045 -2.4312153 0.27612451 0
4.693872 -2.443475 0.4629713 0
4.7233634 -2.4609232 0.65395093 0
4.7909074 -2.4971776 0.85569662 0
4.798934 -2.5034921 1.0521209 0
4.8545856 -2.5336022 1.264225 0
4.5946364 -2.3989556 -0.090473272 0
4.6262865 -2.424736 0.091171376 0
4.6520662 -2.4392829 0.27528715 0
4.6892719 -2.4608788 0.46331993 0
4.7186918 -2.4784191 0.65443844 0
4.7721081 -2.5075378 0.85381943 0
4.7871304 -2.5175645 1.0513576 0
4.6182203 -2.440064 0.091171376 0
4.6364603 -2.4517722 0.27486849 0
4.6793242 -2.4754837 0.46314558 0
4.7139554 -2.4959109 0.65492588 0
4.7493625 -2.5167809 0.85131645 0
4.7856936 -2.5371037 1.0528841 0
4.6096749 -2.4561698 0.091171376 0
4.6366854 -2.4726403 0.27539182 0
4.6530762 -2.4824243 0.46140248 0
4.7017126 -2.5104806 0.65443844 0
4.7370639 -2.5314815 0.85069072 0
4.7733459 -2.5519421 1.0521209 0
4.581696 -2.4618342 0.090787418 0
4.628026 -2.4888103 0.27539182 0
4.6566644 -2.505259 0.46262267 0
4.6964159 -2.5287592 0.65492588 0
4.7316761 -2.5498762 0.85131645 0
4.7540402 -2.5629985 1.0498312 0
4.5748329 -2.4787648 0.090822324 0
4.6228218 -2.5068543 0.27560118 0
4.6544557 -2.5261114 0.46331993 0
4.673604 -2.5375602 0.65297598 0
4.7296896 -2.5701497 0.85256797 0
4.7411652 -2.5785298 1.0490679 0
4.5692267 -2.4974339 0.090892136 0
4.5860047 -2.5076442 0.27392641 0
4.6491051 -2.5442557 0.46366853 0
4.6573081 -2.5508583 0.65200108 0
4.7154918 -2.583796 0.85162932 0
4.7355781 -2.5969517 1.0498312 0
4.5609198 -2.5125723 0.090892136 0
4.5947137 -2.5332801 0.27497312 0
4.6279845 -2.5537307 0.46244836 0
4.6557751 -2.5701256 0.65297598 0
4.6943407 -2.5935538 0.84943926 0
4.7269402 -2.6126413 1.0498312 0
4.5468769 -2.5255647 0.090787418 0
4.5771151 -2.5444512 0.2744498 0
4.6055608 -2.5613167 0.46105388 0
4.655448 -2.5911887 0.65419465 0
4.6800818 -2.6070404 0.84850067 0
4.7212214 -2.6310368 1.0505943 0
4.5734324 -2.5633426 0.27476382 0
4.5965919 -2.5773778 0.46105388 0
4.6377187 -2.6025662 0.65297598 0
4.6830096 -2.6301322 0.85069072 0
4.7017398 -2.6417313 1.0483047 0
4.5575008 -2.5753608 0.2743451 0
4.5875673 -2.5934069 0.46105388 0
4.619967 -2.6138518 0.6517573 0
4.6669245 -2.6425698 0.84943926 0
4.6856561 -2.6542563 1.0467782 0
4.5346007 -2.5833447 0.27350774 0
4.5854106 -2.6133511 0.46175113 0
4.6090908 -2.6289787 0.65151358 0
4.6645336 -2.6627614 0.85069072 0
4.6831822 -2.6744909 1.0483047 0
4.527287 -2.600152 0.27361241 0
4.5728054 -2.6273558 0.46140248 0
4.6016068 -2.6460412 0.6517573 0
4.6380897 -2.6691744 0.84756202 0
4.6738181 -2.6908219 1.0483047 0
4.5250969 -2.6199424 0.27403107 0
4.5498137 -2.6353133 0.46000803 0
4.5992126 -2.66607 0.65273225 0
4.6287441 -2.6853483 0.84756202 0
4.6643968 -2.7071204 1.0483047 0
4.5112085 -2.6319144 0.27371708 0
4.5337052 -2.6471603 0.45931077 0
4.5830221 -2.6781018 0.6517573 0
4.6198139 -2.7006829 0.84756202 0
4.6464458 -2.7184286 1.0463966 0
4.5002728 -2.6466331 0.27361241 0
4.5295877 -2.6660016 0.45983368 0
4.5655632 -2.6882486 0.65053862 0
4.6137619 -2.7187984 0.8481878 0
4.6340232 -2.7318275 1.0456334 0
4.5258632 -2.6840568 0.46035662 0
4.5561514 -2.7041693 0.65053862 0
4.6008472 -2.7328691 0.84756202 0
4.6227713 -2.7469833 1.0452517 0
4.5130467 -2.6977942 0.46000803 0
4.5466843 -2.7200565 0.65053862 0
4.58111 -2.7428241 0.84568483 0
4.4882426 -2.704277 0.4584392 0
4.5405622 -2.7379615 0.65102613 0
4.5681262 -2.7567573 0.8450591 0
4.4838848 -2.7230299 0.45896214 0
4.5241914 -2.74967 0.65005112 0
4.5618501 -2.774739 0.84568483 0
4.4743524 -2.7386651 0.45896214 0
4.5094872 -2.7623346 0.64931989 0
4.5588732 -2.7947755 0.84693629 0
4.4664607 -2.7553127 0.45913643 0
4.4981289 -2.7770162 0.64907616 0
4.5457292 -2.8085957 0.84631056 0
4.4551239 -2.7698345 0.45896214 0
4.4900928 -2.7937493 0.64931989 0
4.5313597 -2.8205228 0.84537196 0
4.4841681 -2.8107324 0.64980739 0
4.5119395 -2.8292372 0.84349471 0
4.4815359 -2.8298264 0.65078235 0
4.503706 -2.8460245 0.84380758 0
4.4565582 -2.835861 0.64858866 0
4.5004096 -2.8659728 0.8450591 0
4.4366059 -2.8449707 0.64712632 0
4.4887152 -2.8805976 0.84474617 0
4.4333172 -2.8647499 0.64810121 0
4.4719977 -2.8919582 0.84349471 0
4.4316072 -2.8856232 0.64931989 0
4.4585657 -2.9053936 0.84286904 0
4.4148688 -2.896719 0.64834493 0
4.4500484 -2.9220238 0.84318191 0
4.4431157 -2.939719 0.84380758 0
4.4246092 -2.9497321 0.84224325 0
