# .PCD v0.7 - Point Cloud Data file format
VERSION 0.7
FIELDS x y z rgba
SIZE 4 4 4 4
TYPE F F F U
COUNT 1 1 1 1
WIDTH 324
HEIGHT 1
VIEWPOINT 0 0 0 1 0 0 0
POINTS 324
DATA ascii
4.9715834 -1.8272165 0.27758995 0
4.9812498 -1.8485526 0.092742085 0
4.9445801 -1.8369085 0.27643853 0
4.9060602 -1.8255223 0.64273894 0
4.9822559 -1.8687382 0.092881702 0
4.949357 -1.8583694 0.27706659 0
4.9388318 -1.8554009 0.46157682 0
4.8978009 -1.8419379 0.64249521 0
4.9775729 -1.8868272 0.092916615 0
4.9447074 -1.8763434 0.27717125 0
4.9118352 -1.8648502 0.45965937 0
4.9043303 -1.8639599 0.6442014 0
4.8593707 -1.8488139 0.82347113 0
4.9634867 -1.9013293 0.092776999 0
4.9421878 -1.8941597 0.27738059 0
4.9052958 -1.8819844 0.45965937 0
4.8922348 -1.8789327 0.64347017 0
4.8569012 -1.8663352 0.82409686 0
4.9571543 -1.9177784 0.092776999 0
4.9429955 -1.9142848 0.27779928 0
4.906127 -1.9019762 0.46035662 0
4.8841267 -1.8944277 0.64322644 0
4.8614054 -1.8875673 0.82597405 0
4.9616041 -1.9394383 0.09298642 0
4.9288435 -1.928616 0.27738059 0
4.9090695 -1.9218669 0.46122819 0
4.8774838 -1.9114649 0.64322644 0
4.8547869 -1.9045254 0.82597405 0
4.9585242 -1.9582149 0.093056232 0
4.9183674 -1.9443409 0.27717125 0
4.9075508 -1.942046 0.46175113 0
4.881856 -1.9328635 0.6446889 0
4.8407636 -1.9185486 0.82472259 0
4.9605999 -1.9800824 0.093230762 0
4.9316087 -1.9705061 0.27832264 0
4.8933415 -1.9562063 0.46105388 0
4.885797 -1.9551685 0.6461513 0
4.8392005 -1.9384818 0.82566124 0
4.9425306 -1.9928991 0.093021333 0
4.9339609 -1.9914465 0.278846 0
4.8883309 -1.9740214 0.46122819 0
4.8734217 -1.9699795 0.64542013 0
4.8397288 -1.9583257 0.8269127 0
4.9355435 -2.0101397 0.093021333 0
4.9269791 -2.0086572 0.278846 0
4.8906341 -1.9948351 0.46209973 0
4.8628392 -1.985478 0.64493263 0
4.8438354 -1.9796917 0.82878989 0
4.9395928 -2.03192 0.093230762 0
4.9070101 -2.02052 0.27811331 0
4.8891678 -2.0141714 0.46262267 0
4.8558793 -2.0024405 0.64493263 0
4.8332429 -1.9950802 0.82816416 0
4.9417033 -2.0529859 0.093405277 0
4.9054599 -2.039937 0.2784273 0
4.8857861 -2.0327563 0.4629713 0
4.8561897 -2.0224309 0.64590758 0
4.8226027 -2.0104191 0.82753843 0
4.9455709 -2.0748651 0.093614712 0
4.9111991 -2.0624611 0.27916002 0
4.8731503 -2.047483 0.46244836 0
4.8564196 -2.0424483 0.64688253 0
4.8228383 -2.0303068 0.82878989 0
4.9254093 -2.0866551 0.093370378 0
4.908011 -2.0802948 0.27936935 0
4.8659739 -2.064481 0.46244836 0
4.8529148 -2.0609398 0.64736998 0
4.8215337 -2.0486059 0.82972854 0
4.911108 -2.0998325 0.093230762 0
4.9062281 -2.099772 0.27968338 0
4.8587379 -2.0814538 0.46244836 0
4.84058 -2.0746753 0.64663881 0
4.8197989 -2.0677605 0.83066714 0
4.9147635 -2.1217179 0.093440183 0
4.8937373 -2.1136541 0.27936935 0
4.8774118 -2.1086233 0.46488872 0
4.8333087 -2.0915594 0.64663881 0
4.8201671 -2.0868716 0.8319186 0
4.9187002 -2.142796 0.093649611 0
4.8863297 -2.1307237 0.27936935 0
4.8718476 -2.1264331 0.46506307 0
4.8336234 -2.1107535 0.6476137 0
4.8038025 -2.0997281 0.83035421 0
4.9148521 -2.1615627 0.093719423 0
4.8861737 -2.150986 0.27978805 0
4.8611226 -2.1409707 0.46471441 0
4.8407574 -2.1340191 0.64956367 0
4.8000584 -2.1180787 0.83098 0
4.898138 -2.1746483 0.0935449 0
4.8877616 -2.1720841 0.28031141 0
4.8496017 -2.1571536 0.46436578 0
4.8296514 -2.1492896 0.64907616 0
4.7998533 -2.1380365 0.83223146 0
4.8974333 -2.195859 0.093684517 0
4.8837943 -2.1907673 0.28052074 0
4.8511305 -2.1781492 0.46523735 0
4.8253627 -2.1686039 0.64956367 0
4.8013697 -2.1588283 0.83379585 0
4.9010568 -2.2170324 0.093893945 0
4.8742976 -2.2069778 0.28041607 0
4.8598304 -2.2024717 0.46680617 0
4.8145289 -2.1829541 0.64907616 0
4.7992015 -2.1780241 0.83473444 0
4.8987451 -2.236618 0.093998663 0
4.8701978 -2.2256393 0.28062543 0
4.850688 -2.2177467 0.46663183 0
4.8213205 -2.2063553 0.65102613 0
4.7825894 -2.19065 0.83317006 0
4.8945403 -2.2553782 0.094068475 0
4.8714671 -2.2468081 0.28114879 0
4.8465357 -2.2363348 0.46698046 0
4.8153915 -2.2240033 0.65126985 0
4.7784996 -2.2089889 0.83379585 0
4.879385 -2.2690766 0.093928859 0
4.8654051 -2.2646418 0.28125346 0
4.8314753 -2.2498746 0.46628323 0
4.8129964 -2.2433145 0.65200108 0
4.7779202 -2.228996 0.8350473 0
4.8804855 -2.2903428 0.094103374 0
4.8610864 -2.2833097 0.28146279 0
4.8362145 -2.2726574 0.4675034 0
4.7943592 -2.2550321 0.65053862 0
4.7808337 -2.2507088 0.83692449 0
4.8833051 -2.3125 0.094312809 0
4.8458676 -2.2968426 0.28104413 0
4.8390532 -2.294647 0.46854928 0
4.7900453 -2.2734561 0.65102613 0
4.7693796 -2.2656879 0.83629876 0
4.8788118 -2.3312562 0.094382621 0
4.8468289 -2.3180523 0.28156745 0
4.8256226 -2.3089447 0.46802634 0
4.7964025 -2.2970219 0.65297598 0
4.7614422 -2.2823226 0.83629876 0
4.8742471 -2.3500092 0.094452426 0
4.8445125 -2.3367152 0.28188148 0
4.817533 -2.3257751 0.46802634 0
4.7919307 -2.3154778 0.65346348 0
4.7574043 -2.299819 0.83692449 0
4.8556366 -2.360913 0.09424299 0
4.8488975 -2.3597295 0.28261417 0
4.8111763 -2.3434498 0.46820062 0
4.793148 -2.3357036 0.65468216 0
4.7582245 -2.3207412 0.83848882 0
4.8617287 -2.3848937 0.094522238 0
4.8460093 -2.3792815 0.2829282 0
4.8087435 -2.3620267 0.46872357 0
4.7778397 -2.3489175 0.65370721 0
4.7571845 -2.3408248 0.83974028 0
4.8462057 -2.3983023 0.094382621 0
4.8305154 -2.3926368 0.28250951 0
4.8147511 -2.385875 0.47011805 0
4.7731681 -2.3673446 0.65419465 0
4.7542925 -2.3600514 0.84067887 0
4.8700085 -2.4312811 0.095010899 0
4.8221345 -2.4094837 0.28250951 0
4.809958 -2.404449 0.4704667 0
4.775527 -2.3893213 0.65565711 0
4.7460256 -2.3766325 0.84067887 0
4.8579202 -2.4464672 0.094941087 0
4.8226123 -2.4307969 0.28303289 0
4.7944193 -2.4176357 0.46976945 0
4.7866521 -2.4158151 0.65833825 0
4.7377005 -2.3931847 0.84067887 0
4.8422194 -2.4597869 0.094801471 0
4.8163052 -2.4476802 0.28313756 0
4.7930546 -2.4379699 0.4704667 0
4.7675757 -2.4271052 0.65687585 0
4.7402997 -2.4142613 0.84255612 0
4.8304763 -2.4740076 0.094731666 0
4.8134947 -2.4663708 0.28345159 0
4.7849436 -2.453851 0.4704667 0
4.7559686 -2.4410889 0.65638834 0
4.7392964 -2.4335766 0.84380758 0
4.8364596 -2.4973521 0.095010899 0
4.8013067 -2.4813237 0.28324223 0
4.7944779 -2.4788551 0.47220981 0
4.7513738 -2.4586713 0.65687585 0
4.7342815 -2.4519219 0.84443337 0
4.845449 -2.5234561 0.095359951 0
4.7997007 -2.501761 0.28366089 0
4.78403 -2.4946547 0.4720355 0
4.7533216 -2.4807527 0.65833825 0
4.7204409 -2.4656889 0.84349471 0
4.8330703 -2.5384946 0.095290139 0
4.7980103 -2.5222173 0.28407961 0
4.7717657 -2.5094843 0.47168687 0
4.7621994 -2.5065758 0.66077566 0
4.713553 -2.4830718 0.84380758 0
4.8237338 -2.5561914 0.095290139 0
4.8010855 -2.5463367 0.2848123 0
4.7660565 -2.5288243 0.4720355 0
4.7564864 -2.5258749 0.66126311 0
4.7183747 -2.5077481 0.84631056 0
4.809042 -2.5710261 0.095185429 0
4.8009729 -2.5677898 0.28533566 0
4.7637815 -2.5500369 0.47273275 0
4.7384481 -2.5386043 0.66004443 0
4.7200389 -2.5298021 0.8481878 0
4.8075314 -2.590754 0.095325045 0
4.7761598 -2.576 0.28439364 0
4.7758908 -2.5780072 0.47482449 0
4.7247634 -2.5514739 0.6593132 0
4.7111797 -2.5462625 0.8481878 0
4.8160291 -2.6170671 0.095674098 0
4.774157 -2.596473 0.2848123 0
4.7638154 -2.5919259 0.47447586 0
4.7315187 -2.5764949 0.66150689 0
4.7022624 -2.5626924 0.8481878 0
4.8173862 -2.6396279 0.095883526 0
4.7808256 -2.6217649 0.28575432 0
4.7529917 -2.6075804 0.47430155 0
4.7381563 -2.601594 0.66370046 0
4.6932883 -2.5790906 0.8481878 0
4.7976408 -2.6506255 0.095674098 0
4.778636 -2.6423032 0.28617305 0
4.7473474 -2.6260843 0.47465014 0
4.7255731 -2.6161942 0.66321301 0
4.6911688 -2.599287 0.84943926 0
4.7883592 -2.6673563 0.095674098 0
4.7763615 -2.6628578 0.28659174 0
4.743372 -2.6455514 0.47517309 0
4.7112122 -2.6297712 0.66248184 0
4.6958632 -2.6233537 0.85194218 0
4.7912245 -2.6909091 0.095918424 0
4.7570577 -2.6728125 0.28596368 0
4.7480016 -2.6699049 0.4765676 0
4.7054639 -2.6481473 0.66296923 0
4.6888595 -2.6398807 0.85225511 0
4.792716 -2.7126927 0.09612786 0
4.7499061 -2.6895566 0.28606835 0
4.7391219 -2.6856353 0.4765676 0
4.7121964 -2.6725504 0.66516292 0
4.6783609 -2.6544399 0.85194218 0
4.7906418 -2.7325337 0.096267477 0
4.750896 -2.7120619 0.2866964 0
4.7319198 -2.7023242 0.47674191 0
4.7136493 -2.6940722 0.66662538 0
4.6690669 -2.6707542 0.85194218 0
4.7776074 -2.747246 0.096197665 0
4.7604423 -2.7395871 0.28784779 0
4.7340689 -2.7266097 0.47796208 0
4.705936 -2.7115006 0.6668691 0
4.6716943 -2.6939435 0.85413224 0
4.7640467 -2.7627323 0.09612786 0
4.7555509 -2.7600243 0.28816178 0
4.7245226 -2.7431183 0.47796208 0
4.6839519 -2.7217493 0.66516292 0
4.6771574 -2.719985 0.85694808 0
4.766458 -2.7864094 0.096372187 0
4.7372684 -2.771565 0.28763846 0
4.7127175 -2.7594094 0.47778779 0
4.6915517 -2.7481158 0.66760033 0
4.6710434 -2.7382934 0.85757387 0
4.7687626 -2.810137 0.096616521 0
4.7344465 -2.7921419 0.28805712 0
4.7327132 -2.792233 0.48075107 0
4.6887679 -2.768513 0.66857523 0
4.6495519 -2.7475471 0.85538375 0
4.758924 -2.8267658 0.096616521 0
4.7435565 -2.8198781 0.28920853 0
4.714375 -2.8036444 0.4798795 0
4.6910162 -2.79197 0.67028147 0
4.6467214 -2.7678037 0.85663521 0
4.7507434 -2.8443875 0.096651427 0
4.7371101 -2.8384719 0.28941786 0
4.7045598 -2.8200834 0.4798795 0
4.6795392 -2.8073063 0.67003769 0
4.643806 -2.7880745 0.85788667 0
4.7407856 -2.8609533 0.096651427 0
4.7305932 -2.8570552 0.28962722 0
4.7032137 -2.84164 0.48075107 0
4.6663141 -2.8215694 0.66955024 0
4.6492558 -2.8134716 0.86070251 0
4.7427297 -2.8847587 0.096895754 0
4.7142677 -2.8685744 0.28920853 0
4.7068791 -2.8663301 0.48214555 0
4.6598268 -2.8399067 0.67003769 0
4.6432734 -2.8309302 0.86132824 0
4.7416625 -2.9056945 0.097070284 0
4.7110367 -2.8891892 0.28962722 0
4.7019396 -2.8858695 0.48266849 0
4.6672997 -2.8657305 0.6724751 0
4.6283145 -2.8440182 0.86038971 0
4.7382965 -2.9264314 0.097209901 0
4.7145138 -2.9140167 0.29046458 0
4.6821766 -2.895159 0.48162264 0
4.6741486 -2.892451 0.67491245 0
4.621717 -2.862237 0.86101538 0
4.7246571 -2.94084 0.097140096 0
4.7195702 -2.9399602 0.29140663 0
4.6804967 -2.9167535 0.48249418 0
4.6572862 -2.9045472 0.6739375 0
4.6251049 -2.8867197 0.86351836 0
4.7194448 -2.9605017 0.097244807 0
4.7047195 -2.9524095 0.2910926 0
4.6753478 -2.9362531 0.48301712 0
4.6487994 -2.9218423 0.67418122 0
4.6255393 -2.90835 0.86539555 0
4.7197442 -2.9825454 0.097454235 0
4.6943855 -2.9688139 0.2910926 0
4.6869564 -2.9664066 0.48528317 0
4.6357307 -2.9351192 0.67369378 0
4.625371 -2.9308224 0.86727273 0
4.7177382 -3.0043728 0.097628765 0
4.6890464 -2.9884028 0.29140663 0
4.6854935 -2.9872882 0.48615471 0
4.6421914 -2.9619606 0.67613119 0
4.6134477 -2.9458864 0.86695993 0
4.713954 -3.0251427 0.097768381 0
4.6920304 -3.0133865 0.29224399 0
4.6678085 -3.0001326 0.48545748 0
4.6501908 -2.9899561 0.67881227 0
4.6031365 -2.9619727 0.86695993 0
4.6961184 -3.0380549 0.097628765 0
4.689867 -3.0351722 0.29276738 0
4.6639967 -3.0207403 0.48615471 0
4.63587 -3.0048208 0.67832482 0
4.6060286 -2.9866202 0.86946285 0
4.6567612 -3.03918 0.48650333 0
4.6225557 -3.0180068 0.67783737 0
4.60219 -3.0070024 0.87071437 0
4.6169677 -3.0373971 0.67856854 0
4.5966148 -3.0263071 0.8716529 0
4.5777936 -3.0368738 0.87008858 0
