# .PCD v0.7 - Point Cloud Data file format
VERSION 0.7
FIELDS x y z rgba
SIZE 4 4 4 4
TYPE F F F U
COUNT 1 1 1 1
WIDTH 369
HEIGHT 1
VIEWPOINT 0 0 0 1 0 0 0
POINTS 369
DATA ascii
4.5453992 -2.0227916 0.26073778 0
4.5384431 -2.0577741 0.26115644 0
4.5348649 -2.0752661 0.2613658 0
4.5560546 -2.0859246 0.43839338 0
4.5348463 -2.0944326 0.26178449 0
4.5293174 -2.111093 0.26188916 0
4.5504098 -2.121891 0.43926495 0
4.5146918 -2.1234903 0.26147047 0
4.5498128 -2.1419494 0.43996218 0
4.512291 -2.1425934 0.26178449 0
4.53511 -2.1543984 0.43926495 0
4.5625687 -2.1693952 0.62031502 0
4.5083866 -2.1600568 0.26199383 0
4.5257645 -2.1693544 0.43909061 0
4.5621276 -2.1887431 0.62128997 0
4.5209808 -2.1845539 0.26314521 0
4.5145774 -2.1834042 0.43874201 0
4.5383787 -2.1968703 0.61909634 0
4.5155067 -2.2004089 0.26324987 0
4.5144758 -2.2018569 0.43943924 0
4.5292845 -2.2110369 0.61885256 0
4.4970441 -2.2108705 0.26262185 0
4.5214515 -2.2238498 0.44083372 0
4.5201473 -2.225168 0.61860883 0
4.494278 -2.2300012 0.26293588 0
4.5275474 -2.247494 0.44222823 0
4.5261827 -2.2487862 0.62055874 0
4.5474682 -2.2613411 0.80438608 0
4.4971828 -2.2510397 0.2635639 0
4.4961224 -2.2524717 0.43996218 0
4.5250082 -2.2689195 0.62153369 0
4.539547 -2.2772009 0.80438608 0
4.4928632 -2.2685244 0.26377326 0
4.4882321 -2.2681525 0.43996218 0
4.5227747 -2.2865996 0.62226492 0
4.5298076 -2.2921412 0.80407327 0
4.4924355 -2.2870352 0.26419193 0
4.5037637 -2.2947824 0.44222823 0
4.50946 -2.2996674 0.62153369 0
4.5362587 -2.3143318 0.80657619 0
4.4755411 -2.2981412 0.26366857 0
4.5081306 -2.3168643 0.44344842 0
4.5035744 -2.3155165 0.62177742 0
4.5316653 -2.33196 0.80720192 0
4.5313797 -2.3328133 0.9906804 0
4.4674921 -2.3137496 0.26366857 0
4.4964776 -2.3307526 0.44309977 0
4.5073919 -2.3384063 0.6234836 0
4.5147309 -2.3432143 0.8056376 0
4.5280256 -2.3521211 0.99182522 0
4.4664693 -2.3330288 0.26408726 0
4.4794865 -2.3418188 0.44222823 0
4.5119257 -2.3597803 0.62518978 0
4.5047746 -2.3580432 0.80532473 0
4.5254188 -2.3698559 0.99297011 0
4.4710793 -2.3543415 0.26481998 0
4.4893222 -2.3659499 0.44397137 0
4.5019054 -2.3745897 0.62494606 0
4.5074124 -2.3785 0.80720192 0
4.5014944 -2.3773863 0.98953551 0
4.45225 -2.3643136 0.26419193 0
4.4739985 -2.3778656 0.44327411 0
4.4834895 -2.3839138 0.6234836 0
4.516521 -2.4034994 0.81033063 0
4.5057168 -2.3987589 0.99220681 0
4.459816 -2.3883269 0.26513401 0
4.473114 -2.3964527 0.44397137 0
4.4768906 -2.4004874 0.62372732 0
4.5081034 -2.4192502 0.81033063 0
4.5042348 -2.4181867 0.99373329 0
4.4444222 -2.4000835 0.26471528 0
4.4713111 -2.4166205 0.44466859 0
4.478961 -2.4217651 0.62518978 0
4.492682 -2.4312112 0.80907917 0
4.5056996 -2.4402893 0.996023 0
4.4535575 -2.4251344 0.265762 0
4.4523516 -2.4264932 0.44362271 0
4.4892249 -2.4486215 0.62787092 0
4.4807 -2.4449861 0.80845338 0
4.5006003 -2.4578843 0.9967863 0
4.4250431 -2.4276617 0.088099748 0
4.446816 -2.4416268 0.2658667 0
4.4473472 -2.4439387 0.44397137 0
4.4758615 -2.4606254 0.62713969 0
4.4807916 -2.4653733 0.81001776 0
4.4855447 -2.4690082 0.99525976 0
4.4200416 -2.445029 0.088169552 0
4.4435086 -2.4600363 0.26618072 0
4.4444466 -2.4615695 0.44449428 0
4.4672451 -2.4762342 0.62713969 0
4.4842505 -2.4877071 0.81220788 0
4.4803324 -2.4865561 0.996023 0
4.4132261 -2.4614172 0.088204466 0
4.4244308 -2.4696913 0.26555267 0
4.4532228 -2.4867823 0.44623742 0
4.4533758 -2.4889073 0.62640852 0
4.4824352 -2.5072021 0.81345934 0
4.4784784 -2.5060153 0.99754947 0
4.4237804 -2.4875884 0.088588417 0
4.4192634 -2.4870791 0.265762 0
4.4445148 -2.5023119 0.44623742 0
4.4636841 -2.5151567 0.62908959 0
4.4616117 -2.5160415 0.81126922 0
4.4799633 -2.5274208 0.99983919 0
4.4133306 -2.5020289 0.088553511 0
4.4244523 -2.5103753 0.26659939 0
4.4409513 -2.5207613 0.44676036 0
4.4686861 -2.5385668 0.63103956 0
4.4562359 -2.5335524 0.81189495 0
4.4745264 -2.5449846 1.0006025 0
4.3976259 -2.5134501 0.088413894 0
4.4195709 -2.5270164 0.26680872 0
4.4321251 -2.5362477 0.44676036 0
4.4563527 -2.552177 0.63055205 0
4.4615221 -2.5561719 0.81439793 0
4.4622092 -2.5586352 0.99983919 0
4.3961978 -2.5320113 0.088553511 0
4.4141836 -2.5444229 0.26701808 0
4.4353261 -2.5586727 0.44798052 0
4.4409871 -2.5629721 0.6295771 0
4.4594145 -2.5756822 0.81564939 0
4.4587994 -2.5763645 1.0009841 0
4.3942504 -2.551358 0.088693127 0
4.4018211 -2.5578091 0.26680872 0
4.4354286 -2.578373 0.44885206 0
4.432014 -2.5784581 0.6295771 0
4.460639 -2.5971963 0.81752664 0
4.4514756 -2.5929012 1.0013657 0
4.3991241 -2.5747621 0.088972367 0
4.3997602 -2.5771966 0.26722744 0
4.4345431 -2.5996506 0.44972363 0
4.4418221 -2.6049592 0.63225818 0
4.4447312 -2.6087513 0.81627518 0
4.4520993 -2.6151655 1.0036553 0
4.3931017 -2.5929012 0.089042179 0
4.4040418 -2.6014316 0.2680648 0
4.4185805 -2.6110597 0.44902641 0
4.4373703 -2.6242533 0.63298941 0
4.4351401 -2.6250243 0.81627518 0
4.4513903 -2.6356919 1.0055635 0
4.3754311 -2.6031082 0.088867649 0
4.4069467 -2.6239407 0.26879749 0
4.4111509 -2.6274869 0.44920069 0
4.4298882 -2.6407433 0.63323313 0
4.4395213 -2.6485865 0.8187781 0
4.4371057 -2.6481955 1.0044186 0
4.3611732 -2.6152802 0.088762946 0
4.3947959 -2.6364856 0.26858816 0
4.4070768 -2.6459458 0.44972363 0
4.413837 -2.6521008 0.63225818 0
4.4442582 -2.6714358 0.82128108 0
4.4278345 -2.6636679 1.0044186 0
4.3678803 -2.6390345 0.089077078 0
4.3787293 -2.6476762 0.26816946 0
4.4080415 -2.6675019 0.45076951 0
4.4101124 -2.669807 0.63298941 0
4.4349065 -2.6869326 0.82128108 0
4.4307294 -2.6854594 1.00709 0
4.3740134 -2.663626 0.089391224 0
4.3779879 -2.6681418 0.26869282 0
4.4008722 -2.6831422 0.4509438 0
4.4126282 -2.6924224 0.63469559 0
4.4153848 -2.6962204 0.81940383 0
4.4380822 -2.7111437 1.0109061 0
4.3715062 -2.6830621 0.089530841 0
4.3737535 -2.6865437 0.26900685 0
4.3914795 -2.6984875 0.4509438 0
4.4099665 -2.7119687 0.63567054 0
4.4059463 -2.7116163 0.81940383 0
4.4302635 -2.7276483 1.0112877 0
4.3502092 -2.6909411 0.089286514 0
4.3728399 -2.707051 0.26953021 0
4.3803396 -2.7127514 0.45076951 0
4.4021606 -2.7283916 0.63591433 0
4.4031692 -2.7311447 0.82065529 0
4.4090376 -2.7358503 1.0086164 0
4.3441834 -2.708226 0.089356326 0
4.3718371 -2.7275848 0.27005357 0
4.3877459 -2.7385745 0.45251262 0
4.3926101 -2.7437418 0.63591433 0
4.4137092 -2.7590628 0.82440978 0
4.4094486 -2.7574699 1.0109061 0
4.3487263 -2.7311254 0.089635558 0
4.3560038 -2.7378159 0.26963487 0
4.3853869 -2.7573516 0.45320985 0
4.3834877 -2.7582929 0.63591433 0
4.4078784 -2.7757893 0.82503545 0
4.4102468 -2.7783556 1.0131959 0
4.3459253 -2.7505655 0.089775175 0
4.354857 -2.7583482 0.27015823 0
4.374052 -2.7715766 0.45303556 0
4.3905969 -2.7842081 0.63835168 0
4.3914909 -2.7869244 0.82378399 0
4.4104662 -2.8000467 1.0154855 0
4.3379836 -2.7667944 0.089810088 0
4.3519354 -2.7778308 0.27057692 0
4.371068 -2.7911165 0.45373279 0
4.382524 -2.8005857 0.6385954 0
4.3883924 -2.8064938 0.82503545 0
4.4006653 -2.8154252 1.0154855 0
4.3198881 -2.7765143 0.089635558 0
4.353971 -2.8005681 0.27130961 0
4.3562722 -2.8031232 0.45320985 0
4.3760595 -2.8180161 0.63908291 0
4.3885322 -2.8282156 0.8269127 0
4.3908105 -2.8307693 1.0154855 0
4.3168836 -2.7959247 0.089775175 0
4.3475208 -2.8179224 0.27151898 0
4.3648491 -2.8302357 0.45512727 0
4.3578701 -2.8278713 0.63786417 0
4.3869166 -2.848897 0.82847708 0
4.3171453 -2.8175337 0.089984603 0
4.3343134 -2.8308964 0.27130961 0
4.3616147 -2.8498142 0.45582449 0
4.3546176 -2.8474119 0.63883913 0
4.3835568 -2.8685191 0.82972854 0
4.5258098 -2.9661212 -0.094452426 0
4.3239918 -2.8435738 0.090333655 0
4.3249021 -2.8452539 0.27130961 0
4.3566327 -2.8683083 0.45634744 0
4.3612285 -2.8735166 0.64127654 0
4.3690724 -2.8797781 0.82878989 0
4.4925842 -2.9656894 -0.093963757 0
4.317873 -2.8601058 0.090403467 0
4.3299265 -2.870265 0.27225167 0
4.3366327 -2.8768899 0.45530161 0
4.3649077 -2.8967447 0.64322644 0
4.3655753 -2.8993828 0.83004135 0
4.4655547 -2.970279 -0.093614712 0
4.297883 -2.8684995 0.090194039 0
4.3281856 -2.8909082 0.27277502 0
4.3336949 -2.8956826 0.45599884 0
4.3547697 -2.911963 0.64322644 0
4.3619947 -2.918999 0.83129281 0
4.4319038 -2.9702625 -0.093126044 0
4.2944818 -2.8879483 0.090333655 0
4.3246956 -2.9104593 0.27319372 0
4.334621 -2.9193377 0.45721903 0
4.3412852 -2.9249275 0.64273894 0
4.3583302 -2.9386241 0.83254427 0
4.3187594 -2.9163315 -0.090961948 0
4.2904887 -2.9081569 0.090473272 0
4.3095503 -2.9221749 0.27287969 0
4.3425393 -2.9467566 0.45913643 0
4.3338203 -2.9430504 0.64322644 0
4.3578501 -2.96048 0.83442152 0
4.2821007 -2.9133911 -0.090403467 0
4.3006401 -2.9358983 0.090892136 0
4.3009734 -2.9383268 0.27298436 0
4.3207135 -2.9540257 0.45791626 0
4.3420606 -2.9697328 0.64590758 0
4.3442297 -2.9734426 0.83379585 0
4.2636576 -2.9226675 -0.090228938 0
4.2936611 -2.9531589 0.090961948 0
4.3043694 -2.9616303 0.27382174 0
4.3207397 -2.975117 0.45896214 0
4.3365717 -2.9882505 0.64663881 0
4.3327188 -2.9867103 0.83348292 0
4.2572341 -2.9390626 -0.09029875 0
4.2854886 -2.9685197 0.090996847 0
4.3054948 -2.9846022 0.27455446 0
4.307054 -2.9879098 0.45861349 0
4.3266387 -3.0026145 0.64663881 0
4.3320017 -3.0085776 0.83536011 0
4.2600808 -2.9630394 -0.09057799 0
4.2783804 -2.9857495 0.091066658 0
4.3032374 -3.005331 0.27507779 0
4.3052883 -3.0078816 0.45948508 0
4.3112507 -3.0142868 0.64590758 0
4.329566 -3.0293431 0.83692449 0
4.2595387 -2.9847777 -0.090787418 0
4.2630243 -2.9972153 0.090961948 0
4.2829199 -3.0134385 0.2744498 0
4.3072677 -3.0328171 0.46087953 0
4.3055711 -3.0327468 0.64663881 0
4.331882 -3.0535421 0.83942741 0
4.2474604 -2.9984744 -0.090752512 0
4.2813792 -3.0336297 0.091590226 0
4.2816219 -3.0360472 0.27507779 0
4.3015304 -3.0512922 0.46140248 0
4.3057575 -3.0565505 0.64834493 0
4.3142195 -3.0648229 0.83817595 0
4.2331829 -3.0117037 -0.0906827 0
4.2789021 -3.0543652 0.091764756 0
4.2823744 -3.0591011 0.27581054 0
4.287611 -3.0639722 0.46105388 0
4.3095942 -3.0819547 0.65053862 0
4.3067074 -3.0821631 0.83880174 0
4.2323966 -3.0334513 -0.090892136 0
4.2568498 -3.0611103 0.091520421 0
4.2803135 -3.0791166 0.27633387 0
4.2768898 -3.0789199 0.46105388 0
4.3004203 -3.0981393 0.65078235 0
4.3060784 -3.1033571 0.84067887 0
4.2320428 -3.0544915 -0.091101564 0
4.2499142 -3.0775552 0.091590226 0
4.2760077 -3.0987272 0.27675256 0
4.2822452 -3.1055274 0.46279699 0
4.2869096 -3.1100519 0.6502949 0
4.3016138 -3.1230116 0.84193045 0
4.2278242 -3.0739491 -0.091241181 0
4.25207 -3.1018 0.091869473 0
4.2651653 -3.1136341 0.27675256 0
4.2864041 -3.1302857 0.46436578 0
4.2776299 -3.126168 0.65053862 0
4.3034415 -3.1473372 0.84443337 0
4.226748 -3.095778 -0.091450609 0
4.2476625 -3.1213593 0.09200909 0
4.2574892 -3.1308699 0.27696192 0
4.2850804 -3.1523128 0.46541166 0
4.2762828 -3.1481421 0.65200108 0
4.2940192 -3.1635113 0.84474617 0
4.2094793 -3.1057646 -0.091310993 0
4.2367411 -3.1361675 0.09200909 0
4.2545581 -3.1516562 0.27748525 0
4.2692485 -3.163693 0.46488872 0
4.2796187 -3.1736915 0.65419465 0
4.2861238 -3.1808352 0.84537196 0
4.2050323 -3.1252105 -0.091450609 0
4.2289739 -3.1533284 0.092078894 0
4.2595387 -3.1784329 0.27853197 0
4.2645669 -3.1833434 0.46558598 0
4.2764659 -3.1945515 0.65541339 0
4.2844872 -3.2028737 0.84724921 0
4.2069039 -3.1494572 -0.091729842 0
4.2243366 -3.1728747 0.092218518 0
4.2505722 -3.1937404 0.27863666 0
4.2566133 -3.2006049 0.46593457 0
4.262116 -3.207072 0.65492588 0
4.2817335 -3.2230036 0.84881347 0
4.206018 -3.1706131 -0.091939278 0
4.2201719 -3.1916909 0.092358135 0
4.239398 -3.2085583 0.27863666 0
4.2517676 -3.2202554 0.46663183 0
4.2562051 -3.2247846 0.65565711 0
4.2783275 -3.2438977 0.85037786 0
4.2169585 -3.2124612 0.092532657 0
4.2345252 -3.2281802 0.27905536 0
4.2505713 -3.2415862 0.46767771 0
4.2559686 -3.2480521 0.6573633 0
4.2168241 -3.2356832 0.092776999 0
4.2263994 -3.2453752 0.27926469 0
4.2355022 -3.2547157 0.46732911 0
4.2603431 -3.2749867 0.65980065 0
4.2602739 -3.2773004 0.85131645 0
4.1922803 -3.2413316 0.092497751 0
4.2292638 -3.2711048 0.28020674 0
4.2304177 -3.2743585 0.46802634 0
4.2545886 -3.2954421 0.66077566 0
4.2597384 -3.3006208 0.85350657 0
4.2209706 -3.2883029 0.28041607 0
4.2299614 -3.2976801 0.46924651 0
4.2405062 -3.307091 0.66028816 0
4.241962 -3.3106084 0.85225511 0
4.2094669 -3.3030169 0.28041607 0
4.233108 -3.3227611 0.47081533 0
4.232059 -3.3243256 0.66077566 0
4.2350392 -3.3290579 0.8531937 0
4.2010455 -3.3201675 0.28062543 0
4.2261724 -3.341224 0.47133827 0
4.2344398 -3.350163 0.66296923 0
4.2113662 -3.3534737 0.47098961 0
4.2242723 -3.3661609 0.66321301 0
4.1980805 -3.3669071 0.47081533 0
4.2208285 -3.3863616 0.66443169 0
4.2008433 -3.3920748 0.4723841 0
4.20435 -3.3973315 0.66370046 0
4.2001634 -3.4182518 0.6649192 0
4.2020235 -3.4442182 0.66711289 0
