# .PCD v0.7 - Point Cloud Data file format
VERSION 0.7
FIELDS x y z rgba
SIZE 4 4 4 4
TYPE F F F U
COUNT 1 1 1 1
WIDTH 644
HEIGHT 1
VIEWPOINT 0 0 0 1 0 0 0
POINTS 644
DATA ascii
3.4084671 -1.9268473 -0.068343624 0
3.4036968 -1.9312123 0.068308719 0
3.4061606 -1.9333961 0.20526163 0
3.4352951 -1.951519 0.34565967 0
3.41168 -1.9396795 0.48187143 0
3.4289868 -1.9503111 0.62479931 0
3.4260354 -1.9502155 0.766289 0
3.4094257 -1.9494369 0.068553053 0
3.3935385 -1.9490073 -0.068308719 0
3.4036477 -1.9635129 0.068587959 0
3.3988156 -1.9623071 0.20568034 0
3.4057148 -1.967083 0.34409088 0
3.4148989 -1.9739774 0.48430881 0
3.4009194 -1.9674808 0.62229639 0
3.4102933 -1.9736984 0.76590741 0
3.3860297 -1.9620231 -0.068308719 0
3.3794861 -1.9653286 0.068238907 0
3.3953974 -1.9761684 0.20588967 0
3.3884966 -1.9729439 0.343045 0
3.402842 -1.9828875 0.48357758 0
3.3974435 -1.9813305 0.62292212 0
3.3864253 -1.9756969 0.76209116 0
3.3757067 -1.9718136 -0.068238907 0
3.3639798 -1.9720571 0.068064384 0
3.3798654 -1.9829553 0.20536631 0
3.385026 -1.9867772 0.34339362 0
3.3839185 -1.9877155 0.48187143 0
3.388804 -1.9921767 0.62260926 0
3.3761237 -1.9855154 0.76132792 0
3.3756962 -1.9876432 -0.06837853 0
3.3656831 -1.988874 0.068238907 0
3.3660464 -1.9906741 0.20494762 0
3.3883586 -2.004668 0.34443948 0
3.3786674 -2.0005269 0.48211515 0
3.3835287 -2.0050006 0.62292212 0
3.3742387 -2.0002913 0.76247281 0
3.3687372 -1.9994147 -0.06837853 0
3.3621566 -2.0026569 0.068308719 0
3.3556461 -2.0003667 0.20473827 0
3.3813403 -2.0164833 0.34443948 0
3.3733685 -2.0133257 0.4823589 0
3.3612466 -2.0076826 0.62010628 0
3.3706062 -2.0140715 0.76323599 0
3.3411453 -1.998842 -0.067959674 0
3.3465731 -2.0092347 0.068134196 0
3.3606269 -2.0192683 0.20547098 0
3.3554969 -2.0169833 0.34252208 0
3.371423 -2.0281587 0.48309013 0
3.3559101 -2.020422 0.62041914 0
3.3635554 -2.0258248 0.76323599 0
3.3324349 -2.0094602 -0.067924768 0
3.332696 -2.0167627 0.067994572 0
3.3556211 -2.0314357 0.20557566 0
3.3518441 -2.0307484 0.34287068 0
3.3558359 -2.0347686 0.48187143 0
3.3525696 -2.0335889 0.62104493 0
3.3447161 -2.0304222 0.76056474 0
3.3325889 -2.024653 -0.068064384 0
3.3208675 -2.0246804 0.067889862 0
3.3437507 -2.0394323 0.20526163 0
3.3450913 -2.0418525 0.34287068 0
3.3405998 -2.0407116 0.48065275 0
3.3491786 -2.0467553 0.62167066 0
3.3329399 -2.0384295 0.75941986 0
3.3360901 -2.0419567 -0.068273813 0
3.3260629 -2.0430079 0.068134196 0
3.3264022 -2.044816 0.20463361 0
3.3484848 -2.0591962 0.34391654 0
3.3287423 -2.0486567 0.47992152 0
3.3453777 -2.0605052 0.62229639 0
3.3311763 -2.0525606 0.76056474 0
3.3238363 -2.0504396 -0.068169102 0
3.3240118 -2.0577633 0.068238907 0
3.3192444 -2.0564148 0.20463361 0
3.3361962 -2.067723 0.34339362 0
3.3283186 -2.0644493 0.48089647 0
3.324738 -2.0638359 0.61979342 0
3.3289945 -2.0672827 0.76170951 0
3.2979782 -2.0504153 -0.067785151 0
3.3168087 -2.0693538 0.068238907 0
3.3120456 -2.0679886 0.20463361 0
3.3120599 -2.0688009 0.34165049 0
3.3261418 -2.0792115 0.48162767 0
3.3108151 -2.071238 0.61854196 0
3.321758 -2.0788908 0.76170951 0
3.2958844 -2.0651002 -0.067889862 0
3.2943292 -2.0713394 0.067924768 0
3.3183305 -2.0880468 0.20547098 0
3.3044548 -2.0809264 0.34165049 0
3.3155048 -2.0886929 0.4811402 0
3.3102491 -2.0869963 0.61979342 0
3.3107958 -2.0889564 0.76094633 0
3.2886555 -2.0765924 -0.067889862 0
3.2850263 -2.082329 0.067889862 0
3.3042748 -2.0953391 0.2050523 0
3.3005359 -2.0945833 0.34199914 0
3.2944214 -2.0923169 0.47919029 0
3.309613 -2.1027761 0.62104493 0
3.3001702 -2.0983937 0.7601831 0
3.2847614 -2.0902064 -0.067959674 0
3.2781029 -2.0932109 0.067889862 0
3.2872093 -2.0998337 0.20442426 0
3.2969286 -2.1076634 0.34234774 0
3.2857928 -2.1021605 0.47894657 0
3.2992942 -2.1116097 0.62041914 0
3.2981532 -2.1125026 0.76132792 0
3.2845459 -2.1054044 -0.06809929 0
3.2795527 -2.1094792 0.068064384 0
3.2781804 -2.1102147 0.2043196 0
3.2932718 -2.1207418 0.34269637 0
3.2954898 -2.1237981 0.48138395 0
3.2819428 -2.1166894 0.61854196 0
3.2891095 -2.1229379 0.76094633 0
3.25702 -2.1038365 -0.067680433 0
3.2701213 -2.1203971 0.068029478 0
3.2720993 -2.1233025 0.20442426 0
3.2737787 -2.1252043 0.3414762 0
3.2893484 -2.1369438 0.48162767 0
3.2741628 -2.1287043 0.61854196 0
3.2845974 -2.13712 0.76170951 0
3.2442596 -2.1124864 -0.067575715 0
3.2539587 -2.1268983 0.067854956 0
3.2696824 -2.1379907 0.20473827 0
3.2609661 -2.1339161 0.34095326 0
3.2731903 -2.1435478 0.480409 0
3.2700171 -2.1422853 0.61916769 0
3.2656248 -2.1410372 0.75903821 0
3.2468975 -2.1303802 -0.067785151 0
3.2435472 -2.135478 0.067785151 0
3.2621996 -2.1493909 0.20473827 0
3.2534974 -2.1452861 0.34095326 0
3.2528076 -2.1456461 0.47845906 0
3.2691133 -2.1580396 0.62041914 0
3.2634218 -2.1551003 0.7601831 0
3.24945 -2.1483178 -0.067994572 0
3.2394061 -2.1489978 0.067854956 0
3.2467332 -2.154675 0.20421492 0
3.2662816 -2.1692905 0.343045 0
3.2486045 -2.1591852 0.47894657 0
3.2570045 -2.1655874 0.61948055 0
3.2591479 -2.168654 0.76094633 0
3.2356505 -2.1546483 -0.067854956 0
3.2422378 -2.166394 0.068064384 0
3.2391922 -2.1659949 0.20421492 0
3.2504101 -2.1751387 0.34217343 0
3.2480247 -2.1743631 0.47992152 0
3.2428606 -2.1725454 0.61822909 0
3.2535696 -2.1805427 0.76132792 0
3.2181461 -2.1592448 -0.067645527 0
3.2247033 -2.1709979 0.067854956 0
3.2349246 -2.1795204 0.20442426 0
3.2382228 -2.1825647 0.34165049 0
3.2502897 -2.192348 0.48138395 0
3.2319827 -2.1816418 0.61760336 0
3.2410569 -2.1885905 0.7601831 0
3.2089326 -2.1693449 -0.067610621 0
3.2137957 -2.1799958 0.067785151 0
3.2355592 -2.196408 0.20494762 0
3.220695 -2.187139 0.34060463 0
3.2360494 -2.1992168 0.480409 0
3.2308812 -2.1973536 0.61885482 0
3.2236586 -2.1932642 0.75789338 0
3.2062991 -2.1839101 -0.067715339 0
3.2028644 -2.1889439 0.067715339 0
3.2245755 -2.2054341 0.20473827 0
3.2278399 -2.2084937 0.34217343 0
3.2218015 -2.2060134 0.47943404 0
3.2264507 -2.2108512 0.61948055 0
3.2127445 -2.2022836 0.75713015 0
3.2068999 -2.2007463 -0.067889862 0
3.203439 -2.205781 0.067889862 0
3.2020562 -2.2064769 0.20379624 0
3.2217519 -2.2208779 0.34234774 0
3.2108135 -2.2149918 0.47894657 0
3.2187138 -2.2221005 0.61948055 0
3.2050371 -2.2134848 0.75713015 0
3.1942642 -2.2085156 -0.067785151 0
3.1911771 -2.2129734 0.067785151 0
3.1914399 -2.2148056 0.20358689 0
3.2078226 -2.2270048 0.34165049 0
3.2099714 -2.2301579 0.47992152 0
3.2015958 -2.2259958 0.61760336 0
3.2073498 -2.2308271 0.75941986 0
3.1770766 -2.2122397 -0.067575715 0
3.1916294 -2.2298257 0.067959674 0
3.1869631 -2.2282214 0.20379624 0
3.1816816 -2.2261827 0.33973309 0
3.2086725 -2.2459018 0.48089647 0
3.192188 -2.2360244 0.61729044 0
3.1959367 -2.2403135 0.75865656 0
3.1644237 -2.2198713 -0.067471005 0
3.1719899 -2.2334497 0.067715339 0
3.18733 -2.2450831 0.2043196 0
3.178777 -2.2407191 0.34025604 0
3.1906865 -2.250782 0.47943404 0
3.1875916 -2.2494314 0.61791623 0
3.1800787 -2.2457931 0.7567485 0
3.1697199 -2.2401364 -0.067750245 0
3.159672 -2.2404859 0.067610621 0
3.1762159 -2.2538836 0.20411025 0
3.1741848 -2.2541084 0.34060463 0
3.1767321 -2.2567515 0.47845906 0
3.18294 -2.2628338 0.61854196 0
3.1758139 -2.2586021 0.75751179 0
3.1683969 -2.2558265 -0.067889862 0
3.166477 -2.2619629 0.067924768 0
3.1618304 -2.2603106 0.20369156 0
3.1747956 -2.270417 0.3414762 0
3.1672208 -2.2666714 0.47821537 0
3.1814456 -2.2785316 0.61979342 0
3.174294 -2.2742476 0.75903821 0
3.1426291 -2.2540519 -0.067505911 0
3.1585619 -2.2730019 0.067924768 0
3.1555417 -2.2725012 0.20379624 0
3.170084 -2.2838144 0.34182483 0
3.1641202 -2.2811959 0.47894657 0
3.1574533 -2.278065 0.61666471 0
3.1695201 -2.287612 0.75980145 0
3.1379836 -2.2673507 -0.067575715 0
3.1457515 -2.2804928 0.06782005 0
3.1475899 -2.2835021 0.20379624 0
3.1491928 -2.2855039 0.34043032 0
3.1673813 -2.3003926 0.48065275 0
3.1526778 -2.2913949 0.61729044 0
3.1646914 -2.300971 0.76056474 0
3.1300499 -2.2782903 -0.067575715 0
3.1248524 -2.2820249 0.06754081 0
3.1508875 -2.3027246 0.20452894 0
3.1411958 -2.2964828 0.34043032 0
3.1513216 -2.3055742 0.47943404 0
3.1478481 -2.3047202 0.61791623 0
3.1487205 -2.3062034 0.75865656 0
3.1140149 -2.2832904 -0.067401193 0
3.1216998 -2.2964735 0.067645527 0
3.1396134 -2.3113413 0.2043196 0
3.1395776 -2.31216 0.34112757 0
3.1368625 -2.3118494 0.47845906 0
3.1493223 -2.3227293 0.61979342 0
3.1359122 -2.313684 0.75751179 0
3.1253278 -2.308403 -0.06782005 0
3.1200912 -2.312119 0.067785151 0
3.1219008 -2.3151479 0.20369156 0
3.1330876 -2.3242919 0.34130189 0
3.1255858 -2.3204184 0.47797161 0
3.1380241 -2.3313525 0.61916769 0
3.1309683 -2.3269582 0.75827497 0
3.1092293 -2.3133299 -0.067645527 0
3.1200142 -2.3289766 0.067959674 0
3.1142061 -2.3254881 0.20369156 0
3.1265514 -2.3364069 0.3414762 0
3.1222363 -2.3348813 0.47870281 0
3.1176217 -2.332279 0.61666471 0
3.1291127 -2.3425794 0.75980145 0
3.1015406 -2.3236279 -0.067645527 0
3.1042812 -2.3333027 0.067785151 0
3.1092618 -2.3387456 0.2039009 0
3.107234 -2.3389187 0.34025604 0
3.1160619 -2.3464162 0.47894657 0
3.1094615 -2.3431473 0.61666471 0
3.1197598 -2.3517613 0.75941986 0
3.0870261 -2.3296218 -0.067505911 0
3.0929289 -2.3417106 0.067715339 0
3.111042 -2.3562787 0.20452894 0
3.0962849 -2.3468029 0.33990738 0
3.1110156 -2.3596783 0.47943404 0
3.1063952 -2.3570278 0.61760336 0
3.1115315 -2.362637 0.75941986 0
3.079284 -2.3398459 -0.067505911 0
3.0851464 -2.351954 0.067715339 0
3.0964468 -2.3622782 0.20411025 0
3.0928249 -2.3612239 0.34043032 0
3.0937078 -2.3627527 0.47797161 0
3.1044266 -2.3726549 0.61885482 0
3.1036797 -2.3729422 0.75941986 0
3.0822132 -2.3590882 -0.067750245 0
3.0769176 -2.362709 0.067715339 0
3.077096 -2.3645537 0.20337754 0
3.0897171 -2.3751097 0.34095326 0
3.0807214 -2.3699062 0.47724038 0
3.0976911 -2.3846819 0.61916769 0
3.0860448 -2.3765745 0.75713015 0
3.0692086 -2.3661697 -0.067645527 0
3.0781426 -2.3807752 0.067924768 0
3.0672443 -2.374058 0.20327288 0
3.0778406 -2.3839779 0.34060463 0
3.0834143 -2.3891566 0.47894657 0
3.0799813 -2.3882179 0.61729044 0
3.0835178 -2.3926835 0.75865656 0
3.0514541 -2.3695102 -0.067436099 0
3.0630865 -2.3871248 0.067785151 0
3.064822 -2.390197 0.20369156 0
3.061646 -2.3885796 0.33973309 0
3.0777662 -2.4028847 0.47943404 0
3.0712075 -2.3994904 0.61729044 0
3.0720534 -2.4010146 0.75789338 0
3.0427487 -2.3806787 -0.067436099 0
3.0468702 -2.3916285 0.067610621 0
3.0627422 -2.4058156 0.20411025 0
3.0501564 -2.3967903 0.33938447 0
3.0662391 -2.4111595 0.47894657 0
3.0612609 -2.4089749 0.61697763 0
3.057483 -2.4068661 0.75636691 0
3.0375614 -2.3937607 -0.067505911 0
3.0369349 -2.4010093 0.067575715 0
3.0558922 -2.417731 0.20421492 0
3.0480204 -2.4123685 0.34008169 0
3.0531356 -2.4181504 0.47821537 0
3.0652182 -2.429462 0.61948055 0
3.0459862 -2.4150844 0.75560367 0
3.0417173 -2.4142945 -0.067785151 0
3.04105 -2.4215612 0.067854956 0
3.0333762 -2.4171815 0.20327288 0
3.048929 -2.430445 0.34112757 0
3.0446761 -2.4287932 0.47821537 0
3.0505438 -2.4352169 0.61822909 0
3.046742 -2.4330528 0.75789338 0
3.0285854 -2.4211519 -0.067680433 0
3.0325785 -2.4321616 0.067854956 0
3.0280356 -2.4302554 0.20348223 0
3.043534 -2.4435675 0.3414762 0
3.034632 -2.4381628 0.47797161 0
3.0420246 -2.4458506 0.61822909 0
3.0458796 -2.4498253 0.75980145 0
3.0060973 -2.4204216 -0.067366287 0
3.0178478 -2.4377062 0.067715339 0
3.0195339 -2.4408104 0.20348223 0
3.0272393 -2.4479127 0.34060463 0
3.0384476 -2.4587307 0.47992152 0
3.0242574 -2.4489954 0.6163519 0
3.035784 -2.4592066 0.75941986 0
2.9991834 -2.4321599 -0.067401193 0
3.0077693 -2.4469635 0.067680433 0
3.0233865 -2.4614234 0.2043196 0
3.0155864 -2.4559484 0.34025604 0
3.0283077 -2.4680676 0.47967777 0
3.0294678 -2.4707737 0.61916769 0
3.02566 -2.4685476 0.75903821 0
2.9937732 -2.4451439 -0.067471005 0
3.0038497 -2.4612501 0.067785151 0
3.0178652 -2.4744947 0.20452894 0
3.0116162 -2.4702504 0.34077895 0
3.0120022 -2.4723263 0.47845906 0
3.0269306 -2.4863484 0.62041914 0
3.0139911 -2.4766014 0.75827497 0
2.9960301 -2.4644716 -0.067715339 0
2.99524 -2.4717205 0.067785151 0
2.9988608 -2.4755883 0.20379624 0
3.0075836 -2.4845548 0.34130189 0
3.0064139 -2.4853544 0.47894657 0
3.015624 -2.493855 0.61979342 0
3.0128901 -2.4933655 0.7601831 0
2.9878411 -2.4743931 -0.067715339 0
2.991641 -2.4854729 0.067889862 0
2.9917369 -2.487318 0.2039009 0
2.9988925 -2.495038 0.34130189 0
3.0012071 -2.4978502 0.47943404 0
2.9962757 -2.495517 0.61760336 0
3.0091305 -2.507113 0.76132792 0
2.9607577 -2.4694378 -0.067296483 0
2.9890819 -2.5010333 0.068029478 0
2.9926617 -2.5049171 0.20452894 0
2.9844925 -2.4998517 0.34060463 0
3.0000765 -2.5146871 0.48065275 0
2.9925249 -2.5092468 0.61854196 0
2.9973528 -2.5150776 0.76056474 0
2.9632723 -2.4882438 -0.06754081 0
2.9654777 -2.4980488 0.067680433 0
2.9869537 -2.5179226 0.20473827 0
2.9772713 -2.5115387 0.34077895 0
2.9902036 -2.5233417 0.480409 0
2.9822383 -2.5184031 0.61822909 0
2.9859965 -2.5224693 0.75980145 0
2.9515152 -2.4959898 -0.067471005 0
2.9613147 -2.5122657 0.067785151 0
2.9766235 -2.527041 0.20463361 0
2.9734824 -2.5252674 0.34130189 0
2.975327 -2.5286222 0.47943404 0
2.9854674 -2.5390353 0.62073201 0
2.9711919 -2.5277884 0.75827497 0
2.9519188 -2.5140567 -0.067680433 0
2.9540472 -2.5238864 0.06782005 0
2.9556403 -2.5270329 0.20379624 0
2.9702623 -2.5413299 0.34199914 0
2.9634659 -2.536411 0.47894657 0
2.9735858 -2.5468712 0.62010628 0
2.9693604 -2.5450494 0.7601831 0
2.940089 -2.5217416 -0.067610621 0
2.9462929 -2.5360012 0.067854956 0
2.9493849 -2.5404558 0.20400558 0
2.9553356 -2.5464804 0.34130189 0
2.9571564 -2.5498481 0.47943404 0
2.9627352 -2.5564625 0.61979342 0
2.9693756 -2.563096 0.76247281 0
2.9202352 -2.5233486 -0.067366287 0
2.9344003 -2.5436504 0.067785151 0
2.9480426 -2.5572793 0.20452894 0
2.9419143 -2.5528631 0.34077895 0
2.9572308 -2.5679641 0.48089647 0
2.9493206 -2.5629013 0.61885482 0
2.9544837 -2.5682936 0.76094633 0
2.9114094 -2.5335269 -0.067366287 0
2.9224904 -2.5512481 0.067715339 0
2.9425552 -2.5696685 0.20473827 0
2.9239841 -2.5552506 0.33973309 0
2.9422719 -2.5730441 0.47992152 0
2.9408054 -2.5726678 0.61885482 0
2.9395919 -2.5734184 0.75941986 0
2.9075046 -2.5471206 -0.067471005 0
2.9125121 -2.5596051 0.067680433 0
2.9340172 -2.5794127 0.20473827 0
2.9379327 -2.5846732 0.34234774 0
2.9277632 -2.5775404 0.47894657 0
2.9441175 -2.5928502 0.62135774 0
2.9251506 -2.5779598 0.75789338 0
2.9140394 -2.5699751 -0.06782005 0
2.9159896 -2.5798497 0.067959674 0
2.9235003 -2.5883143 0.20463361 0
2.9368033 -2.6010065 0.34321931 0
2.9251423 -2.5925012 0.47992152 0
2.9350488 -2.6031115 0.62135774 0
2.9268658 -2.5967665 0.76056474 0
2.8975749 -2.5734921 -0.067645527 0
2.9129386 -2.5953338 0.06809929 0
2.9069939 -2.5918577 0.20411025 0
2.9257636 -2.6104262 0.343045 0
2.9190369 -2.6053398 0.480409 0
2.9141579 -2.6028137 0.61885482 0
2.9231834 -2.6127098 0.76209116 0
2.8841026 -2.5795913 -0.06754081 0
2.9048948 -2.6073284 0.068134196 0
2.9049039 -2.6091681 0.20463361 0
2.9121876 -2.6166284 0.34252208 0
2.9153728 -2.6213305 0.48138395 0
2.9075358 -2.6161199 0.61948055 0
2.9140458 -2.6228976 0.76209116 0
2.8731432 -2.5888062 -0.067505911 0
2.8883584 -2.6107481 0.067959674 0
2.9046662 -2.6273308 0.20526163 0
2.8986039 -2.6227677 0.34199914 0
2.9032619 -2.6288259 0.48089647 0
2.9071691 -2.6342113 0.62135774 0
2.897599 -2.626461 0.7601831 0
2.8700128 -2.6041946 -0.067645527 0
2.8792281 -2.6208143 0.067959674 0
2.892524 -2.6347642 0.2050523 0
2.898267 -2.6409214 0.343045 0
2.8882005 -2.6335943 0.47992152 0
2.8979561 -2.6443431 0.62135774 0
2.8898635 -2.6378832 0.76056474 0
2.862381 -2.615546 -0.067680433 0
2.8759582 -2.6362536 0.06809929 0
2.8730068 -2.6353943 0.2043196 0
2.8919671 -2.6537161 0.34339362 0
2.8760655 -2.6409743 0.47943404 0
2.8930719 -2.6584523 0.62229639 0
2.8907554 -2.6572549 0.76323599 0
2.8547051 -2.6268754 -0.067715339 0
2.8696771 -2.6489892 0.068169102 0
2.8623228 -2.6440516 0.20421492 0
2.876833 -2.658386 0.34269637 0
2.8784893 -2.6617799 0.48138395 0
2.8736253 -2.6591437 0.62010628 0
2.8857844 -2.6713305 0.76438087 0
2.8396513 -2.6313877 -0.067575715 0
2.8604128 -2.6589901 0.068169102 0
2.8647747 -2.6649096 0.2050523 0
2.861702 -2.6629827 0.34199914 0
2.8764441 -2.6785753 0.48260266 0
2.8672159 -2.6718514 0.62073201 0
2.8735704 -2.6787102 0.76361769 0
2.8377585 -2.6481051 -0.067750245 0
2.8394349 -2.6580257 0.067889862 0
2.8617532 -2.6798556 0.20547098 0
2.8538425 -2.6743181 0.34217343 0
2.8656285 -2.687242 0.4823589 0
2.8669844 -2.6894538 0.62260926 0
2.8613396 -2.6860368 0.7628544 0
2.833334 -2.6616087 -0.067854956 0
2.8393371 -2.6756556 0.06809929 0
2.8509285 -2.6884584 0.20536631 0
2.8473883 -2.6869986 0.34252208 0
2.8480403 -2.6885536 0.48089647 0
2.8604505 -2.702158 0.62323499 0
2.8524165 -2.6955106 0.7628544 0
2.8341949 -2.681102 -0.06809929 0
2.8357821 -2.6910565 0.068238907 0
2.8333063 -2.6896472 0.20473827 0
2.8485739 -2.7060316 0.34374225 0
2.8429546 -2.7025821 0.48162767 0
2.8514745 -2.7116284 0.62323499 0
2.8486788 -2.7108645 0.76438087 0
2.8122554 -2.6780744 -0.067785151 0
2.8297346 -2.7032082 0.068308719 0
2.8239005 -2.6995208 0.20473827 0
2.8391106 -2.7159586 0.34374225 0
2.8411477 -2.718857 0.48284638 0
2.8334315 -2.7133682 0.62135774 0
2.8481801 -2.7284451 0.76667058 0
2.8101068 -2.6947951 -0.067959674 0
2.8173988 -2.7102966 0.068238907 0
2.8192503 -2.7130251 0.2050523 0
2.8214777 -2.717066 0.34269637 0
2.8316398 -2.7287579 0.48284638 0
2.8272622 -2.725491 0.62198347 0
2.8386385 -2.7383704 0.76667058 0
2.7896454 -2.6929879 -0.067680433 0
2.80265 -2.7140603 0.06809929 0
2.8155003 -2.7284093 0.20547098 0
2.8091156 -2.7241244 0.34234774 0
2.828275 -2.7436616 0.48382133 0
2.8205662 -2.7380955 0.62260926 0
2.8267255 -2.7450333 0.76590741 0
2.7902648 -2.7124665 -0.067924768 0
2.7907767 -2.7234049 0.068064384 0
2.8054812 -2.7387102 0.20547098 0
2.8048131 -2.7399709 0.343045 0
2.809202 -2.7461755 0.4823589 0
2.8189852 -2.7567017 0.62448645 0
2.8133581 -2.7531204 0.76514411 0
2.7945917 -2.736666 -0.068273813 0
2.7902894 -2.7410524 0.068273813 0
2.7973285 -2.7498868 0.20557566 0
2.8108554 -2.7651145 0.34496242 0
2.7944205 -2.7499065 0.48138395 0
2.8079383 -2.7651389 0.62417358 0
2.8084087 -2.7665682 0.766289 0
2.7736311 -2.7351716 -0.067994572 0
2.7807043 -2.7507758 0.068273813 0
2.7820349 -2.754014 0.20515697 0
2.7945924 -2.7674105 0.34409088 0
2.7974944 -2.7722197 0.48357758 0
2.7926581 -2.7693596 0.62292212 0
2.8029158 -2.7805026 0.76743382 0
2.7555532 -2.7363825 -0.067785151 0
2.7753356 -2.7646995 0.06837853 0
2.7808914 -2.7721689 0.20578501 0
2.7835042 -2.7757418 0.34391654 0
2.7906108 -2.7847722 0.48406506 0
2.782974 -2.7790911 0.62292212 0
2.7904153 -2.7874942 0.76667058 0
2.7459846 -2.7459846 -0.067785151 0
2.7586093 -2.7672892 0.068204008 0
2.7697883 -2.7804439 0.20568034 0
2.7723923 -2.7840295 0.34374225 0
2.7822735 -2.7959034 0.48430881 0
2.7816141 -2.7971928 0.62479931 0
2.7751315 -2.7916484 0.76514411 0
2.7420187 -2.7612288 -0.067924768 0
2.7503395 -2.7783227 0.068238907 0
2.7656844 -2.7957747 0.20609902 0
2.7654593 -2.7965236 0.34409088 0
2.7711015 -2.8041863 0.48406506 0
2.7801607 -2.8153188 0.6266765 0
2.7681286 -2.8041129 0.76590741 0
2.7407882 -2.7793264 -0.068134196 0
2.746232 -2.7936103 0.06837853 0
2.7503099 -2.7997129 0.20568034 0
2.7696404 -2.8203752 0.34583399 0
2.7585156 -2.8110085 0.48357758 0
2.7675507 -2.8221855 0.62605083 0
2.7610717 -2.8165622 0.76667058 0
2.7324688 -2.7903054 -0.068169102 0
2.7434483 -2.8103342 0.068553053 0
2.7433095 -2.8121555 0.20588967 0
2.7542145 -2.8243203 0.34513673 0
2.7556138 -2.827729 0.48479629 0
2.7521698 -2.8261678 0.62479931 0
2.7594402 -2.8346236 0.7689603 0
2.722712 -2.7998264 -0.068169102 0
2.7322295 -2.8184576 0.068518147 0
2.7381392 -2.8255401 0.2062037 0
2.7387953 -2.8281918 0.34443948 0
2.7498674 -2.8416102 0.48552752 0
2.7427826 -2.8352792 0.62479931 0
2.7495289 -2.8442385 0.7689603 0
2.709245 -2.8045251 -0.068064384 0
2.7187071 -2.8231814 0.068413429 0
2.7384501 -2.8446767 0.20693639 0
2.7321637 -2.8401301 0.3447881 0
2.7459321 -2.8564377 0.48650244 0
2.7374716 -2.8486316 0.62573791 0
2.7400818 -2.8533406 0.7689603 0
2.7068522 -2.820708 -0.068238907 0
2.7065654 -2.8292916 0.068343624 0
2.7243633 -2.8498871 0.20662238 0
2.7309899 -2.8578174 0.34583399 0
2.7295902 -2.8583496 0.48528376 0
2.7316027 -2.862457 0.6266765 0
2.7265394 -2.8581498 0.76781541 0
2.7025082 -2.8359301 -0.06837853 0
2.7063138 -2.8488708 0.068587959 0
2.7102735 -2.8550339 0.20630836 0
2.721868 -2.8692534 0.3460083 0
2.7168639 -2.8649795 0.48479629 0
2.7270296 -2.8777101 0.62792808 0
2.7214451 -2.8738256 0.76934189 0
2.6857202 -2.8380842 -0.068204008 0
2.6985977 -2.8616803 0.068657771 0
2.6961811 -2.8601172 0.20599434 0
2.7118359 -2.878737 0.3460083 0
2.7117879 -2.8806999 0.48577127 0
2.7115526 -2.8814571 0.6266765 0
2.7167768 -2.8890288 0.77086836 0
2.673058 -2.8445272 -0.068134196 0
2.6904604 -2.8720727 0.068692669 0
2.6930053 -2.8768017 0.2065177 0
2.6963265 -2.8823652 0.34531105 0
2.7076435 -2.8954763 0.48674619 0
2.6987808 -2.8880186 0.62605083 0
2.7098615 -2.9008913 0.7716316 0
2.6631129 -2.8538406 -0.068134196 0
2.6776946 -2.8785183 0.068622865 0
2.6916115 -2.8944919 0.20714574 0
2.6881099 -2.8927505 0.34548536 0
2.7002215 -2.9078193 0.48723367 0
2.6972525 -2.9056385 0.62792808 0
2.6943786 -2.9045756 0.77010518 0
2.6617911 -2.8714554 -0.068343624 0
2.664063 -2.8829761 0.068518147 0
2.6814911 -2.9038699 0.20714574 0
2.6861024 -2.9109013 0.34653121 0
2.6838341 -2.9094617 0.48601499 0
2.6964653 -2.9252031 0.63011813 0
2.684732 -2.9134946 0.77010518 0
2.6585228 -2.8880854 -0.068518147 0
2.6607432 -2.8996248 0.068692669 0
2.6659393 -2.9073241 0.20672706 0
2.6818202 -2.9256675 0.34722847 0
2.6776845 -2.9232039 0.48674619 0
2.6835704 -2.9316835 0.62949234 0
2.6824977 -2.9315386 0.7723949 0
2.6538222 -2.9032519 -0.068657771 0
2.6546457 -2.9133294 0.068797387 0
2.657119 -2.9180889 0.20683172 0
2.6715913 -2.9350111 0.34722847 0
2.6754787 -2.9413435 0.48820862 0
2.6719918 -2.9395714 0.62917954 0
2.6748888 -2.9437902 0.77315807 0
2.6288877 -2.8962104 -0.068273813 0
2.6484854 -2.9270263 0.068902098 0
2.6562936 -2.9377162 0.20756441 0
2.65465 -2.9369285 0.34635693 0
2.6758399 -2.96245 0.49015856 0
2.6254563 -2.9127958 -0.068448335 0
