# .PCD v0.7 - Point Cloud Data file format
VERSION 0.7
FIELDS x y z rgba
SIZE 4 4 4 4
TYPE F F F U
COUNT 1 1 1 1
WIDTH 1290
HEIGHT 1
VIEWPOINT 0 0 0 1 0 0 0
POINTS 1290
DATA ascii
2.756372 0.19757998 -0.24177003 0
2.8089983 0.20036681 -0.14758742 0
2.7589998 0.18857352 -0.24194433 0
2.7877281 0.18955947 -0.14643602 0
2.7971804 0.1892214 -0.04893655 0
2.7934833 0.18456395 0.048866738 0
2.8240242 0.18559179 0.14832011 0
2.8489814 0.18673258 0.24978836 0
2.7337945 0.1772663 -0.23967829 0
2.8043175 0.18085624 -0.14727339 0
2.8018148 0.17971283 -0.049006358 0
2.8465824 0.17709641 0.14947151 0
2.8828294 0.17783631 0.3546398 0
2.9023004 0.17802058 0.46054313 0
2.7343967 0.16772175 -0.23967829 0
2.8962777 0.17714381 0.56403142 0
2.7830026 0.16972944 -0.14612199 0
2.9255009 0.17790624 0.67665279 0
2.7924449 0.16932568 -0.048831832 0
2.8086772 0.16588256 0.049111072 0
2.8312328 0.16622303 0.14863414 0
2.8581715 0.1673041 0.2504856 0
2.865597 0.16673513 0.35244617 0
2.8989594 0.16766107 0.45991737 0
2.7329764 0.15806144 -0.23950398 0
2.7656326 0.15898158 -0.14517996 0
2.9144306 0.16702488 0.67395335 0
2.7950153 0.15969184 -0.048866738 0
2.8032491 0.15574522 0.049006358 0
2.8377783 0.15666872 0.14894815 0
2.8567486 0.15721595 0.25031129 0
2.8522866 0.15597181 0.35073999 0
2.8916373 0.15711272 0.45866591 0
2.7454481 0.14916974 -0.24054985 0
2.8876419 0.15638882 0.5621233 0
2.7581933 0.14889535 -0.14476126 0
2.9208338 0.15716533 0.67530304 0
2.7875686 0.14950533 -0.048727117 0
2.815758 0.14658213 0.049215786 0
2.8203564 0.14583579 0.1480061 0
2.8473313 0.14673099 0.24943975 0
2.862726 0.14652385 0.35195872 0
2.8665214 0.14571358 0.45459861 0
2.7379928 0.13918011 -0.23985259 0
2.8940525 0.1466067 0.56326818 0
2.7626858 0.13946854 -0.14497061 0
2.9135797 0.14657634 0.67350346 0
2.7800848 0.13937408 -0.048587501 0
2.7982762 0.13587876 0.048901644 0
2.8268092 0.13677111 0.14832011 0
2.8378758 0.13631235 0.24856818 0
2.8691688 0.13681306 0.35268989 0
2.870935 0.13639374 0.45522434 0
2.726521 0.12905724 -0.23880674 0
2.8867025 0.13613437 0.56174171 0
2.769141 0.13010459 -0.14528462 0
2.9140735 0.13640577 0.67350346 0
2.7705441 0.12968725 -0.048412975 0
2.7987115 0.12659916 0.048901644 0
2.8292649 0.1269917 0.14842479 0
2.8363438 0.1263188 0.24839386 0
2.8656404 0.12712108 0.35220242 0
2.8654733 0.12611289 0.45428574 0
2.7189929 0.11918938 -0.23810948 0
2.8792925 0.12621623 0.56021523 0
2.7615757 0.12057316 -0.14486594 0
2.9203506 0.12699617 0.67485321 0
2.7729776 0.12010124 -0.048447877 0
2.7931426 0.11657949 0.048796929 0
2.8296909 0.11711419 0.14842479 0
2.8407285 0.11707574 0.24874248 0
2.850199 0.11646818 0.35025251 0
2.8797123 0.11666875 0.45647582 0
2.721364 0.11025342 -0.2382838 0
2.8718691 0.11584758 0.55868876 0
2.7559927 0.11069283 -0.14455192 0
2.9188287 0.11672283 0.67440325 0
2.7813725 0.1107385 -0.048587501 0
2.7855394 0.10652249 0.048657309 0
2.8181074 0.1067842 0.14779675 0
2.8510745 0.10753374 0.24961405 0
2.8466208 0.10637212 0.34976503 0
2.8761542 0.10646905 0.45585006 0
2.7277055 0.1009738 -0.23880674 0
2.8761795 0.10596872 0.559452 0
2.7563622 0.10107121 -0.14455192 0
2.9075336 0.10610631 0.67170382 0
2.7797437 0.10095835 -0.048552595 0
2.7998836 0.097286485 0.048901644 0
2.814471 0.096808456 0.14758742 0
2.8414764 0.097240865 0.24874248 0
2.8588786 0.096837364 0.35122749 0
2.8587399 0.095833704 0.45303425 0
2.7280414 0.091452293 -0.23880674 0
2.8843806 0.096189313 0.56097847 0
2.7547023 0.091382153 -0.14444725 0
2.903991 0.095828541 0.67080402 0
2.7660887 0.09079466 -0.048308261 0
2.804204 0.087636665 0.048971456 0
2.8207805 0.087169185 0.14790143 0
2.8258669 0.086832725 0.24734798 0
2.8591993 0.086858034 0.35122749 0
2.8590569 0.085853495 0.45303425 0
2.7183864 0.081629351 -0.23793517 0
2.8768492 0.085886613 0.559452 0
2.7609932 0.081945531 -0.14476126 0
2.9043078 0.085690372 0.67080402 0
2.7663889 0.081139237 -0.048308261 0
2.7825046 0.077236541 0.048587501 0
2.8290536 0.077540427 0.14832011 0
2.8281446 0.077021562 0.24752231 0
2.8495631 0.07660953 0.35000879 0
2.8613138 0.075926006 0.45334715 0
2.7106881 0.071929097 -0.23723793 0
2.8732066 0.075739786 0.55868876 0
2.7592664 0.07225436 -0.1446566 0
2.9182258 0.075907238 0.67395335 0
2.7726524 0.071636453 -0.048412975 0
2.7807579 0.067475386 0.048552595 0
2.8213203 0.067472957 0.14790143 0
2.8283961 0.067149624 0.24752231 0
2.8517976 0.066707887 0.35025251 0
2.8694608 0.066120319 0.45459861 0
2.7228739 0.062742546 -0.2382838 0
2.8675652 0.065574549 0.55754393 0
2.7475212 0.062350977 -0.14402856 0
2.9145765 0.065633141 0.67305356 0
2.7768841 0.062046256 -0.048482787 0
2.7829759 0.057809107 0.048587501 0
2.8055639 0.057298634 0.14706406 0
2.8465412 0.057638533 0.2490911 0
2.8480437 0.056674458 0.34976503 0
2.8696742 0.056102864 0.45459861 0
2.7250681 0.053275775 -0.2384581 0
2.8697393 0.055603113 0.55792552 0
2.7477221 0.05275923 -0.14402856 0
2.9030976 0.055235766 0.67035419 0
2.779083 0.052391015 -0.048517693 0
2.7871594 0.048164047 0.048657309 0
2.805747 0.047505632 0.14706406 0
2.8248119 0.047335297 0.24717368 0
2.8402848 0.046602923 0.34879011 0
2.8580015 0.045895781 0.45272139 0
2.7212532 0.043699782 -0.23810948 0
2.8816938 0.045773201 0.56021523 0
2.7538805 0.043260947 -0.14434259 0
2.8954787 0.044981256 0.66855454 0
2.7652526 0.042474162 -0.048273355 0
2.7913096 0.038489152 0.048727117 0
2.8058889 0.038200404 0.14706406 0
2.8209753 0.037420969 0.24682505 0
2.8424153 0.036714431 0.34903383 0
2.8541877 0.036366928 0.45209566 0
2.7134204 0.034099698 -0.23741224 0
2.875947 0.035641555 0.55907035 0
2.756012 0.033672832 -0.14444725 0
2.9053609 0.034990445 0.67080402 0
2.7513814 0.033136006 -0.048029024 0
2.7794244 0.029107539 0.048517693 0
2.8139937 0.028487252 0.14748274 0
2.8071427 0.027437979 0.24560487 0
2.8425214 0.027287653 0.34903383 0
2.8582478 0.026439516 0.45272139 0
2.7135229 0.024628457 -0.23741224 0
2.8662333 0.026014484 0.55716228 0
2.7581053 0.024551706 -0.14455192 0
2.9035125 0.025337918 0.67035419 0
2.763478 0.023634881 -0.048238453 0
2.7755096 0.019376697 0.048447877 0
2.8100817 0.018637165 0.14727339 0
2.8351111 0.018308355 0.24804525 0
2.8227487 0.017243218 0.34659645 0
2.8583226 0.016464172 0.45272139 0
2.7135897 0.015630499 -0.23741224 0
2.8623803 0.015986614 0.55639905 0
2.7441938 0.014847596 -0.14381923 0
2.9055319 0.015214814 0.67080402 0
2.7615442 0.013977542 -0.048203547 0
2.7835593 0.0097167492 0.048587501 0
2.798146 0.0087923128 0.14664535 0
2.8192189 0.0083651617 0.24665076 0
2.8247769 0.007394325 0.3468402 0
2.8583627 0.0064859027 0.45272139 0
2.7176125 0.0061665266 -0.23776087 0
2.8702714 0.0060106269 0.55792552 0
2.7342427 0.0052498844 -0.14329587 0
2.8880286 0.0050411341 0.66675496 0
2.7635756 0.0043402733 -0.048238453 0
2.7955744 -0 0.048796929 0
2.7941651 -0.00097534771 0.14643602 0
2.8252082 -0.0014792756 0.24717368 0
2.8327258 -0.00247202 0.34781513 0
2.8425651 -0.00347285 0.45021844 0
2.7136326 -0.0033153293 -0.23741224 0
2.874202 -0.0040131453 0.55868876 0
2.746228 -0.0043137679 -0.14392389 0
2.8860798 -0.0050371643 0.66630501 0
2.7455769 -0.0052711354 -0.047924306 0
2.7835593 -0.009716494 0.048587501 0
2.7961421 -0.010736467 0.1465407 0
2.8092465 -0.011277098 0.24577919 0
2.838655 -0.012386048 0.34854636 0
2.8464866 -0.013413851 0.4508442 0
2.7016501 -0.012731321 -0.23636638 0
2.8663173 -0.01400758 0.55716228 0
2.7501905 -0.013920084 -0.14413324 0
2.891891 -0.015142043 0.66765475 0
2.7455416 -0.014854955 -0.047924306 0
2.7755096 -0.019377027 0.048447877 0
2.8100679 -0.020599242 0.14727339 0
2.8091903 -0.02108313 0.24577919 0
2.8286693 -0.022216771 0.34732765 0
2.850373 -0.023382269 0.45146993 0
2.6976049 -0.022129076 -0.23601775 0
2.8583982 -0.023947021 0.55563581 0
2.7461307 -0.023485793 -0.14392389 0
2.8976665 -0.025287552 0.66900444 0
2.7574708 -0.02454539 -0.048133738 0
2.7794244 -0.029107124 0.048517693 0
2.809979 -0.030408086 0.14727339 0
2.807107 -0.030866997 0.24560487 0
2.8166645 -0.031955417 0.34586522 0
2.8581746 -0.033424176 0.45272139 0
2.7014954 -0.031591929 -0.23636638 0
2.8543708 -0.03387795 0.55487263 0
2.7360466 -0.03295118 -0.14340053 0
2.8936632 -0.035354525 0.66810459 0
2.7653663 -0.034269724 -0.048273355 0
2.7793059 -0.038808949 0.048517693 0
2.7938793 -0.039987892 0.14643602 0
2.8209276 -0.04086747 0.24682505 0
2.8145514 -0.041757774 0.3456215 0
2.8540905 -0.043340877 0.45209566 0
2.7093372 -0.041142724 -0.2370636 0
2.8660133 -0.044022266 0.55716228 0
2.7299237 -0.042408492 -0.14308652 0
2.8876767 -0.045363247 0.66675496 0
2.7572322 -0.043795414 -0.048133738 0
2.7831523 -0.048580103 0.048587501 0
2.7917261 -0.049704555 0.14633135 0
2.8147917 -0.050606653 0.24630213 0
2.8223274 -0.051727638 0.34659645 0
2.8381214 -0.053008139 0.44959271 0
2.705193 -0.050525412 -0.23671499 0
2.8697681 -0.05410026 0.55792552 0
2.7417405 -0.052165408 -0.14371455 0
2.8855524 -0.055405442 0.66630501 0
2.7490654 -0.05326473 -0.047994118 0
2.776968 -0.058169182 0.048482787 0
2.7875416 -0.059364144 0.14612199 0
2.8106136 -0.060346261 0.24595349 0
2.8260987 -0.061665695 0.3470839 0
2.8458188 -0.063089848 0.4508442 0
2.6970329 -0.05979136 -0.23601775 0
2.8617105 -0.063941859 0.55639905 0
2.7435386 -0.06178052 -0.14381923 0
2.8814452 -0.065389134 0.66540521 0
2.7408662 -0.06267757 -0.047854498 0
2.7627542 -0.067520261 0.048238453 0
2.7953043 -0.069292098 0.1465407 0
2.8103859 -0.070156761 0.24595349 0
2.8199131 -0.07137955 0.34635273 0
2.8475559 -0.073073894 0.45115703 0
2.6868491 -0.068949841 -0.23514619 0
2.8457692 -0.073525056 0.5533461 0
2.7453027 -0.071408808 -0.14392389 0
2.8870435 -0.075599901 0.66675496 0
2.7446284 -0.07234998 -0.047924306 0
2.7605028 -0.077107824 0.048203547 0
2.7890694 -0.07839293 0.14622667 0
2.8041494 -0.079796404 0.24543057 0
2.8176625 -0.081165291 0.34610897 0
2.8453233 -0.082459107 0.4508442 0
2.6985412 -0.078676648 -0.23619205 0
2.8435328 -0.083400637 0.55296451 0
2.7290657 -0.080520041 -0.14308652 0
2.8867621 -0.085677095 0.66675496 0
2.7563665 -0.08180704 -0.048133738 0
2.7702253 -0.086573869 0.048378069 0
2.7867825 -0.088065036 0.14612199 0
2.8098276 -0.089775085 0.24595349 0
2.8173778 -0.090508536 0.34610897 0
2.8410695 -0.092262402 0.45021844 0
2.7062154 -0.088355906 -0.2368893 0
2.8491271 -0.09302187 0.55410933 0
2.7287836 -0.089569516 -0.14308652 0
2.8708806 -0.094735302 0.66315573 0
2.7540655 -0.091361769 -0.048098832 0
2.7699063 -0.096243232 0.048378069 0
2.7784741 -0.097511992 0.14570332 0
2.8154881 -0.099303022 0.24647643 0
2.8210123 -0.1004838 0.34659645 0
2.8348079 -0.10196601 0.44927984 0
2.7019253 -0.09718632 -0.23654069 0
2.8566332 -0.10325027 0.55563581 0
2.7284544 -0.099094197 -0.14308652 0
2.8724797 -0.10482703 0.66360557 0
2.7457364 -0.10068158 -0.047959212 0
2.77355 -0.10606426 0.048447877 0
2.7841041 -0.10744113 0.14601734 0
2.803179 -0.10866722 0.24543057 0
2.822628 -0.11040796 0.3468402 0
2.8285131 -0.11162702 0.44834125 0
2.6896245 -0.10614579 -0.23549481 0
2.8601785 -0.11337667 0.55639905 0
2.7320831 -0.10877659 -0.14329587 0
2.8740435 -0.11493109 0.66405553 0
2.7413719 -0.11010487 -0.047889404 0
2.7571795 -0.11507799 0.048168644 0
2.787703 -0.11732677 0.14622667 0
2.7948201 -0.11811496 0.24473332 0
2.8222253 -0.1202601 0.3468402 0
2.8360004 -0.12183883 0.44959271 0
2.6932187 -0.11570472 -0.23584343 0
2.8401513 -0.12251379 0.55258286 0
2.7396681 -0.11865836 -0.14371455 0
2.8814123 -0.12530133 0.66585511 0
2.7529578 -0.12019673 -0.048098832 0
2.7587585 -0.124792 0.048203547 0
2.781291 -0.12678412 0.14591266 0
2.8003616 -0.12814322 0.24525626 0
2.8079073 -0.12947071 0.34513399 0
2.843451 -0.13210429 0.4508442 0
2.6927984 -0.1251051 -0.23584343 0
2.8357842 -0.1322441 0.55181968 0
2.7192867 -0.12728699 -0.14266783 0
2.8770642 -0.13517566 0.66495532 0
2.750524 -0.12971142 -0.04806393 0
2.7603033 -0.13451844 0.048238453 0
2.7788601 -0.13590893 0.14580798 0
2.8058672 -0.13821158 0.24577919 0
2.8114038 -0.13946807 0.3456215 0
2.8390512 -0.14133634 0.45021844 0
2.6963251 -0.13470277 -0.23619205 0
2.839227 -0.14233863 0.55258286 0
2.7228153 -0.136979 -0.14287716 0
2.8688152 -0.14432395 0.66315573 0
2.7500787 -0.13883176 -0.04806393 0
2.7698271 -0.144191 0.048412975 0
2.7724109 -0.14481071 0.14549398 0
2.8034039 -0.1474108 0.24560487 0
2.8148904 -0.14900012 0.34610897 0
2.8247588 -0.15001687 0.44802836 0
2.6958635 -0.14364338 -0.23619205 0
2.8465807 -0.15217227 0.55410933 0
2.7223458 -0.14600743 -0.14287716 0
2.864429 -0.15362775 0.66225594 0
2.739619 -0.14741337 -0.047889404 0
2.7593503 -0.15282236 0.048238453 0
2.779892 -0.15444671 0.14591266 0
2.7929533 -0.15615031 0.24473332 0
2.8262727 -0.15900284 0.3475714 0
2.8203013 -0.1591607 0.44740263 0
2.6814477 -0.15179414 -0.23497188 0
2.8460605 -0.16161102 0.55410933 0
2.7258348 -0.15526141 -0.14308652 0
2.871686 -0.16356897 0.66405553 0
2.7351224 -0.15626934 -0.047819596 0
2.7548361 -0.16173747 0.048168644 0
2.7833521 -0.16389912 0.14612199 0
2.7884424 -0.1651756 0.24438471 0
2.8217666 -0.16813806 0.3470839 0
2.8296175 -0.16910148 0.44896698 0
2.6809299 -0.1606853 -0.23497188 0
2.8298314 -0.17010561 0.55105644 0
2.7233117 -0.16417956 -0.14298184 0
2.8769636 -0.17344274 0.66540521 0
2.7425733 -0.16582121 -0.047959212 0
2.7462115 -0.17181459 0.048029024 0
2.7806785 -0.17494544 0.14601734 0
2.7897761 -0.17600667 0.24455902 0
2.8052511 -0.17796613 0.34513399 0
2.8289158 -0.18045889 0.44896698 0
2.6882467 -0.1714855 -0.23566914 0
2.8291576 -0.1809701 0.55105644 0
2.7126951 -0.17399585 -0.14245848 0
2.87041 -0.18461493 0.66405553 0
2.7418857 -0.17682925 -0.047959212 0
2.7575672 -0.18219061 0.048238453 0
2.7720795 -0.18412133 0.14559864 0
2.8010724 -0.18653806 0.24560487 0
2.8046129 -0.18775721 0.34513399 0
2.8282685 -0.19033258 0.44896698 0
2.6876318 -0.18086821 -0.23566914 0
2.8285084 -0.19084461 0.55105644 0
2.7120712 -0.18346386 -0.14245848 0
2.856138 -0.19371037 0.6609062 0
2.7392564 -0.18626346 -0.047924306 0
2.7529247 -0.19153762 0.048168644 0
2.7654426 -0.19337858 0.14528462 0
2.7944417 -0.19589649 0.24508193 0
2.8138413 -0.19824354 0.34635273 0
2.8137941 -0.19922727 0.4467769 0
2.6889713 -0.19038935 -0.23584343 0
2.8356583 -0.20127277 0.55258286 0
2.719383 -0.19349666 -0.14287716 0
2.849613 -0.20326301 0.65955651 0
2.7365952 -0.19568148 -0.047889404 0
2.7482505 -0.20085442 0.048098832 0
2.7707262 -0.20346943 0.14559864 0
2.7798319 -0.20462589 0.24386176 0
2.8170917 -0.20835733 0.3468402 0
2.8150511 -0.20919442 0.44708973 0
2.6843166 -0.19947918 -0.23549481 0
2.8388541 -0.21146148 0.5533461 0
2.7186911 -0.20298791 -0.14287716 0
2.8547161 -0.21364507 0.6609062 0
2.7159545 -0.20373695 -0.047540355 0
2.7435451 -0.21014097 0.048029024 0
2.7759736 -0.21359953 0.14591266 0
2.7791007 -0.21432807 0.24386176 0
2.8163471 -0.21818952 0.3468402 0
2.8221815 -0.2196326 0.44834125 0
2.6796312 -0.2085388 -0.23514619 0
2.8224399 -0.22014831 0.55029315 0
2.7139835 -0.21216536 -0.14266783 0
2.8578386 -0.22391306 0.66180599 0
2.7271879 -0.21415541 -0.047749784 0
2.7388082 -0.2193971 0.047959212 0
2.7672479 -0.22264749 0.14549398 0
2.7862794 -0.22466819 0.24455902 0
2.797761 -0.22657694 0.34464651 0
2.829273 -0.23012307 0.44959271 0
2.6828585 -0.21821423 -0.23549481 0
2.8216543 -0.22999913 0.55029315 0
2.7052641 -0.22098722 -0.14224915 0
2.8570397 -0.23388739 0.66180599 0
2.7304099 -0.22400081 -0.047819596 0
2.7499821 -0.22995579 0.048168644 0
2.7625136 -0.23148921 0.14528462 0
2.7934196 -0.23506097 0.24525626 0
2.796953 -0.23634157 0.34464651 0
2.8284945 -0.23950401 0.44959271 0
2.6820805 -0.22757784 -0.23549481 0
2.8247471 -0.24017981 0.55105644 0
2.7044761 -0.23042899 -0.14224915 0
2.8484814 -0.24269864 0.6600064 0
2.7137125 -0.23169304 -0.047540355 0
2.7452199 -0.23872729 0.048098832 0
2.7597411 -0.24047539 0.14517996 0
2.7846856 -0.24362841 0.24455902 0
2.7961538 -0.24561529 0.34464651 0
2.808007 -0.24715035 0.446464 0
2.6852803 -0.23682074 -0.23584343 0
2.8317575 -0.25023696 0.55258286 0
2.7076762 -0.2397484 -0.14245848 0
2.8437784 -0.25179946 0.65910655 0
2.7129292 -0.24069075 -0.047540355 0
2.7464046 -0.24800931 0.048133738 0
2.7648523 -0.25064817 0.14549398 0
2.7719569 -0.25178003 0.24351314 0
2.8032317 -0.2556074 0.3456215 0
2.814996 -0.25767091 0.44771552 0
2.6765013 -0.24546485 -0.23514619 0
2.8269567 -0.25976086 0.55181968 0
2.7147779 -0.24993086 -0.14287716 0
2.8467634 -0.26208186 0.6600064 0
2.7080898 -0.24979182 -0.047470544 0
2.7315409 -0.2567637 0.047889404 0
2.7698798 -0.261343 0.14580798 0
2.7710154 -0.26193807 0.24351314 0
2.7983234 -0.26550499 0.34513399 0
2.8179655 -0.26836118 0.44834125 0
2.6676497 -0.25451609 -0.23444894 0
2.8142598 -0.26899955 0.54952991 0
2.7138438 -0.25987935 -0.14287716 0
2.8535433 -0.27325705 0.66180599 0
2.7111375 -0.26009774 -0.047540355 0
2.7345622 -0.26716247 0.047959212 0
2.7669635 -0.27081555 0.14570332 0
2.7740026 -0.27248213 0.24386176 0
2.7933805 -0.27537006 0.34464651 0
2.8170116 -0.27819607 0.44834125 0
2.6746762 -0.26461104 -0.23514619 0
2.8133035 -0.27882153 0.54952991 0
2.7009952 -0.26816693 -0.14224915 0
2.8486443 -0.28332824 0.6609062 0
2.722152 -0.27074724 -0.047749784 0
2.7336612 -0.27622911 0.047959212 0
2.7520916 -0.279062 0.14497061 0
2.7809632 -0.28297034 0.24455902 0
2.7865274 -0.28402787 0.34391531 0
2.8160233 -0.28802755 0.44834125 0
2.6777003 -0.27435189 -0.23549481 0
2.8162692 -0.28854942 0.55029315 0
2.6921439 -0.27630657 -0.14183044 0
2.8321807 -0.29117873 0.65730697 0
2.7211905 -0.28024769 -0.047749784 0
2.7406356 -0.28660163 0.048098832 0
2.7511511 -0.28818673 0.14497061 0
2.7760465 -0.29177424 0.24421038 0
2.787493 -0.29396114 0.34415907 0
2.8071947 -0.29653418 0.44708973 0
2.6807382 -0.28364927 -0.23584343 0
2.8191497 -0.29879212 0.55105644 0
2.6991074 -0.28654566 -0.14224915 0
2.8311472 -0.30106309 0.65730697 0
2.7043386 -0.28757831 -0.047470544 0
2.7356937 -0.29525918 0.048029024 0
2.7580709 -0.2986483 0.1453893 0
2.7730305 -0.30124751 0.24403608 0
2.7983437 -0.30449158 0.3456215 0
2.8022151 -0.30590263 0.446464 0
2.6678483 -0.2917057 -0.23479758 0
2.8181434 -0.30813915 0.55105644 0
2.7100546 -0.29679924 -0.14287716 0
2.8378816 -0.31129983 0.65910655 0
2.7033181 -0.29701647 -0.047470544 0
2.7326591 -0.30458522 0.047994118 0
2.7609813 -0.30871779 0.14559864 0
2.764096 -0.30955452 0.24333882 0
2.7893729 -0.31337124 0.34464651 0
2.8089824 -0.31656721 0.44771552 0
2.662854 -0.3005695 -0.23444894 0
2.8053453 -0.31665319 0.54876673 0
2.7050328 -0.30580857 -0.14266783 0
2.8387139 -0.32142326 0.65955651 0
2.7102127 -0.30735233 -0.047610167 0
2.7216463 -0.31297988 0.047819596 0
2.759887 -0.31835353 0.14559864 0
2.7708597 -0.32059941 0.24403608 0
2.7843184 -0.32264906 0.34415907 0
2.8137465 -0.32705465 0.44865409 0
2.6657469 -0.31032354 -0.23479758 0
2.8119659 -0.32784256 0.55029315 0
2.6959589 -0.31479442 -0.14224915 0
2.8433237 -0.33250454 0.6609062 0
2.7071371 -0.3165786 -0.047575258 0
2.7224667 -0.32318881 0.047854498 0
2.7468591 -0.32657069 0.14497061 0
2.7717021 -0.33050546 0.24421038 0
2.7850883 -0.33308771 0.34440279 0
2.8027809 -0.33569986 0.44708973 0
2.6666255 -0.31986412 -0.23497188 0
2.8088553 -0.33742201 0.54991156 0
2.6869116 -0.32324889 -0.14183044 0
2.836401 -0.34123319 0.65955651 0
2.7080007 -0.32626551 -0.047610167 0
2.7412295 -0.33463821 0.048203547 0
2.7437787 -0.33543545 0.14486594 0
2.7725685 -0.33993742 0.24438471 0
2.7879088 -0.3428061 0.34489027 0
2.7898889 -0.34354389 0.44521254 0
2.66555 -0.32870519 -0.23497188 0
2.8194118 -0.34817839 0.55220127 0
2.6977179 -0.33362803 -0.14245848 0
2.835254 -0.35063717 0.65955651 0
2.7108731 -0.33573535 -0.047679976 0
2.7262156 -0.34198433 0.047959212 0
2.7505174 -0.34600815 0.14528462 0
2.7654958 -0.34838265 0.24386176 0
2.7906957 -0.35254681 0.34537774 0
2.7925923 -0.35377684 0.44583827 0
2.6485741 -0.33600175 -0.23357739 0
2.8104508 -0.35653767 0.5506748 0
2.6985784 -0.34282389 -0.14256316 0
2.8417451 -0.36151561 0.66135609 0
2.7057173 -0.34469062 -0.047610167 0
2.7210388 -0.3509869 0.047889404 0
2.7532547 -0.35611951 0.14549398 0
2.7602484 -0.35800382 0.24351314 0
2.7874792 -0.3620303 0.34513399 0
2.7932992 -0.36377776 0.44615117 0
2.6513364 -0.34576026 -0.233926 0
2.8013384 -0.36581922 0.54914832 0
2.7012644 -0.3532303 -0.14277251 0
2.8423333 -0.37218174 0.66180599 0
2.7183771 -0.35595062 -0.047854498 0
2.719734 -0.36095765 0.047889404 0
2.7500148 -0.36546487 0.1453893 0
2.7629318 -0.36816302 0.24386176 0
2.7723606 -0.37040433 0.34342784 0
2.8037601 -0.3750976 0.44802836 0
2.6580124 -0.35607117 -0.23462325 0
2.7961526 -0.37507343 0.54838508 0
2.6802201 -0.35999852 -0.14172579 0
2.8352227 -0.38132179 0.6604563 0
2.7151363 -0.36517084 -0.047819596 0
2.7244663 -0.37078357 0.047994118 0
2.7388277 -0.37371191 0.14486594 0
2.769526 -0.37888542 0.24455902 0
2.7691503 -0.3793264 0.34318411 0
2.7946057 -0.38380718 0.4467769 0
2.6567533 -0.36534724 -0.23462325 0
2.7987835 -0.3848787 0.54914832 0
2.6869259 -0.36997423 -0.14214447 0
2.8262208 -0.38965702 0.65865672 0
2.715826 -0.37491968 -0.047854498 0
2.7271166 -0.38084465 0.04806393 0
2.7336175 -0.38223892 0.1446566 0
2.7702272 -0.38834402 0.24473332 0
2.7737064 -0.38981903 0.34391531 0
2.7874491 -0.39224657 0.44583827 0
2.6555271 -0.37415528 -0.23462325 0
2.8090868 -0.3962914 0.55143803 0
2.6856179 -0.37935111 -0.14214447 0
2.8248434 -0.39952001 0.65865672 0
2.6967478 -0.38140333 -0.047540355 0
2.7337568 -0.39101854 0.048203547 0
2.7401745 -0.39291266 0.14507528 0
2.7609665 -0.39687759 0.24403608 0
2.7802582 -0.40014598 0.34489027 0
2.7821527 -0.40141001 0.44521254 0
2.6384296 -0.38114369 -0.23322876 0
2.7999849 -0.40448174 0.54991156 0
2.6962054 -0.3899703 -0.14277251 0
2.829289 -0.40972319 0.6600064 0
2.6973789 -0.39110133 -0.047575258 0
2.7164772 -0.39871246 0.047924306 0
2.7466202 -0.40411618 0.14549398 0
2.7497087 -0.40506092 0.24316452 0
2.7827005 -0.41091344 0.34537774 0
2.7845709 -0.41218293 0.44583827 0
2.6370149 -0.39081141 -0.23322876 0
2.7984836 -0.41474143 0.54991156 0
2.6947582 -0.39984977 -0.14277251 0
2.8354785 -0.42123577 0.66180599 0
2.7077949 -0.40275025 -0.04778469 0
2.7111139 -0.40759775 0.047854498 0
2.7412429 -0.41310593 0.14528462 0
2.7600257 -0.41692194 0.24421038 0
2.7675095 -0.41854647 0.34367159 0
2.7928803 -0.4233807 0.44740263 0
2.6435139 -0.4012098 -0.233926 0
2.789181 -0.42381588 0.54838508 0
2.6774781 -0.40732077 -0.14193512 0
2.8339155 -0.43162549 0.66180599 0
2.7063727 -0.4121998 -0.04778469 0
2.7175074 -0.41874993 0.047994118 0
2.7318885 -0.42145407 0.14486594 0
2.7624919 -0.42716265 0.24455902 0
2.7679186 -0.42899111 0.34391531 0
2.7874815 -0.43252134 0.4467769 0
2.6578476 -0.41288167 -0.23532049 0
2.7954443 -0.43475622 0.54991156 0
2.679987 -0.41727895 -0.14214447 0
2.8208387 -0.4397141 0.65910655 0
2.708869 -0.42226022 -0.047854498 0
2.7141285 -0.42744812 0.047959212 0
2.7264552 -0.43036485 0.1446566 0
2.7609837 -0.43680295 0.24455902 0
2.7664809 -0.43816754 0.34391531 0
2.7742488 -0.44039059 0.44489968 0
2.6485193 -0.42090592 -0.23462325 0
2.7959259 -0.44433194 0.55029315 0
2.6825333 -0.42679146 -0.1423538 0
2.815516 -0.44845295 0.65820676 0
2.689606 -0.42887938 -0.047540355 0
2.722491 -0.43850949 0.048133738 0
2.7329001 -0.44067547 0.14507528 0
2.7516527 -0.44468483 0.24386176 0
2.7727728 -0.4490912 0.34489027 0
2.7786231 -0.45053646 0.44583827 0
2.631376 -0.42713261 -0.23322876 0
2.798234 -0.45471868 0.55105644 0
2.6889126 -0.43743548 -0.14277251 0
2.81201 -0.45796493 0.65775687 0
2.6861949 -0.43747464 -0.04750545 0
2.6993167 -0.44396529 0.047749784 0
2.739228 -0.45151171 0.14549398 0
2.7461522 -0.45363775 0.24351314 0
2.7712684 -0.45828357 0.34489027 0
2.7848284 -0.4615247 0.44708973 0
2.6396966 -0.43794566 -0.23410031 0
2.7889636 -0.46271017 0.54952991 0
2.6775959 -0.44471362 -0.14224915 0
2.8316219 -0.47080317 0.66270578 0
2.7004321 -0.44947511 -0.04778469 0
2.701695 -0.45404786 0.047819596 0
2.7396045 -0.4614023 0.14559864 0
2.7465973 -0.46307305 0.24368747 0
2.7598648 -0.46630079 0.34367159 0
2.7948866 -0.47322145 0.44896698 0
2.6421585 -0.44736198 -0.23444894 0
2.7795887 -0.47113028 0.54800349 0
2.6720889 -0.45338926 -0.14203981 0
2.8261187 -0.48003185 0.66180599 0
2.6949041 -0.45822829 -0.047714882 0
2.7079771 -0.46482897 0.047959212 0
2.7202623 -0.46791539 0.1446566 0
2.7488914 -0.47333384 0.24403608 0
2.7601764 -0.47626916 0.34391531 0
2.7854319 -0.48162827 0.44771552 0
2.6445074 -0.45726106 -0.23479758 0
2.7895339 -0.48283899 0.55029315 0
2.666554 -0.46203184 -0.14183044 0
2.8167458 -0.48856184 0.6600064 0
2.6834369 -0.465922 -0.047540355 0
2.7122469 -0.47531429 0.04806393 0
2.7186122 -0.47740802 0.1446566 0
2.7491846 -0.48327127 0.24421038 0
2.7624075 -0.48658982 0.34440279 0
2.7720618 -0.48928815 0.44583827 0
2.6507435 -0.46787462 -0.23549481 0
2.7916982 -0.49325657 0.55105644 0
2.6688588 -0.47203276 -0.14203981 0
2.8150232 -0.49839115 0.6600064 0
2.6758873 -0.47423923 -0.047435641 0
2.7105713 -0.48477888 0.04806393 0
2.7287247 -0.48900864 0.14528462 0
2.7415977 -0.4918094 0.24368747 0
2.7724144 -0.49833652 0.34586522 0
2.7722812 -0.49931163 0.44615117 0
2.6334074 -0.47429925 -0.23410031 0
2.7938237 -0.50369507 0.55181968 0
2.6809533 -0.48382893 -0.14277251 0
2.8209369 -0.5096001 0.66180599 0
2.6761832 -0.48393276 -0.047470544 0
2.7029607 -0.49316087 0.047959212 0
2.7348599 -0.49996737 0.14570332 0
2.7398641 -0.50137639 0.24368747 0
2.7628481 -0.50657904 0.34489027 0
2.7685785 -0.50862873 0.44583827 0
2.6317356 -0.48348871 -0.23410031 0
2.7804632 -0.51131386 0.54952991 0
2.6733551 -0.49209949 -0.14245848 0
2.822974 -0.52015013 0.66270578 0
2.6823437 -0.49472219 -0.047610167 0
2.6972909 -0.50186133 0.047889404 0
2.7291713 -0.50877869 0.14549398 0
2.7361386 -0.51057172 0.24351314 0
2.7532578 -0.51476079 0.34391531 0
2.7745523 -0.51974452 0.44708973 0
2.6339486 -0.49340585 -0.23444894 0
2.7825205 -0.5217399 0.55029315 0
2.659843 -0.49921772 -0.14183044 0
2.8134801 -0.52856171 0.6609062 0
2.6806004 -0.50408232 -0.047610167 0
2.7053461 -0.5131368 0.04806393 0
2.7176583 -0.51596349 0.14497061 0
2.7460837 -0.52235341 0.24455902 0
2.7475441 -0.52362514 0.34342784 0
2.784456 -0.53116339 0.44896698 0
2.6400385 -0.50409186 -0.23514619 0
2.7845392 -0.53218669 0.55105644 0
2.6580844 -0.50849926 -0.14183044 0
2.8077903 -0.53764641 0.6600064 0
2.6848063 -0.51409703 -0.047714882 0
2.6997027 -0.52134693 0.047994118 0
2.7158406 -0.52544677 0.14497061 0
2.7481554 -0.53269416 0.24490763 0
2.7535877 -0.53424579 0.34440279 0
2.7670722 -0.53786439 0.446464 0
2.6421742 -0.51406527 -0.23549481 0
2.7827592 -0.54141766 0.55105644 0
2.6603045 -0.51807457 -0.14203981 0
2.7983408 -0.54546309 0.65820676 0
2.6692564 -0.52078509 -0.047470544 0
2.6998286 -0.53115344 0.048029024 0
2.7179089 -0.53569603 0.14517996 0
2.7366004 -0.53987634 0.24403608 0
2.7633903 -0.54616362 0.34586522 0
2.7593646 -0.5463689 0.44552541 0
2.6286373 -0.52096099 -0.23444894 0
2.7808523 -0.55112797 0.55105644 0
2.666316 -0.52891207 -0.14245848 0
2.8040655 -0.55674589 0.6600064 0
2.6713452 -0.5308789 -0.047540355 0
2.690115 -0.53900295 0.047889404 0
2.7199388 -0.54596615 0.1453893 0
2.7287431 -0.54872447 0.24351314 0
2.761467 -0.5558064 0.34586522 0
2.7671225 -0.55794972 0.44708973 0
2.6268027 -0.53013343 -0.23444894 0
2.7672675 -0.55898428 0.54876673 0
2.6643598 -0.53868103 -0.14245848 0
2.817286 -0.57011163 0.66360557 0
2.6694758 -0.54020041 -0.047540355 0
2.6842031 -0.54805905 0.047819596 0
2.723887 -0.55665696 0.14570332 0
2.7365708 -0.5602442 0.24438471 0
2.7438545 -0.56273341 0.34391531 0
2.7728984 -0.56919426 0.44834125 0
2.6327431 -0.54090339 -0.23514619 0
2.7729912 -0.57022214 0.55029315 0
2.6507254 -0.54556239 -0.14183044 0
2.8134716 -0.57905811 0.66315573 0
2.6793249 -0.55193597 -0.047749784 0
2.6980343 -0.56020945 0.048098832 0
2.7083375 -0.56284189 0.14497061 0
2.7405496 -0.57053417 0.24490763 0
2.7419734 -0.57182926 0.34391531 0
2.7767966 -0.57959729 0.44927984 0
2.6387358 -0.55126065 -0.23584343 0
2.7691634 -0.57901281 0.54991156 0
2.6528118 -0.55516773 -0.14203981 0
2.7962763 -0.58519131 0.65955651 0
2.67748 -0.56081802 -0.047749784 0
2.6942053 -0.56874037 0.04806393 0
2.7063565 -0.57229233 0.14497061 0
2.7347443 -0.57879394 0.24455902 0
2.7517138 -0.5833891 0.34537774 0
2.751569 -0.58436221 0.44552541 0
2.6290977 -0.55835241 -0.23514619 0
2.7729893 -0.5894171 0.55105644 0
2.6568167 -0.56520844 -0.1423538 0
2.7904046 -0.59413689 0.65865672 0
2.6520369 -0.56515932 -0.047330927 0
2.6961136 -0.57898116 0.048133738 0
2.7141054 -0.58383596 0.14549398 0
2.7268639 -0.58707845 0.24403608 0
2.7535412 -0.59382772 0.34586522 0
2.7514436 -0.59438056 0.44583827 0
2.6135001 -0.56458127 -0.233926 0
2.770915 -0.59909302 0.55105644 0
2.662636 -0.57616872 -0.14277251 0
2.7978365 -0.60593599 0.6609062 0
2.6637282 -0.57737845 -0.047575258 0
2.6764936 -0.58454871 0.047819596 0
2.7141054 -0.59325951 0.14559864 0
2.7209053 -0.59574109 0.24368747 0
2.7475739 -0.60258532 0.34537774 0
2.7552457 -0.60477191 0.4467769 0
2.6115134 -0.57370061 -0.233926 0
2.761137 -0.60707527 0.54952991 0
2.6606085 -0.58545953 -0.14277251 0
2.801414 -0.61695606 0.66225594 0
2.6696105 -0.58792895 -0.047714882 0
2.6803968 -0.59472048 0.047924306 0
2.7159171 -0.60359651 0.14580798 0
2.7265885 -0.60696697 0.24438471 0
2.7378101 -0.60996658 0.34440279 0
2.7608297 -0.61610675 0.44802836 0
2.6211619 -0.58541876 -0.23497188 0
2.7591088 -0.61622822 0.54952991 0
2.6508558 -0.59253639 -0.1423538 0
2.8050575 -0.62751871 0.66360557 0
2.6792502 -0.59986538 -0.047924306 0
2.6861076 -0.60583311 0.04806393 0
2.7061079 -0.61084038 0.1453893 0
2.7342772 -0.61820215 0.24525626 0
2.7376001 -0.61995792 0.34464651 0
2.7664773 -0.6270051 0.44927984 0
2.6230924 -0.59498912 -0.23532049 0
2.7607696 -0.62672478 0.55029315 0
2.6487713 -0.60178602 -0.1423538 0
2.7876484 -0.63384986 0.6600064 0
2.6791961 -0.60919023 -0.047959212 0
2.6957788 -0.61741573 0.048273355 0
2.6981192 -0.6189431 0.14507528 0
2.7321026 -0.62774277 0.24525626 0
2.7471371 -0.63170195 0.34610897 0
2.752722 -0.63399792 0.44740263 0
2.6248825 -0.60503685 -0.23566914 0
2.770155 -0.63852221 0.55258286 0
2.6545458 -0.61236215 -0.14277251 0
2.7893288 -0.64396727 0.6609062 0
2.6614664 -0.61493719 -0.047679976 0
2.6896029 -0.62638503 0.048203547 0
2.7055576 -0.63109654 0.14559864 0
2.7240744 -0.63591695 0.24473332 0
2.7448032 -0.64176643 0.34610897 0
2.7407632 -0.64183092 0.44583827 0
2.6110082 -0.61192566 -0.23462325 0
2.7639732 -0.64777505 0.55181968 0
2.6561725 -0.62299961 -0.14298184 0
2.7926414 -0.65552235 0.66225594 0
2.6572478 -0.6242305 -0.04764507 0
2.6737781 -0.63254714 0.047959212 0
2.7130554 -0.64283925 0.14612199 0
2.7120326 -0.64359671 0.24386176 0
2.7425463 -0.6513437 0.34610897 0
2.7461927 -0.6532225 0.44708973 0
2.6011033 -0.61919045 -0.233926 0
2.7539408 -0.65608126 0.55029315 0
2.6538713 -0.63273078 -0.14298184 0
2.7959063 -0.66711026 0.66360557 0
2.6647785 -0.63582283 -0.047819596 0
2.6753302 -0.64327765 0.048029024 0
2.7029142 -0.65090835 0.14570332 0
2.7175171 -0.65492684 0.24455902 0
2.7304924 -0.65906245 0.34489027 0
2.757221 -0.66653258 0.44927984 0
2.6181819 -0.63340479 -0.23566914 0
2.7516341 -0.66569024 0.55029315 0
2.6399994 -0.63917077 -0.1423538 0
2.791667 -0.67640692 0.66315573 0
2.6663167 -0.64652789 -0.047889404 0
2.6827817 -0.65498382 0.048203547 0
2.6948051 -0.65891612 0.1453893 0
2.7344508 -0.66962159 0.24630213 0
2.7320313 -0.66953462 0.34537774 0
2.7491221 -0.67474037 0.44834125 0
2.6159549 -0.64254016 -0.23566914 0
2.7529888 -0.6767084 0.55105644 0
2.6415179 -0.64979678 -0.14256316 0
2.7759233 -0.68337351 0.6600064 0
2.6698689 -0.65726519 -0.047994118 0
2.6842446 -0.66577506 0.048273355 0
2.6924887 -0.66831875 0.1453893 0
2.7243621 -0.67723989 0.24560487 0
2.7353377 -0.68098223 0.34610897 0
2.7429166 -0.68337744 0.44771552 0
2.6156292 -0.65214962 -0.23584343 0
2.7658484 -0.69011623 0.55410933 0
2.6431091 -0.65998119 -0.14277251 0
2.7773023 -0.694004 0.6609062 0
2.6559181 -0.66367203 -0.04778469 0
2.6762044 -0.67320931 0.048168644 0
2.6998234 -0.68015283 0.14591266 0
2.7142541 -0.68479604 0.24490763 0
2.7349892 -0.69053513 0.34635273 0
2.7443445 -0.69391632 0.44834125 0
2.6036792 -0.65883207 -0.23497188 0
2.7597382 -0.69832116 0.5533461 0
2.6525228 -0.67168415 -0.14340053 0
2.7787633 -0.70416737 0.66180599 0
2.6574621 -0.673922 -0.047854498 0
2.6757758 -0.68304145 0.048203547 0
2.7071078 -0.69204623 0.14643602 0
2.7042475 -0.69181776 0.24421038 0
2.7440999 -0.70303375 0.34781513 0
2.7457325 -0.7044735 0.44896698 0
2.60148 -0.66746253 -0.23497188 0
2.7572839 -0.70795012 0.5533461 0
2.6462932 -0.67994493 -0.14319119 0
2.7838378 -0.71580392 0.66360557 0
2.6550934 -0.68319416 -0.047854498 0
2.665632 -0.69037211 0.04806393 0
2.700809 -0.70048869 0.14622667 0
2.7056732 -0.70225424 0.24455902 0
2.7301018 -0.70961195 0.34635273 0
2.7547269 -0.71703911 0.4508442 0
2.6029909 -0.6775431 -0.23532049 0
2.7471967 -0.71559113 0.55181968 0
2.6303747 -0.68565154 -0.14245848 0
2.7832081 -0.72600889 0.66405553 0
2.6701062 -0.69700372 -0.048168644 0
2.6728761 -0.70221317 0.048238453 0
2.6810868 -0.70487052 0.14528462 0
2.7147655 -0.71473813 0.24560487 0
2.7180104 -0.71660697 0.34513399 0
2.7446938 -0.72415453 0.44959271 0
2.6102417 -0.68916821 -0.23619205 0
2.7522743 -0.72718221 0.5533461 0
2.6279655 -0.69482911 -0.14245848 0
2.7787728 -0.73522121 0.66360557 0
2.6503816 -0.70125085 -0.047854498 0
2.6705327 -0.71107292 0.048238453 0
2.6843994 -0.71576869 0.14559864 0
2.714179 -0.72472411 0.24577919 0
2.719455 -0.72664124 0.3456215 0
2.7383327 -0.73270971 0.44896698 0
2.6097448 -0.69879079 -0.23636638 0
2.7574339 -0.73833632 0.55487263 0
2.6275761 -0.70405692 -0.14256316 0
2.7687905 -0.74241316 0.66180599 0
2.6324666 -0.70635223 -0.047575258 0
2.6718955 -0.72143298 0.048308261 0
2.6915247 -0.72774118 0.14612199 0
2.7021449 -0.7311188 0.24490763 0
2.7322299 -0.7402826 0.3475714 0
2.7357585 -0.74226373 0.44896698 0
2.595876 -0.70431089 -0.23532049 0
2.7529449 -0.7474426 0.55449098 0
2.6347394 -0.71584284 -0.14308652 0
2.769943 -0.75309598 0.66270578 0
2.6377032 -0.71763688 -0.047714882 0
2.6577885 -0.72758722 0.048098832 0
2.6947465 -0.73871595 0.14643602 0
2.6995764 -0.74054658 0.24490763 0
2.7162297 -0.74613452 0.34586522 0
2.7407694 -0.75390446 0.45021844 0
2.5857172 -0.71125424 -0.23462325 0
2.7446404 -0.75548452 0.5533461 0
2.6360757 -0.72609621 -0.14329587 0
2.7785695 -0.76586729 0.66540521 0
2.6390374 -0.72790325 -0.04778469 0
2.6590865 -0.73792964 0.048168644 0
2.692282 -0.74764806 0.14643602 0
2.7027335 -0.75156671 0.24543057 0
2.7116966 -0.75507897 0.3456215 0
2.7477689 -0.7656402 0.45178279 0
2.594734 -0.72348654 -0.23566914 0
2.7382047 -0.76400536 0.55258286 0
2.6258302 -0.73314494 -0.14287716 0
2.7758791 -0.77556163 0.66540521 0
2.6443129 -0.73880291 -0.047924306 0
2.6662502 -0.74944913 0.048343167 0
2.6838882 -0.75541788 0.14612199 0
2.7135174 -0.76477987 0.24665076 0
2.7091777 -0.76406711 0.3456215 0
2.7355742 -0.77254272 0.45021844 0
2.5998619 -0.73470664 -0.23636638 0
2.7451024 -0.77575082 0.55449098 0
2.6195407 -0.74076158 -0.14266783 0
2.7714169 -0.7842319 0.66495532 0
2.6417179 -0.74802881 -0.047924306 0
2.6674643 -0.7598471 0.048412975 0
2.6793144 -0.76423401 0.14601734 0
2.7033026 -0.77158648 0.24595349 0
2.714129 -0.77570128 0.34659645 0
2.7328608 -0.78208685 0.45021844 0
2.5993268 -0.74387228 -0.23654069 0
2.7518146 -0.78803068 0.55639905 0
2.6246192 -0.75210178 -0.14308652 0
2.7667894 -0.79336411 0.66450542 0
2.6294799 -0.75448793 -0.047749784 0
2.6724806 -0.7713719 0.048552595 0
2.6766303 -0.77358186 0.14601734 0
2.6948512 -0.77935761 0.24543057 0
2.7228451 -0.78848356 0.34805888 0
2.7301142 -0.79162157 0.45021844 0
2.5967143 -0.75294107 -0.23654069 0
2.7528181 -0.79872566 0.55716228 0
2.6373222 -0.76571381 -0.14392389 0
2.767746 -0.80410439 0.66540521 0
2.6325908 -0.76533657 -0.047854498 0
2.6620946 -0.77845085 0.048412975 0
2.6874688 -0.78637999 0.14675003 0
2.6882901 -0.78763926 0.24508193 0
2.7200763 -0.79798341 0.34805888 0
2.7331603 -0.80233979 0.45115703 0
2.5864239 -0.7597546 -0.23584343 0
2.7349446 -0.80390066 0.55410933 0
2.630801 -0.77378786 -0.14371455 0
2.7723999 -0.81596166 0.6672048 0
2.6338751 -0.77519155 -0.047924306 0
2.6479938 -0.78386879 0.048203547 0
2.6808774 -0.79462111 0.1465407 0
2.6931646 -0.79928571 0.24577919 0
2.7040944 -0.80304313 0.34635273 0
2.7322366 -0.81243861 0.45146993 0
2.5894849 -0.7704829 -0.23636638 0
2.7322638 -0.81296575 0.55410933 0
2.6167355 -0.77908826 -0.14308652 0
2.7715466 -0.82570726 0.66765475 0
2.6292369 -0.78380954 -0.047889404 0
2.6567342 -0.79655308 0.048412975 0
2.6742616 -0.80282569 0.14633135 0
2.696224 -0.80993193 0.24630213 0
2.6974726 -0.81133366 0.34586522 0
2.7312753 -0.82254046 0.45178279 0
2.5905948 -0.78066689 -0.23671499 0
2.7350488 -0.82419759 0.55525422 0
2.6159122 -0.78879416 -0.14319119 0
2.7630503 -0.83368778 0.66630501 0
2.6379709 -0.79645032 -0.048098832 0
2.6539376 -0.8058219 0.048412975 0
2.671443 -0.81215572 0.14633135 0
2.6970491 -0.82096899 0.24665076 0
2.7136137 -0.82652873 0.3483026 0
2.7208295 -0.82976437 0.4505313 0
2.5840428 -0.78854191 -0.23636638 0
2.7451532 -0.83822978 0.55792552 0
2.6187336 -0.80012751 -0.1435052 0
2.7599761 -0.84380937 0.66630501 0
2.6217885 -0.80156118 -0.047854498 0
2.6624339 -0.81907153 0.048622403 0
2.6705003 -0.82206339 0.14643602 0
2.6903594 -0.82920468 0.24630213 0
2.7219472 -0.83998108 0.34976503 0
2.7160292 -0.83867401 0.45021844 0
2.5736604 -0.79520452 -0.23566914 0
2.7422104 -0.84780711 0.55792552 0
2.629281 -0.81339562 -0.14423791 0
2.7663217 -0.85631961 0.66855454 0
2.6189744 -0.81070799 -0.047854498 0
2.6482472 -0.82433009 0.048412975 0
2.6809621 -0.83554006 0.14716873 0
2.6817424 -0.83681035 0.24577919 0
2.7077773 -0.84545296 0.3483026 0
2.7225122 -0.85109663 0.45178279 0
2.578475 -0.80656254 -0.23636638 0
2.731889 -0.85455143 0.55639905 0
2.6303818 -0.82330334 -0.14444725 0
2.7671864 -0.8666532 0.66945434 0
2.6313941 -0.82462883 -0.048133738 0
2.6453536 -0.83356923 0.048412975 0
2.6781766 -0.84442586 0.14716873 0
2.6827526 -0.84689838 0.24612781 0
2.7010241 -0.8537032 0.34781513 0
2.7253249 -0.86190701 0.45272139 0
2.5814846 -0.816912 -0.2368893 0
2.7214031 -0.86171174 0.55487263 0
2.6084521 -0.82644767 -0.14340053 0
2.7622867 -0.8757183 0.66900444 0
2.6362698 -0.83576757 -0.048273355 0
2.64448 -0.8429442 0.048447877 0
2.6676021 -0.85134035 0.14675003 0
2.6987586 -0.86232179 0.24787092 0
2.7019598 -0.86386442 0.3483026 0
2.7241812 -0.87201732 0.45303425 0
2.5862072 -0.82834911 -0.23758654 0
2.7260091 -0.87312698 0.55639905 0
2.6114028 -0.83692163 -0.14371455 0
2.755656 -0.88368338 0.66810459 0
2.6352406 -0.84557587 -0.048308261 0
2.6546938 -0.85693109 0.048692215 0
2.664614 -0.8606469 0.14675003 0
2.6919405 -0.87051094 0.24752231 0
2.7101071 -0.87743062 0.34976503 0
2.7098453 -0.87786829 0.45115703 0
2.5870905 -0.83860028 -0.23793517 0
2.7377305 -0.88795799 0.559452 0
2.6121173 -0.84772044 -0.14392389 0
2.746994 -0.89149255 0.66675496 0
2.6246653 -0.85229903 -0.048168644 0
2.6518376 -0.86572969 0.048692215 0
2.6731367 -0.8731994 0.14737807 0
2.6795709 -0.87633634 0.24665076 0
2.7071824 -0.8864128 0.34976503 0
2.7125509 -0.8886947 0.45209566 0
2.5729358 -0.84345096 -0.2368893 0
2.7347708 -0.89703172 0.559452 0
2.6168823 -0.85886914 -0.14434259 0
2.7606866 -0.90606618 0.67080402 0
2.6218245 -0.86099797 -0.048168644 0
2.6394575 -0.87138426 0.048517693 0
2.6757612 -0.8844052 0.14769208 0
2.6785414 -0.88584286 0.24682505 0
2.7004592 -0.89413738 0.34927759 0
2.7206824 -0.90188736 0.45397288 0
2.5699759 -0.85242701 -0.2368893 0
2.7241697 -0.90409875 0.55792552 0
2.6176593 -0.86925727 -0.14455192 0
2.7556579 -0.91508305 0.67035419 0
2.6207006 -0.8707751 -0.048203547 0
2.6381426 -0.88168627 0.048552595 0
2.6706078 -0.89357281 0.14758742 0
2.6752765 -0.89565426 0.24682505 0
2.7009282 -0.90529072 0.34976503 0
2.7154858 -0.91122466 0.45366001 0
2.5743895 -0.86437744 -0.23758654 0
2.7171156 -0.91282696 0.55716228 0
2.6030967 -0.87502748 -0.14392389 0
2.7578266 -0.92703968 0.67170382 0
2.6269681 -0.88356209 -0.048378069 0
2.6367877 -0.89199048 0.048587501 0
2.6617968 -0.90096843 0.14727339 0
2.6832979 -0.90929025 0.24787092 0
2.6938324 -0.9139086 0.34927759 0
2.7179003 -0.92260277 0.45459861 0
2.578903 -0.87592161 -0.2382838 0
2.7250657 -0.92609614 0.559452 0
2.6000266 -0.8841086 -0.14392389 0
2.743504 -0.93289649 0.66900444 0
2.623868 -0.89272648 -0.048378069 0
2.6489522 -0.90590596 0.048866738 0
2.6512358 -0.90720391 0.14685471 0
2.6802678 -0.91818351 0.24787092 0
2.6982977 -0.9254126 0.35025251 0
2.69801 -0.92584008 0.45178279 0
2.5722151 -0.8831746 -0.23793517 0
2.7331204 -0.93895501 0.56174171 0
2.600858 -0.89402425 -0.14413324 0
2.7496099 -0.94515651 0.67125398 0
2.6114385 -0.89817083 -0.048203547 0
2.6440434 -0.91403198 0.048831832 0
2.6593773 -0.92037213 0.14748274 0
2.6696777 -0.9244588 0.24717368 0
2.6989653 -0.93565577 0.35073999 0
2.7040927 -0.93849075 0.45334715 0
2.5692723 -0.89169955 -0.23793517 0
2.7244277 -0.94608104 0.56059688 0
2.6054254 -0.90526617 -0.14455192 0
2.7499752 -0.95602846 0.67215377 0
2.6045098 -0.90596706 -0.048133738 0
2.6276233 -0.91863638 0.048587501 0
2.6636889 -0.93228871 0.14790143 0
2.6683147 -0.93443042 0.24734798 0
2.7031763 -0.94769824 0.35171497 0
2.71012 -0.95119506 0.4549115 0
2.5586243 -0.89802325 -0.23723793 0
2.7174039 -0.95428437 0.55983365 0
2.6022496 -0.91435516 -0.14455192 0
2.757652 -0.96949983 0.67485321 0
2.6088772 -0.91770709 -0.048273355 0
2.6300566 -0.92980236 0.048692215 0
2.6681144 -0.94378084 0.14832011 0
2.668793 -0.94506919 0.24769662 0
2.6848836 -0.95182204 0.34976503 0
2.7162592 -0.96347868 0.45647582 0
2.5704949 -0.91228014 -0.23863243 0
2.7140565 -0.96376401 0.55983365 0
2.5990422 -0.92343313 -0.14455192 0
2.7505786 -0.97781444 0.67395335 0
2.6133564 -0.92903274 -0.048412975 0
2.6326082 -0.94053721 0.048796929 0
2.6441174 -0.94568986 0.14716873 0
2.6861112 -0.96176696 0.24961405 0
2.6817124 -0.96072012 0.34976503 0
2.7091606 -0.97162056 0.45585006 0
2.574796 -0.92393887 -0.23932965 0
2.7182372 -0.97541124 0.56136012 0
2.5903263 -0.93002218 -0.14423791 0
2.7363172 -0.98297739 0.67125398 0
2.6138611 -0.93950218 -0.048482787 0
2.6443551 -0.95515567 0.049076166 0
2.6464345 -0.95695126 0.14748274 0
2.6866543 -0.97202486 0.24996266 0
2.6858082 -0.97277927 0.35073999 0
2.7057526 -0.98107141 0.45585006 0
2.569845 -0.93179309 -0.23915535 0
2.7277346 -0.98958039 0.56403142 0
2.596451 -0.94246566 -0.14476126 0
2.7401958 -0.99518371 0.67305356 0
2.6049271 -0.94657159 -0.048378069 0
2.637248 -0.96300852 0.049006358 0
2.648706 -0.9682405 0.14779675 0
2.6682758 -0.97592223 0.24856818 0
2.6917169 -0.98556107 0.35195872 0
2.6930377 -0.98711097 0.45428574 0
2.5516114 -0.93527228 -0.23776087 0
2.7242637 -0.99909598 0.56403142 0
2.6043956 -0.95565134 -0.1453893 0
2.7440228 -1.0074294 0.67485321 0
2.6053615 -0.95703781 -0.048447877 0
2.6301186 -0.97082359 0.04893655 0
2.6528037 -0.98024929 0.14821544 0
2.6760652 -0.98937559 0.24961405 0
2.6919835 -0.99632907 0.35244617 0
2.7006896 -1.0006233 0.45616296 0
2.5537708 -0.9466958 -0.2382838 0
2.7097147 -1.004505 0.56174171 0
2.5972986 -0.96334755 -0.14517996 0
2.7477973 -1.0197135 0.67665279 0
2.6076288 -0.96821451 -0.048552595 0
2.6267138 -0.97999835 0.04893655 0
2.6531081 -0.99090099 0.14842479 0
2.6574912 -0.99359524 0.24821955 0
2.681052 -1.0029377 0.35147122 0
2.6971805 -1.0100443 0.45616296 0
2.5541821 -0.9570024 -0.23863243 0
2.6986611 -1.0116731 0.56021523 0
2.5862701 -0.97005486 -0.14476126 0
2.7440414 -1.0297779 0.67665279 0
2.6079774 -0.97871608 -0.048622403 0
2.6268461 -0.99103093 0.049006358 0
2.6345108 -0.99497312 0.14758742 0
2.678236 -1.0120209 0.2504856 0
2.6736448 -1.0113528 0.35098374 0
2.6990027 -1.0220219 0.45710155 0
2.5657322 -0.97155684 -0.24002692 0
2.7134724 -1.0280428 0.56403142 0
2.5866036 -0.98049271 -0.14497061 0
2.7313197 -1.0358949 0.67440325 0
2.6025035 -0.9875589 -0.048587501 0
2.634582 -1.0044686 0.049215786 0
2.6478152 -1.0105728 0.14852946 0
2.6746869 -1.0213636 0.2504856 0
2.6793694 -1.0242234 0.35220242 0
2.6880388 -1.0286131 0.45585006 0
2.5641859 -0.98121905 -0.24020122 0
2.7172012 -1.0403161 0.5655579 0
2.5906255 -0.99237341 -0.1453893 0
2.7349658 -1.0482123 0.67620283 0
2.597173 -0.99592137 -0.048552595 0
2.6347914 -1.0150968 0.049285594 0
2.6407223 -1.017911 0.14832011 0
2.6729643 -1.0314111 0.25065991 0
2.6868885 -1.0378616 0.35366488 0
2.6882982 -1.0389454 0.45647582 0
2.5514536 -0.98657095 -0.23932965 0
2.7135534 -1.0497946 0.5655579 0
2.5945961 -1.0042942 -0.14580798 0
2.7367418 -1.059864 0.67755258 0
2.5938561 -1.0045284 -0.048552595 0
2.616502 -1.0180278 0.049006358 0
2.6557636 -1.0343711 0.14936683 0
2.6433594 -1.0306027 0.24821955 0
2.6797333 -1.0453231 0.3531774 0
2.6901753 -1.0504786 0.45741442 0
2.5461385 -0.99474627 -0.23915535 0
2.7009139 -1.0552152 0.56364983 0
2.5875311 -1.0114384 -0.14559864 0
2.5996451 -1.0172198 -0.048727117 0
2.6147938 -1.0278864 0.049041264 0
2.6355913 -1.0365932 0.14842479 0
2.6640279 -1.0488514 0.2504856 0
2.6723742 -1.053215 0.35268989 0
2.5483861 -1.0053777 -0.23967829 0
2.5765543 -1.01753 -0.14517996 0
2.5962577 -1.0258349 -0.048727117 0
2.6225221 -1.0409782 0.049250688 0
2.6393812 -1.0487368 0.14884347 0
2.6584992 -1.0574079 0.25031129 0
2.5596673 -1.0201681 -0.24107277 0
2.5768762 -1.0275481 -0.1453893 0
2.5945179 -1.0356327 -0.048762023 0
2.6207287 -1.0508705 0.049285594 0
2.6338508 -1.0571996 0.1487388 0
2.5542426 -1.0283529 -0.24089848 0
2.5788317 -1.0387754 -0.14570332 0
2.5890326 -1.0439351 -0.048727117 0
2.5432551 -1.0342602 -0.24020122 0
2.587956 -1.0534916 -0.14643602 0
2.5872247 -1.0537205 -0.048762023 0
2.5357616 -1.0420603 -0.23985259 0
2.5898046 -1.0647974 -0.14675003 0
