# .PCD v0.7 - Point Cloud Data file format
VERSION 0.7
FIELDS x y z rgba
SIZE 4 4 4 4
TYPE F F F U
COUNT 1 1 1 1
WIDTH 1384
HEIGHT 1
VIEWPOINT 0 0 0 1 0 0 0
POINTS 1384
DATA ascii
2.1785214 -0.63621879 0.4411504 0
2.2659857 -0.66219133 -0.12372221 0
2.1696773 -0.63445795 0.52188647 0
2.2665994 -0.66322947 -0.041222587 0
2.1636322 -0.63351023 0.60408366 0
2.2425346 -0.66001385 0.040803727 0
2.2242455 -0.6554749 0.1215241 0
2.2282636 -0.6570816 0.20324717 0
2.2179701 -0.6548878 0.2839556 0
2.2711606 -0.67102402 -0.29078028 0
2.1860497 -0.64629251 0.36105078 0
2.2698386 -0.6710642 -0.20708205 0
2.1875832 -0.64716113 0.44344014 0
2.2674906 -0.67123085 -0.12393155 0
2.1637123 -0.64092082 0.52098668 0
2.2527668 -0.66772771 -0.041013155 0
2.1558511 -0.63941091 0.60253078 0
2.2440498 -0.66898024 0.040873535 0
2.233427 -0.66666245 0.12215213 0
2.2183204 -0.66257489 0.20254995 0
2.2137687 -0.66205728 0.28371185 0
2.280215 -0.68236244 -0.29224271 0
2.1932421 -0.65675259 0.36261514 0
2.252213 -0.67441106 -0.20568755 0
2.1796689 -0.65310276 0.44229528 0
2.2727864 -0.6814363 -0.12435025 0
2.1726611 -0.65182948 0.52368605 0
2.248507 -0.67501217 -0.040978249 0
2.1480558 -0.64526498 0.60097784 0
2.2302151 -0.67334151 0.040664107 0
2.2368217 -0.67618835 0.12246615 0
2.2140868 -0.66973734 0.20237562 0
2.2038448 -0.66747904 0.2827369 0
2.2778192 -0.69031769 -0.29224271 0
2.1758134 -0.65981841 0.36011216 0
2.249845 -0.68226862 -0.20568755 0
2.1661038 -0.65728676 0.44000554 0
2.2665718 -0.688205 -0.1241409 0
2.18156 -0.6628086 0.52638549 0
2.2461371 -0.6828568 -0.040978249 0
2.1402457 -0.6510725 0.59942496 0
2.2259386 -0.68053764 0.040629201 0
2.2307475 -0.68243372 0.12225681 0
2.1984003 -0.67337728 0.20115545 0
2.1901143 -0.67167556 0.28127447 0
2.2753956 -0.69826454 -0.29224271 0
2.1811671 -0.66934806 0.36136368 0
2.2588778 -0.693627 -0.20673342 0
2.1581662 -0.66311401 0.43886071 0
2.2527013 -0.69259107 -0.12351287 0
2.1699202 -0.66755462 0.52413595 0
2.2515056 -0.69265354 -0.041117873 0
2.1454601 -0.66043961 0.6014955 0
2.2313111 -0.69027942 0.040768825 0
2.2169046 -0.68667054 0.12162878 0
2.2074544 -0.68458802 0.20220132 0
2.1878748 -0.67893457 0.28127447 0
2.2616928 -0.70227432 -0.29078028 0
2.1788173 -0.67695773 0.36136368 0
2.2602477 -0.70269072 -0.20708205 0
2.1672037 -0.67376411 0.4411504 0
2.2503922 -0.70005739 -0.12351287 0
2.1565304 -0.6712715 0.52143651 0
2.2528925 -0.70169789 -0.041187681 0
2.1468303 -0.66907424 0.60253078 0
2.228888 -0.69806397 0.040768825 0
2.2144942 -0.6944049 0.12162878 0
2.1937659 -0.68832564 0.20115545 0
2.2044301 -0.69251698 0.28371185 0
2.2592278 -0.71016479 -0.29078028 0
2.170788 -0.68278098 0.36042506 0
2.2541041 -0.70898652 -0.20673342 0
2.1723297 -0.68368262 0.4426769 0
2.2479346 -0.70790851 -0.12351287 0
2.1523156 -0.67820954 0.52098668 0
2.2408936 -0.70655102 -0.041013155 0
2.1463242 -0.6771453 0.60304838 0
2.2302501 -0.70704854 0.040838633 0
2.2196712 -0.70454758 0.12204745 0
2.187552 -0.6947729 0.20080683 0
2.1944323 -0.69780147 0.2827369 0
2.2661932 -0.72105604 -0.29199898 0
2.1646271 -0.68915588 0.35979933 0
2.2421229 -0.71382838 -0.20586187 0
2.1605766 -0.68828166 0.44076881 0
2.2568676 -0.71939039 -0.1241409 0
2.1555045 -0.68749481 0.5223363 0
2.2231734 -0.70950508 -0.040733919 0
2.1384265 -0.68287021 0.6014955 0
2.2163439 -0.71116346 0.040629201 0
2.2210016 -0.71351326 0.12225681 0
2.1964943 -0.70606297 0.20185271 0
2.1882041 -0.70424098 0.28224945 0
2.2598834 -0.72774523 -0.29151151 0
2.1716089 -0.69973665 0.36136368 0
2.2320318 -0.71920621 -0.20516461 0
2.1525555 -0.69401193 0.43962395 0
2.2524419 -0.72665071 -0.12403623 0
2.1642189 -0.69860649 0.52503574 0
2.2263918 -0.71910501 -0.040838633 0
2.1231623 -0.68617195 0.59787202 0
2.2100441 -0.71766049 0.040559392 0
2.2184978 -0.72126162 0.12225681 0
2.207279 -0.71804035 0.20307288 0
2.1819572 -0.71064538 0.28176194 0
2.2592165 -0.73624426 -0.29175523 0
2.1729095 -0.70853764 0.36198941 0
2.2408733 -0.73069912 -0.20621049 0
2.1445203 -0.69969469 0.4384791 0
2.2403984 -0.73140955 -0.12351287 0
2.1562097 -0.70434153 0.52368605 0
2.2276697 -0.72811466 -0.040908441 0
2.1372793 -0.69898343 0.60253078 0
2.2151246 -0.72786754 0.040699009 0
2.2045829 -0.72525638 0.12162878 0
2.1934042 -0.72200304 0.20202701 0
2.1870048 -0.72074288 0.2827369 0
2.2396657 -0.73853099 -0.2895616 0
2.1798024 -0.71921289 0.36355373 0
2.2420931 -0.73976535 -0.20655911 0
2.1476579 -0.70902264 0.43962395 0
2.2340386 -0.73797262 -0.12330353 0
2.146337 -0.70941746 0.52188647 0
2.2251146 -0.73588622 -0.040908441 0
2.1384945 -0.70765346 0.60356599 0
2.2201607 -0.73811883 0.040838633 0
2.2001429 -0.73231661 0.1215241 0
2.1870897 -0.728396 0.20167838 0
2.1731765 -0.72460508 0.28127447 0
2.2389572 -0.74697256 -0.28980532 0
2.1472988 -0.71680951 0.35854784 0
2.2357175 -0.74632531 -0.20621049 0
2.1544805 -0.71962488 0.44153205 0
2.2333434 -0.74639946 -0.12340819 0
2.138303 -0.71505129 0.52053672 0
2.2130504 -0.74047625 -0.040733919 0
2.1360111 -0.71511388 0.60356599 0
2.2099891 -0.74331409 0.040699009 0
2.199466 -0.74062943 0.12162878 0
2.1883104 -0.73729819 0.20202701 0
2.178158 -0.73472434 0.28224945 0
2.2457404 -0.7579574 -0.291024 0
2.1485264 -0.72556466 0.35917357 0
2.225548 -0.75157505 -0.20551322 0
2.1463757 -0.72525561 0.44038719 0
2.2439687 -0.7586686 -0.1241409 0
2.1468701 -0.7262578 0.52323616 0
2.2085578 -0.74755555 -0.040699009 0
2.126183 -0.72008687 0.6014955 0
2.2054882 -0.75037986 0.040664107 0
2.2006483 -0.74959046 0.12183812 0
2.1725221 -0.74043316 0.20080683 0
2.17558 -0.7423231 0.28224945 0
2.2505956 -0.76835746 -0.29199898 0
2.1515889 -0.7349757 0.36011216 0
2.2191403 -0.75805098 -0.20516461 0
2.1326842 -0.72893363 0.43809745 0
2.2375271 -0.76520413 -0.12393155 0
2.1480093 -0.73500913 0.52413595 0
2.2172863 -0.75914687 -0.040908441 0
2.1236567 -0.72750431 0.6014955 0
2.19151 -0.75416958 0.040454678 0
2.2093487 -0.7611711 0.12246615 0
2.1680405 -0.74736291 0.20063251 0
2.1654694 -0.74732238 0.28127447 0
2.2403941 -0.77361703 -0.291024 0
2.167681 -0.74893242 0.36324087 0
2.2240133 -0.76839519 -0.20586187 0
2.1319823 -0.73701513 0.4384791 0
2.2235172 -0.76909274 -0.12330353 0
2.1417475 -0.74122792 0.52323616 0
2.214623 -0.766882 -0.040908441 0
2.1211042 -0.73491275 0.6014955 0
2.2001958 -0.76575863 0.040664107 0
2.1859317 -0.76164973 0.12131476 0
2.1804695 -0.76017326 0.20202701 0
2.1590993 -0.75356841 0.28078699 0
2.2264354 -0.77750605 -0.2895616 0
2.1650536 -0.75649452 0.36324087 0
2.2288411 -0.77878261 -0.20655911 0
2.1312501 -0.74510068 0.43886071 0
2.220819 -0.77684957 -0.12330353 0
2.1354682 -0.74741191 0.5223363 0
2.2062707 -0.77262497 -0.040803727 0
2.1258183 -0.74486756 0.60356599 0
2.1975093 -0.77343404 0.040664107 0
2.1852777 -0.76955777 0.12141944 0
2.1796818 -0.76844239 0.20220132 0
2.1601994 -0.76242179 0.28127447 0
2.2255797 -0.78593397 -0.28980532 0
2.1569452 -0.76169664 0.36230227 0
2.2223518 -0.7852304 -0.20621049 0
2.1360402 -0.755153 0.44038719 0
2.2218597 -0.78592902 -0.12351287 0
2.1273353 -0.75291109 0.52098668 0
2.198041 -0.77793539 -0.040699009 0
2.1160526 -0.74933362 0.6014955 0
2.1930482 -0.78004688 0.040629201 0
2.186341 -0.77852106 0.12162878 0
2.1638489 -0.77136302 0.20098113 0
2.1651382 -0.77224869 0.28224945 0
2.234179 -0.79731327 -0.29126775 0
2.1468318 -0.76656413 0.36105078 0
2.2083397 -0.78896117 -0.20516461 0
2.1353729 -0.76289272 0.44076881 0
2.2305255 -0.79732645 -0.1241409 0
2.1266615 -0.76061767 0.52143651 0
2.195312 -0.78560323 -0.040699009 0
2.1097865 -0.75541288 0.60046023 0
2.1827853 -0.78499043 0.040489584 0
2.1912646 -0.7884717 0.12204745 0
2.1575301 -0.77718401 0.20063251 0
2.1680315 -0.78182191 0.28298062 0
2.2313821 -0.80510724 -0.29126775 0
2.1387036 -0.77166778 0.36011216 0
2.2132072 -0.79898614 -0.20586187 0
2.1197715 -0.76567316 0.43809745 0
2.2202153 -0.80239207 -0.12372221 0
2.1313241 -0.77068716 0.52323616 0
2.1983366 -0.79491889 -0.040803727 0
2.1036367 -0.76109058 0.59942496 0
2.1858084 -0.79427332 0.040594298 0
2.1847451 -0.79475039 0.12183812 0
2.1604204 -0.7867558 0.20115545 0
2.1616967 -0.7876479 0.28249314 0
2.2268348 -0.81182224 -0.291024 0
2.1452756 -0.78251296 0.36167651 0
2.2066617 -0.80534059 -0.20551322 0
2.1135323 -0.77135223 0.43733424 0
2.2100379 -0.80700994 -0.12330353 0
2.1250958 -0.77641314 0.5223363 0
2.1993046 -0.8039608 -0.040873535 0
2.1100388 -0.77174699 0.60201317 0
2.1867769 -0.80327749 0.040664107 0
2.1744597 -0.79961443 0.12141944 0
2.1690187 -0.79804355 0.20220132 0
2.1421692 -0.78901392 0.28029951 0
2.2146745 -0.81615829 -0.28980532 0
2.1443846 -0.79068011 0.36198941 0
2.211314 -0.81579679 -0.20621049 0
2.1200364 -0.78212267 0.43924233 0
2.2072074 -0.81471956 -0.12330353 0
2.1242008 -0.78450149 0.52278626 0
2.188982 -0.80886048 -0.040733919 0
2.1145799 -0.78178728 0.60408366 0
2.1877086 -0.81229788 0.040733919 0
2.1716552 -0.8071999 0.12141944 0
2.1623445 -0.80459833 0.20185271 0
2.1487041 -0.79994971 0.28151822 0
2.211812 -0.82388407 -0.28980532 0
2.1360586 -0.79609096 0.36105078 0
2.2121866 -0.82490307 -0.20655911 0
2.1300316 -0.79469162 0.44191366 0
2.2042065 -0.82280385 -0.12330353 0
2.1286135 -0.79500914 0.52458584 0
2.1767788 -0.81299829 -0.040559392 0
2.1154573 -0.79051626 0.60511893 0
2.1828446 -0.81960779 0.040699009 0
2.1725636 -0.81618017 0.12162878 0
2.1501982 -0.8086347 0.20098113 0
2.158762 -0.81271553 0.28322437 0
2.2124929 -0.83338469 -0.2902928 0
2.1258724 -0.80075717 0.35979933 0
2.1999717 -0.82910675 -0.20568755 0
2.1217334 -0.800044 0.44076881 0
2.212533 -0.83472294 -0.12393155 0
2.1258254 -0.80243456 0.52458584 0
2.1851528 -0.82482892 -0.040768825 0
2.0982268 -0.79243535 0.60097784 0
2.172636 -0.82400554 0.040559392 0
2.17717 -0.82659453 0.12204745 0
2.1436377 -0.81471974 0.20063251 0
2.1486335 -0.8170476 0.28224945 0
2.2134278 -0.84212881 -0.29078028 0
2.1267564 -0.80957842 0.36042506 0
2.1933403 -0.83536285 -0.20533893 0
2.1080606 -0.80288291 0.4384791 0
2.2060201 -0.84063292 -0.12372221 0
2.1267946 -0.81086808 0.52548569 0
2.1878653 -0.83458948 -0.040873535 0
2.095448 -0.79975474 0.60097784 0
2.1697464 -0.83158439 0.040559392 0
2.1742716 -0.83418924 0.12204745 0
2.1483645 -0.82467991 0.20132977 0
2.1383562 -0.82169461 0.28127447 0
2.2141805 -0.85127467 -0.29126775 0
2.1202304 -0.81557888 0.35979933 0
2.2017155 -0.84692341 -0.20638479 0
2.1015806 -0.80882609 0.43771586 0
2.1956172 -0.84545749 -0.12330353 0
2.1203141 -0.81688589 0.52458584 0
2.1868045 -0.84294075 -0.040908441 0
2.0926435 -0.80706441 0.60097784 0
2.174289 -0.84204173 0.040699009 0
2.1601732 -0.83744228 0.12141944 0
2.1621907 -0.83865845 0.20289856 0
2.1317739 -0.82771677 0.28078699 0
2.203794 -0.85612321 -0.2902928 0
2.1210527 -0.82440615 0.36042506 0
2.1987457 -0.85460371 -0.20638479 0
2.104234 -0.81829178 0.43886071 0
2.1889296 -0.85166806 -0.12309418 0
2.1101859 -0.82145447 0.52278626 0
2.1894388 -0.85274619 -0.041013155 0
2.0970137 -0.81716979 0.60304838 0
2.1713367 -0.84962618 0.040699009 0
2.1535175 -0.8435207 0.12121009 0
2.1425548 -0.83965808 0.20132977 0
2.1325676 -0.83660293 0.28127447 0
2.2007923 -0.8638106 -0.2902928 0
2.1052914 -0.82675064 0.35823497 0
2.1957493 -0.86227351 -0.20638479 0
2.115983 -0.83137548 0.44191366 0
2.1933789 -0.86222643 -0.12351287 0
2.1073055 -0.8288154 0.52278626 0
2.1697013 -0.85379326 -0.040699009 0
2.0941484 -0.82448483 0.60304838 0
2.1683576 -0.85720044 0.040699009 0
2.1579883 -0.85397238 0.12162878 0
2.1340535 -0.84493154 0.20080683 0
2.1370161 -0.84696752 0.28224945 0
2.20699 -0.87514609 -0.29151151 0
2.106065 -0.83555138 0.3588607 0
2.1890218 -0.86846328 -0.20603617 0
2.111243 -0.83803219 0.44153205 0
2.1977806 -0.87282622 -0.12393155 0
2.1080215 -0.83760536 0.52368605 0
2.1741409 -0.86431682 -0.040838633 0
2.0840774 -0.82893378 0.60097784 0
2.1559167 -0.86143225 0.040524486 0
2.1605582 -0.86372423 0.1219428 0
2.1309423 -0.85274756 0.20080683 0
2.1338975 -0.85479444 0.28224945 0
2.2020791 -0.88210654 -0.29126775 0
2.1233053 -0.85098147 0.36230227 0
2.1747286 -0.87203157 -0.2049903 0
2.0935807 -0.83991665 0.4384791 0
2.1945667 -0.88087565 -0.12393155 0
2.1087019 -0.84641045 0.52458584 0
2.1692553 -0.87115544 -0.040803727 0
2.0811713 -0.83620358 0.60097784 0
2.1549027 -0.86932504 0.040559392 0
2.159534 -0.87163156 0.12204745 0
2.1391866 -0.86428744 0.20185271 0
2.1200094 -0.85740036 0.28078699 0
2.1917806 -0.88642699 -0.2902928 0
2.1076534 -0.85283118 0.36011216 0
2.1829054 -0.88372433 -0.20603617 0
2.0871446 -0.84538054 0.43771586 0
2.176825 -0.88214725 -0.12309418 0
2.1094959 -0.85486239 0.52548569 0
2.1756201 -0.882101 -0.040978249 0
2.0819671 -0.84455281 0.60201317 0
2.1557119 -0.87797469 0.040629201 0
2.1453815 -0.87464052 0.12141944 0
2.1399987 -0.87288153 0.20220132 0
2.122668 -0.86667699 0.28151822 0
2.1776469 -0.88956809 -0.28883037 0
2.1064923 -0.86093044 0.36042506 0
2.1873405 -0.89397341 -0.20673342 0
2.095233 -0.8567555 0.44000554 0
2.1775851 -0.89087355 -0.12330353 0
2.0992846 -0.85926777 0.52368605 0
2.176229 -0.89120567 -0.041048057 0
2.0825818 -0.85327983 0.60304838 0
2.1581821 -0.88777626 0.040733919 0
2.1423154 -0.88212395 0.12141944 0
2.1332541 -0.87882829 0.20185271 0
2.1306407 -0.87862182 0.28298062 0
2.1818686 -0.90019244 -0.28980532 0
2.0998223 -0.86677086 0.35979933 0
2.1805232 -0.90008277 -0.20638479 0
2.103117 -0.86856043 0.44229528 0
2.178154 -0.89999473 -0.12351287 0
2.0890689 -0.86361253 0.52188647 0
2.1638653 -0.89497519 -0.040873535 0
2.0760205 -0.85906696 0.60201317 0
2.1532233 -0.89453715 0.040699009 0
2.1465998 -0.89266419 0.12183812 0
2.1283338 -0.88550413 0.20167838 0
2.1330583 -0.88834327 0.28371185 0
2.1860428 -0.91085714 -0.29078028 0
2.0967839 -0.87409526 0.35979933 0
2.1698539 -0.90500087 -0.20568755 0
2.0982606 -0.87514073 0.44191366 0
2.1823719 -0.91066903 -0.12393155 0
2.1004281 -0.87690568 0.52548569 0
2.149657 -0.89789879 -0.040664107 0
2.0694442 -0.86481857 0.60097784 0
2.1427119 -0.8989535 0.040559392 0
2.1508367 -0.90324515 0.12225681 0
2.117727 -0.89021045 0.20098113 0
2.1226251 -0.89270532 0.2827369 0
2.1901689 -0.9215619 -0.29175523 0
2.1010025 -0.88447487 0.36105078 0
2.1630096 -0.91102296 -0.20533893 0
2.0805655 -0.87672645 0.43886071 0
2.1790195 -0.91866159 -0.12393155 0
2.0989954 -0.88535547 0.52593553 0
2.1594071 -0.91083711 -0.040908441 0
2.0699725 -0.87353927 0.60201317 0
2.1375616 -0.90602046 0.040524486 0
2.1439929 -0.90918785 0.12204745 0
2.1201088 -0.89993274 0.20150407 0
2.1083767 -0.89582145 0.28127447 0
2.1831226 -0.92802984 -0.29126775 0
2.1142638 -0.89875847 0.36386663 0
2.1598163 -0.9185676 -0.20533893 0
2.0774925 -0.88398361 0.43886071 0
2.161098 -0.92000365 -0.12309418 0
2.0905135 -0.89038616 0.52458584 0
2.159894 -0.91993648 -0.040978249 0
2.0686879 -0.88151675 0.60253078 0
2.1382225 -0.9146769 0.040594298 0
2.1297901 -0.9119494 0.12141944 0
2.1206172 -0.9088977 0.20185271 0
2.1017456 -0.90124357 0.28078699 0
2.1727359 -0.93213373 -0.2902928 0
2.0947764 -0.89912093 0.36105078 0
2.1675811 -0.9308182 -0.20638479 0
2.0799613 -0.89319193 0.44000554 0
2.1580353 -0.92716515 -0.12309418 0
2.0714362 -0.89038759 0.52053672 0
2.1566696 -0.92747027 -0.040978249 0
2.0709219 -0.89102298 0.60408366 0
2.1441956 -0.92609954 0.040768825 0
2.1265941 -0.9193781 0.12141944 0
2.1249061 -0.91908872 0.20254995 0
2.1168039 -0.91646153 0.28322437 0
2.1712904 -0.94050121 -0.29053652 0
2.0789378 -0.90092945 0.3588607 0
2.1644826 -0.9380011 -0.20638479 0
2.0804334 -0.90200883 0.44076881 0
2.1621151 -0.93787169 -0.12351287 0
2.0736787 -0.89994019 0.52188647 0
2.1479163 -0.93260354 -0.040873535 0
2.0624833 -0.89593726 0.60253078 0
2.1372836 -0.93197984 0.040699009 0
2.1288633 -0.92919272 0.12173345 0
2.121685 -0.9265005 0.20254995 0
2.1172297 -0.92543495 0.28371185 0
2.1625378 -0.94568861 -0.28980532 0
2.0757804 -0.90818071 0.3588607 0
2.150243 -0.94075912 -0.20533893 0
2.0826678 -0.91162717 0.44191366 0
2.1643167 -0.94781685 -0.12382689 0
2.0776644 -0.91030145 0.52368605 0
2.1483107 -0.94170117 -0.040943347 0
2.0611124 -0.90390712 0.60304838 0
2.1321874 -0.93862909 0.040664107 0
2.1347454 -0.9406448 0.12225681 0
2.1111455 -0.930686 0.20185271 0
2.1085382 -0.93041575 0.28298062 0
2.1773837 -0.96124864 -0.29224271 0
2.094281 -0.92499822 0.36261514 0
2.1540699 -0.95185494 -0.20603617 0
2.0633111 -0.91174978 0.4384791 0
2.160995 -0.95536596 -0.12382689 0
2.0833852 -0.9214896 0.52593553 0
2.1358674 -0.94514841 -0.040768825 0
2.0491123 -0.90718597 0.60046023 0
2.119761 -0.94200569 0.040489584 0
2.1314487 -0.94809073 0.12225681 0
2.1150007 -0.94165903 0.20254995 0
2.0980241 -0.93453938 0.2820057 0
2.1667624 -0.96561104 -0.29126775 0
2.0820189 -0.92828095 0.36105078 0
2.1507342 -0.95936823 -0.20603617 0
2.0599556 -0.9193061 0.4384791 0
2.157479 -0.9632799 -0.12382689 0
2.0728765 -0.92594028 0.52413595 0
2.1435099 -0.9574917 -0.040978249 0
2.0512247 -0.91669792 0.60201317 0
2.125416 -0.95386261 0.040664107 0
2.1153722 -0.94979846 0.1215241 0
2.1189699 -0.95230287 0.20324717 0
2.0945849 -0.94222271 0.2820057 0
2.1595883 -0.97191685 -0.29078028 0
2.0985806 -0.94446057 0.36449236 0
2.1546395 -0.97014201 -0.20673342 0
2.0603139 -0.92810369 0.43924233 0
2.143178 -0.96588129 -0.12319885 0
2.0643022 -0.93076724 0.52278626 0
2.1438005 -0.96661198 -0.041048057 0
2.060339 -0.92941296 0.6056366 0
2.1240628 -0.96173012 0.040699009 0
2.113863 -0.9580012 0.12162878 0
2.115633 -0.95969373 0.20324717 0
2.091449 -0.94916344 0.2820057 0
2.1491232 -0.9757902 -0.28980532 0
2.0682933 -0.9395256 0.35979933 0
2.1476121 -0.97600836 -0.20638479 0
2.0715237 -0.94142908 0.44229528 0
2.1435995 -0.97463626 -0.12340819 0
2.0576568 -0.93599385 0.52188647 0
2.1240327 -0.96663463 -0.040733919 0
2.044775 -0.9309957 0.60201317 0
2.1279681 -0.97246337 0.040838633 0
2.1106744 -0.9650057 0.12162878 0
2.1015689 -0.96172976 0.20220132 0
2.1043658 -0.96389806 0.28419933 0
2.1565318 -0.98824805 -0.29126775 0
2.0723495 -0.94967085 0.36105078 0
2.1371193 -0.97980338 -0.20568755 0
2.0735784 -0.95110995 0.44344014 0
2.1583369 -0.99044293 -0.12445491 0
2.0650029 -0.94804919 0.52458584 0
2.1189981 -0.97283852 -0.040699009 0
2.0399208 -0.93696499 0.6014955 0
2.1156516 -0.97532874 0.040664107 0
2.1181743 -0.97738832 0.12225681 0
2.0963902 -0.96822423 0.20202701 0
2.0903459 -0.96587533 0.2827369 0
2.1532428 -0.99539393 -0.29126775 0
2.0726078 -0.95855725 0.36167651 0
2.140919 -0.99060404 -0.20638479 0
2.0543771 -0.95056105 0.44000554 0
2.1477907 -0.99423879 -0.12403623 0
2.0618477 -0.9548918 0.52458584 0
2.1192183 -0.98191065 -0.040768825 0
2.0348849 -0.94326735 0.60097784 0
2.1104209 -0.98186415 0.040629201 0
2.109318 -0.98224676 0.1219428 0
2.1021979 -0.97937775 0.20289856 0
2.0815642 -0.97064936 0.2820057 0
2.153353 -1.0045826 -0.29175523 0
2.0692492 -0.96578616 0.36167651 0
2.1410587 -0.99975717 -0.20673342 0
2.0510464 -0.95772636 0.44000554 0
2.1352594 -0.99750316 -0.12351287 0
2.0620329 -0.96373338 0.52548569 0
2.128458 -0.99523121 -0.041013155 0
2.0385795 -0.95363897 0.60304838 0
2.1106009 -0.9909246 0.040699009 0
2.0986457 -0.98620588 0.1215241 0
2.1022 -0.98877209 0.20324717 0
2.0817556 -0.97959977 0.28249314 0
2.1426492 -1.008711 -0.29078028 0
2.0694396 -0.9746868 0.36230227 0
2.1411605 -1.0089233 -0.20708205 0
2.0581772 -0.97026032 0.44229528 0
2.1261697 -1.0027667 -0.12319885 0
2.0479124 -0.96629512 0.52278626 0
2.1213541 -1.0009482 -0.040943347 0
2.0404792 -0.96322328 0.60460132 0
2.110569 -1.0003668 0.040768825 0
2.0987999 -0.99523705 0.12173345 0
2.0951359 -0.99439555 0.20289856 0
2.0871165 -0.99148214 0.28371185 0
2.1389377 -1.0165575 -0.29078028 0
2.0571036 -0.97766483 0.36073789 0
2.1412241 -1.0181023 -0.20743066 0
2.0654154 -0.98249888 0.444585 0
2.1352804 -1.0161901 -0.12393155 0
2.0445268 -0.97343779 0.52278626 0
2.1088197 -1.0040488 -0.040768825 0
2.0405924 -0.97200143 0.6056366 0
2.1090443 -1.0082226 0.040803727 0
2.0953131 -1.0025572 0.12173345 0
2.0880582 -0.99998176 0.20254995 0
2.083817 -0.99839777 0.28371185 0
2.135555 -1.0236448 -0.29078028 0
2.0501163 -0.98313117 0.36011216 0
2.1232862 -1.0186757 -0.20603617 0
2.0586059 -0.98764431 0.44382176 0
2.1355002 -1.0249939 -0.1241409 0
2.050071 -0.98443019 0.52503574 0
2.1034997 -1.0105379 -0.040733919 0
2.0249989 -0.9732607 0.60201317 0
2.0983076 -1.0121033 0.040664107 0
2.1007938 -1.0142066 0.12225681 0
2.0775542 -1.0034344 0.20185271 0
2.0803194 -1.0056657 0.28371185 0
2.1426911 -1.0362787 -0.29224271 0
2.0573411 -0.9954437 0.36198941 0
2.1161311 -1.024345 -0.20568755 0
2.044543 -0.98969173 0.44153205 0
2.1301117 -1.0315715 -0.12403623 0
2.0501299 -0.99327952 0.52593553 0
2.107157 -1.0213631 -0.040873535 0
2.0233274 -0.98116612 0.60253078 0
2.0911655 -1.0176716 0.040594298 0
2.100832 -1.0232829 0.12246615 0
2.0881896 -1.0180269 0.20324717 0
2.0714438 -1.0103106 0.28298062 0
2.1390607 -1.0437518 -0.29224271 0
2.057404 -1.0043521 0.36261514 0
2.1232846 -1.0369716 -0.20673342 0
2.037374 -0.99545491 0.44076881 0
2.1155503 -1.0341091 -0.12340819 0
2.0482261 -1.0016431 0.52638549 0
2.1071718 -1.0304693 -0.040943347 0
2.0216255 -0.98907197 0.60304838 0
2.0981908 -1.030619 0.040803727 0
2.0845208 -1.0248078 0.12173345 0
2.0864112 -1.0261892 0.2034215 0
2.0623839 -1.0152658 0.28224945 0
2.1209743 -1.0445685 -0.2902928 0
2.053709 -1.0118861 0.36261514 0
2.1301918 -1.0500321 -0.20777929 0
2.0409305 -1.0060327 0.44229528 0
2.1155105 -1.0432543 -0.12361754 0
2.0342314 -1.0036134 0.52368605 0
2.1033809 -1.0381855 -0.040943347 0
2.0249157 -0.99989617 0.60511893 0
2.1017475 -1.0414882 0.040943347 0
2.0809309 -1.0320778 0.12173345 0
2.0754979 -1.0302861 0.20272426 0
2.0606053 -1.0233417 0.28249314 0
2.1208706 -1.0537323 -0.29078028 0
2.039551 -1.0137733 0.36073789 0
2.1193776 -1.053913 -0.20708205 0
2.047776 -1.0187531 0.444585 0
2.1206126 -1.0554506 -0.1241409 0
2.0357728 -1.0136683 0.52503574 0
2.0854237 -1.0383909 -0.040664107 0
2.0248711 -1.0086812 0.6061542 0
2.0911272 -1.0448769 0.040803727 0
2.0882149 -1.0443329 0.12236147 0
2.0740325 -1.0376927 0.20289856 0
2.0660753 -1.0346134 0.28371185 0
2.124464 -1.064316 -0.29175523 0
2.0344121 -1.019646 0.36042506 0
2.1089315 -1.0569952 -0.20638479 0
2.0340354 -1.0199015 0.44229528 0
2.1208568 -1.0638984 -0.12435025 0
2.0343201 -1.0209329 0.52548569 0
2.0944784 -1.0515814 -0.040908441 0
2.0111573 -1.0101877 0.60304838 0
2.0856814 -1.05127 0.040768825 0
2.08634 -1.0525153 0.12246615 0
2.068619 -1.0440285 0.20272426 0
2.0624511 -1.041819 0.28371185 0
2.1207359 -1.0717254 -0.29175523 0
2.0378919 -1.0303062 0.36167651 0
2.1034508 -1.0634512 -0.20621049 0
2.0234551 -1.023451 0.44076881 0
2.1206942 -1.0730987 -0.12455959 0
2.0394371 -1.0324286 0.52773517 0
2.0997148 -1.0634035 -0.041082963 0
2.0041723 -1.0154555 0.60201317 0
2.0784338 -1.0567312 0.040699009 0
2.0792778 -1.0576171 0.12225681 0
2.0631864 -1.050339 0.20254995 0
2.0464211 -1.0427036 0.2820057 0
2.1205189 -1.0809246 -0.29224271 0
2.0415039 -1.040647 0.362928 0
2.1068256 -1.0744077 -0.20690772 0
2.0198705 -1.0305079 0.44076881 0
2.106262 -1.0750468 -0.12393155 0
2.0375562 -1.0404276 0.52818507 0
2.0961766 -1.0703605 -0.041082963 0
2.0076756 -1.0256114 0.60408366 0
2.0820363 -1.0672666 0.040838633 0
2.0720191 -1.0630451 0.12204745 0
2.0701418 -1.0629951 0.20359582 0
2.0482492 -1.0522051 0.2827369 0
2.1027985 -1.0806916 -0.2902928 0
2.0343454 -1.0459604 0.36230227 0
2.1030624 -1.0817554 -0.20690772 0
2.0234253 -1.0407925 0.44229528 0
2.0991335 -1.0801978 -0.12372221 0
2.0202339 -1.0400428 0.52458584 0
2.0942056 -1.0785867 -0.041117873 0
2.0109522 -1.0361526 0.6061542 0
2.0818508 -1.0763646 0.040908441 0
2.0736175 -1.0730252 0.12236147 0
2.0630665 -1.068022 0.20324717 0
2.0480888 -1.0611749 0.28322437 0
2.1060629 -1.0916792 -0.29126775 0
2.0271745 -1.0512363 0.36167651 0
2.1030009 -1.0905578 -0.20725635 0
2.0232654 -1.0496573 0.44305849 0
2.1024411 -1.091199 -0.1241409 0
2.0131323 -1.0452923 0.52368605 0
2.0797806 -1.0803595 -0.040908441 0
2.007323 -1.0431657 0.6061542 0
2.0816271 -1.0854741 0.040978249 0
2.0645473 -1.0774846 0.12204745 0
2.0522616 -1.0715286 0.20254995 0
2.0531688 -1.0729145 0.28444308 0
2.1057577 -1.1008635 -0.29175523 0
2.0234926 -1.0583061 0.36167651 0
2.0956504 -1.0960453 -0.20690772 0
2.0230684 -1.0585339 0.44382176 0
2.1056972 -1.102236 -0.12455959 0
2.0163767 -1.0559294 0.52548569 0
2.0813105 -1.0903966 -0.041013155 0
1.9968255 -1.0465791 0.60408366 0
2.0707459 -1.0890107 0.040838633 0
2.0696106 -1.089336 0.12257081 0
2.0449829 -1.0768291 0.20220132 0
2.044143 -1.0772984 0.28371185 0
2.1124377 -1.113762 -0.29321766 0
2.0267751 -1.0690495 0.362928 0
2.0900495 -1.1024244 -0.20673342 0
2.0124154 -1.0619242 0.44229528 0
2.1018367 -1.1095797 -0.12455959 0
2.0195713 -1.0666016 0.52728528 0
2.0774918 -1.0976551 -0.041013155 0
1.9897441 -1.0517373 0.60304838 0
2.0704653 -1.0981061 0.040908441 0
2.0710878 -1.0993629 0.12288483 0
2.0482502 -1.0876986 0.20289856 0
2.0333583 -1.0807006 0.2827369 0
2.1085372 -1.1211292 -0.29321766 0
2.0230312 -1.0761176 0.362928 0
2.0967426 -1.1153272 -0.20777929 0
2.0052302 -1.0670978 0.44153205 0
2.083847 -1.109401 -0.12372221 0
2.0158358 -1.0736448 0.52728528 0
2.0842366 -1.1105422 -0.041222587 0
1.9928797 -1.0623114 0.60511893 0
2.0666196 -1.1053268 0.040908441 0
2.0584335 -1.1018728 0.12236147 0
2.04971 -1.0976635 0.2034215 0
2.0330729 -1.0896673 0.28322437 0
2.1011121 -1.1266063 -0.29273018 0
2.0349293 -1.0915767 0.36574382 0
2.0928366 -1.1226394 -0.20777929 0
2.0153322 -1.0815176 0.444585 0
2.0834811 -1.1185577 -0.12393155 0
2.0069253 -1.0779085 0.52593553 0
2.0838702 -1.1197039 -0.041292395 0
2.0027721 -1.0765789 0.60926002 0
2.0715485 -1.1172801 0.041082963 0
2.0528173 -1.1081027 0.12225681 0
2.0476191 -1.1057583 0.20359582 0
2.0362422 -1.1005328 0.28419933 0
2.0936742 -1.1320454 -0.29224271 0
2.0154691 -1.0902147 0.362928 0
2.0941622 -1.1327817 -0.20830221 0
2.0184515 -1.0922834 0.44611144 0
2.0936151 -1.1334306 -0.12476893 0
2.0031507 -1.0849074 0.52593553 0
2.0658834 -1.11935 -0.041013155 0
1.9956053 -1.0817221 0.60822481 0
2.0711493 -1.1264151 0.041152775 0
2.0559535 -1.1190809 0.12267549 0
2.0384974 -1.1100407 0.20307288 0
2.0445895 -1.1142836 0.28590551 0
2.0966814 -1.1431477 -0.29321766 0
2.0185881 -1.101027 0.36417946 0
2.0797007 -1.1343606 -0.20725635 0
2.0163498 -1.1002628 0.44649309 0
2.093152 -1.1426456 -0.12497827 0
2.0096133 -1.0974973 0.52863497 0
2.0584538 -1.1246369 -0.040943347 0
1.9816462 -1.0831221 0.60511893 0
2.0531781 -1.1259457 0.040873535 0
2.0537856 -1.1272118 0.12278017 0
2.029371 -1.1142728 0.20254995 0
2.0389478 -1.1204576 0.28566176 0
2.0996366 -1.1542848 -0.29419261 0
2.0095396 -1.1052107 0.36324087 0
2.0757284 -1.1416132 -0.20725635 0
2.0004563 -1.1006697 0.44382176 0
2.0891507 -1.1499451 -0.12497827 0
2.0091841 -1.1063856 0.52953476 0
2.0650246 -1.1376047 -0.041152775 0
1.9795454 -1.0909653 0.6056366 0
2.0509851 -1.1340736 0.040908441 0
2.0552793 -1.1369163 0.12309418 0
2.0394137 -1.1290699 0.20394444 0
2.024606 -1.1217955 0.28419933 0
2.0957971 -1.1612412 -0.29419261 0
2.0283239 -1.1243182 0.36730817 0
2.0821853 -1.1546493 -0.20830221 0
1.9897349 -1.1038362 0.44229528 0
2.074646 -1.1514153 -0.12435025 0
2.0055041 -1.1130421 0.52953476 0
2.0717306 -1.1502705 -0.041362204 0
1.9826719 -1.1012759 0.60770714 0
2.057694 -1.1467092 0.041117873 0
2.0427756 -1.1388628 0.12257081 0
2.0408783 -1.1387391 0.20446737 0
2.0260744 -1.1314067 0.28493056 0
2.0780697 -1.160442 -0.29224271 0
2.0194108 -1.128148 0.36636955 0
2.0818236 -1.1634917 -0.20865084 0
1.996345 -1.1161768 0.444585 0
2.0673301 -1.1563389 -0.1241409 0
1.9949991 -1.1158814 0.52773517 0
2.0609245 -1.1532284 -0.041222587 0
1.9857519 -1.1116192 0.60977769 0
2.0591106 -1.1564642 0.041222587 0
2.0405288 -1.1469653 0.12267549 0
2.0423005 -1.1484302 0.2049903 0
2.0240414 -1.1390928 0.28517428 0
2.0843847 -1.1735321 -0.29370514 0
2.0034125 -1.1284043 0.36417946 0
2.0829568 -1.1736858 -0.20917378 0
1.9994744 -1.1266459 0.44611144 0
2.0774031 -1.1710341 -0.12497827 0
1.9859995 -1.1199669 0.52638549 0
2.0551448 -1.1594328 -0.041187681 0
1.9784945 -1.1166449 0.60874242 0
2.0533211 -1.1626595 0.041187681 0
2.0417259 -1.1570351 0.12298951 0
2.0276792 -1.1500105 0.20394444 0
2.030412 -1.1520288 0.28663671 0
2.0802755 -1.1808007 -0.29370514 0
1.996026 -1.1334399 0.36355373 0
2.0649881 -1.1730764 -0.20777929 0
1.9970386 -1.1349368 0.44649309 0
2.078306 -1.1816019 -0.12529229 0
1.9852691 -1.1291651 0.52728528 0
2.0528233 -1.1675881 -0.041222587 0
1.9678683 -1.1197227 0.60667187 0
2.0386269 -1.1642274 0.040978249 0
2.0461411 -1.169466 0.12351287 0
2.0167341 -1.1531255 0.20324717 0
2.0227301 -1.1574911 0.28614923 0
2.0879931 -1.1953211 -0.29541129 0
2.0021434 -1.1466383 0.36543098 0
2.0643384 -1.1822578 -0.2081279 0
1.9845473 -1.1370209 0.444585 0
2.070703 -1.1868628 -0.12508295 0
1.9948398 -1.1438431 0.5308845 0
2.0589375 -1.1810743 -0.041432012 0
1.9671024 -1.1288509 0.60770714 0
2.0380166 -1.1733319 0.041048057 0
2.0437772 -1.1775985 0.12361754 0
2.0265059 -1.1681182 0.20464167 0
2.0117996 -1.1605768 0.28517428 0
2.0803695 -1.2006179 -0.29492384 0
2.0049715 -1.1575708 0.36668244 0
2.0584736 -1.1884604 -0.2079536 0
1.9822662 -1.1449233 0.44496658 0
2.0665476 -1.1940838 -0.12508295 0
1.9857734 -1.1478735 0.52953476 0
2.0513401 -1.1862519 -0.041362204 0
1.9698389 -1.1395801 0.60977769 0
2.0356381 -1.1814425 0.041082963 0
2.0275645 -1.1777031 0.12288483 0
2.032752 -1.1811911 0.20568755 0
2.0043042 -1.1655962 0.28468683 0
2.0624392 -1.1998863 -0.29297391 0
2.0026257 -1.1655561 0.3669953 0
2.0663664 -1.202654 -0.20917378 0
1.9884373 -1.1577628 0.4472563 0
2.052012 -1.1952585 -0.12445491 0
1.9767032 -1.1518549 0.52818507 0
2.045459 -1.1923981 -0.041327298 0
1.9691865 -1.1483957 0.61081296 0
2.0366797 -1.1915706 0.041187681 0
2.0268884 -1.1867918 0.12309418 0
2.020021 -1.1832442 0.204816 0
2.0122108 -1.1796131 0.28639299 0
2.0582383 -1.2070782 -0.29297391 0
1.9900262 -1.1675415 0.36543098 0
2.0604374 -1.2088515 -0.20899945 0
1.9911565 -1.1686717 0.44878277 0
2.0547163 -1.2064592 -0.12487361 0
1.9726706 -1.1587477 0.52818507 0
2.0378363 -1.1975046 -0.041257489 0
1.9668313 -1.1562414 0.61133063 0
2.0342305 -1.1996883 0.041222587 0
2.0313337 -1.1989359 0.12361754 0
2.0141625 -1.1892753 0.20464167 0
2.0166261 -1.1916794 0.28761166 0
2.065974 -1.2213269 -0.29468012 0
1.9859387 -1.1744807 0.36543098 0
2.0510604 -1.2129936 -0.20847654 0
1.9836856 -1.1736157 0.44801953 0
2.0573676 -1.2176932 -0.12529229 0
1.9753212 -1.1695981 0.52998471 0
2.0353644 -1.2056299 -0.041292395 0
1.9544734 -1.1581755 0.60874242 0
2.0214357 -1.2016727 0.041048057 0
2.0288525 -1.2070404 0.12372221 0
2.0031507 -1.1922227 0.20394444 0
2.012454 -1.1987114 0.28761166 0
2.0634036 -1.2295473 -0.29492384 0
1.9886138 -1.1854519 0.36668244 0
2.0433908 -1.2181054 -0.2081279 0
1.9728322 -1.1765108 0.44649309 0
2.0531044 -1.2248673 -0.12529229 0
1.9779199 -1.180481 0.5317843 0
2.0362945 -1.2158028 -0.04139711 0
1.9537358 -1.1669722 0.60977769 0
2.0172288 -1.2087215 0.041048057 0
2.0212009 -1.2120607 0.12351287 0
2.0041025 -1.2022828 0.20446737 0
1.9980459 -1.1995981 0.28614923 0
2.0625024 -1.2387866 -0.29541129 0
1.9878501 -1.1944208 0.36730817 0
2.0459578 -1.2293355 -0.20882516 0
1.9687134 -1.1833901 0.44649309 0
2.0453932 -1.2299681 -0.12508295 0
1.9737872 -1.187378 0.5317843 0
2.0423181 -1.22909 -0.041606538 0
1.9562706 -1.1777706 0.61184824 0
2.0198445 -1.2198907 0.041187681 0
2.0101206 -1.214976 0.12309418 0
2.0152378 -1.2185493 0.20603617 0
1.9870532 -1.2024543 0.28517428 0
2.047977 -1.2398103 -0.29394889 0
1.987048 -1.2033991 0.3679339 0
2.048471 -1.2405981 -0.2095224 0
1.9746453 -1.1963587 0.44878277 0
2.0342553 -1.2329596 -0.12466426 0
1.9629651 -1.190219 0.52998471 0
2.034596 -1.2341374 -0.041536726 0
1.9587538 -1.188601 0.61391884 0
2.0224061 -1.2310929 0.041327298 0
2.0092788 -1.2240635 0.12330353 0
2.0024652 -1.220392 0.20516461 0
1.9964017 -1.2176524 0.28712422 0
2.0470257 -1.2490194 -0.29443637 0
1.9744048 -1.2051818 0.36636955 0
2.0475292 -1.2498173 -0.20987104 0
1.9738084 -1.2052908 0.44954604 0
2.0401654 -1.2462999 -0.12529229 0
1.9604611 -1.1980801 0.53043455 0
2.018333 -1.2339305 -0.041292395 0
1.9512966 -1.1934149 0.61288351 0
2.0215056 -1.2402364 0.04139711 0
2.0118017 -1.2352499 0.12372221 0
1.999891 -1.2284173 0.20533893 0
1.9972123 -1.2277324 0.28785542 0
2.0460353 -1.2582371 -0.29492384 0
1.9685035 -1.2110314 0.36605671 0
2.0312753 -1.2496489 -0.20865084 0
1.9695891 -1.2121731 0.44954604 0
2.0426056 -1.2576025 -0.12571098 0
1.9612449 -1.2079819 0.5317843 0
2.0225255 -1.2462133 -0.041466918 0
1.9454745 -1.1992055 0.6123659 0
2.0103607 -1.2430786 0.041257489 0
2.0144889 -1.2461172 0.1241409 0
1.9871206 -1.2301474 0.20446737 0
1.9996645 -1.2388783 0.28883037 0
2.0517545 -1.2716459 -0.29638627 0
1.9678348 -1.2196338 0.36668244 0
2.026901 -1.2567317 -0.20865084 0
1.9586722 -1.2149016 0.44801953 0
2.0382032 -1.2647249 -0.12571098 0
1.9652947 -1.2199595 0.53403378 0
2.0200808 -1.253968 -0.04150182 0
1.9431281 -1.2066692 0.61288351 0
2.0062275 -1.2497385 0.041257489 0
2.0101268 -1.2531416 0.1241409 0
1.994647 -1.2444584 0.20568755 0
1.9820732 -1.2370942 0.28688046 0
2.0407908 -1.2742374 -0.29541129 0
1.9819951 -1.2380071 0.37012401 0
2.0258808 -1.2659109 -0.20899945 0
1.9529678 -1.2203498 0.44763795 0
2.0272236 -1.267242 -0.12529229 0
1.957934 -1.2244035 0.53313398 0
2.0258629 -1.267375 -0.041711252 0
1.9421797 -1.2154948 0.61391884 0
2.0086274 -1.2609868 0.04139711 0
1.9972845 -1.254838 0.12361754 0
1.9972568 -1.2553068 0.20638479 0
1.9777428 -1.2440054 0.28688046 0
2.0329704 -1.2792388 -0.29492384 0
1.9726464 -1.2417608 0.36918539 0
2.0334749 -1.2800518 -0.21021965 0
1.9586638 -1.2334366 0.44992763 0
2.0261676 -1.2764398 -0.12550163 0
1.9536481 -1.2312304 0.53313398 0
2.0180438 -1.272306 -0.041641444 0
1.9411929 -1.2243278 0.61495411 0
2.0075932 -1.2701288 0.041466918 0
1.9912044 -1.2607337 0.12351287 0
1.9945461 -1.2633373 0.20655911 0
1.9750651 -1.2519642 0.28712422 0
2.0284925 -1.2863276 -0.29492384 0
1.9582913 -1.2422899 0.36730817 0
2.0273118 -1.2860748 -0.21004534 0
1.9609771 -1.2444737 0.45145413 0
2.0216997 -1.2835046 -0.12550163 0
1.9427584 -1.2338635 0.5313344 0
2.0017753 -1.271836 -0.04139711 0
1.940168 -1.2331687 0.61598933 0
2.0031474 -1.2771288 0.041466918 0
1.9985777 -1.2751968 0.12424557 0
1.9834062 -1.2660037 0.20586187 0
1.9874119 -1.2695372 0.2895616 0
2.0273354 -1.2955382 -0.29541129 0
1.9539429 -1.2491182 0.36730817 0
2.012738 -1.2867048 -0.20899945 0
1.9599289 -1.2534267 0.45221734 0
2.0256193 -1.2959358 -0.12602501 0
1.9515703 -1.2490413 0.53493357 0
2.0006917 -1.2809724 -0.041466918 0
1.926091 -1.233682 0.61288351 0
1.9919474 -1.2797896 0.041327298 0
1.9941142 -1.2821654 0.12424557 0
1.9772992 -1.2718415 0.20568755 0
1.9762914 -1.2721689 0.28858662 0
2.0294771 -1.3069061 -0.29638627 0
1.9562134 -1.2602103 0.36855966 0
2.0132592 -1.2969596 -0.2095224 0
1.9456402 -1.2538794 0.44992763 0
2.0194046 -1.3019164 -0.12592033 0
1.9471984 -1.2558458 0.53493357 0
2.00629 -1.2944529 -0.041676346 0
1.9298884 -1.245636 0.61547172 0
1.9975398 -1.2932557 0.041536726 0
1.994655 -1.2923764 0.12455959 0
1.984551 -1.2863218 0.20690772 0
1.9651773 -1.2747386 0.28761166 0
2.0332286 -1.3193852 -0.29760498 0
1.9617436 -1.2734843 0.37043685 0
2.0154042 -1.3083187 -0.21021965 0
1.9445444 -1.262802 0.4506909 0
2.0148478 -1.3089573 -0.12592033 0
1.9477048 -1.2658211 0.53628331 0
2.0084655 -1.3058084 -0.041815966 0
1.927148 -1.2534183 0.61598933 0
1.9963628 -1.3024057 0.041606538 0
1.9851145 -1.2960556 0.12424557 0
1.9883893 -1.2986887 0.20777929 0
1.9623773 -1.2826767 0.28785542 0
2.0203035 -1.3210428 -0.29638627 0
1.9572864 -1.2803245 0.37043685 0
2.0141597 -1.3175272 -0.21056828 0
1.9466959 -1.273882 0.45221734 0
2.0136085 -1.3181703 -0.12612967 0
1.9351231 -1.267274 0.53403378 0
2.003895 -1.3128113 -0.041815966 0
1.9292241 -1.2643733 0.61805987 0
1.9984885 -1.3137603 0.041746158 0
1.9789099 -1.3018794 0.1241409 0
1.9788511 -1.3023355 0.20725635 0
1.9645193 -1.2938863 0.28883037 0
2.0156801 -1.3280869 -0.29638627 0
1.9429095 -1.2806262 0.36855966 0
2.0145392 -1.3278394 -0.21109121 0
1.9405981 -1.2795887 0.45183572 0
2.0123293 -1.3273907 -0.126339 0
1.9323143 -1.2750945 0.53448373 0
1.9959625 -1.3175946 -0.041746158 0
1.9280231 -1.2732291 0.61909521 0
1.990556 -1.3185197 0.041676346 0
1.9860063 -1.3165038 0.12487361 0
1.974293 -1.3092351 0.20725635 0
1.9699148 -1.3073221 0.2902928 0
2.0209544 -1.3417021 -0.2978487 0
1.9367818 -1.2863075 0.36824676 0
2.0015934 -1.3293519 -0.21021965 0
1.9361198 -1.2863548 0.45183572 0
2.0143371 -1.3388293 -0.1267577 0
1.9327199 -1.2850686 0.53583342 0
1.9896859 -1.3234464 -0.041711252 0
1.9171336 -1.2756706 0.6170246 0
1.9842782 -1.32435 0.041641444 0
1.9866128 -1.3264093 0.12518762 0
1.9647412 -1.3127981 0.20673342 0
1.962039 -1.3119833 0.28980532 0
2.0197945 -1.3506035 -0.29833618 0
1.9423571 -1.2993131 0.37012401 0
2.0002522 -1.3385469 -0.21056828 0
1.925092 -1.2887368 0.45030925 0
2.0129704 -1.3480749 -0.12696704 0
1.9365438 -1.2968924 0.53808296 0
1.9869477 -1.3311502 -0.041746158 0
1.9161023 -1.2841721 0.61805987 0
1.9765564 -1.3286916 0.041571636 0
1.9822035 -1.3329899 0.12518762 0
1.9669886 -1.3237556 0.20743066 0
1.9510915 -1.3140469 0.28883037 0
2.0153048 -1.357294 -0.29833618 0
1.9462289 -1.3112656 0.37168834 0
2.0007594 -1.3485132 -0.21109121 0
1.9240634 -1.2973086 0.45107248 0
2.0051775 -1.3525091 -0.1267577 0
1.9322325 -1.3033073 0.53808296 0
1.9908108 -1.3433243 -0.041920681 0
1.9134345 -1.2916 0.61857754 0
1.9837306 -1.3430865 0.041815966 0
1.9676175 -1.333179 0.12455959 0
1.9691848 -1.3347427 0.2081279 0
1.9500089 -1.3227384 0.28931785 0
2.003984 -1.3598617 -0.29736122 0
1.9383712 -1.3158325 0.37106261 0
2.0012219 -1.3584976 -0.21161415 0
1.922999 -1.3058878 0.45183572 0
1.9973773 -1.3569065 -0.12654836 0
1.9212241 -1.3056625 0.53628331 0
1.9894168 -1.3525139 -0.041990492 0
1.9169015 -1.3037032 0.62116575 0
1.980682 -1.3511297 0.041850869 0
1.9629518 -1.3400393 0.12455959 0
1.9645137 -1.3416082 0.2081279 0
1.9486575 -1.3317773 0.28980532 0
1.9959477 -1.3646082 -0.29687375 0
1.9305049 -1.3203602 0.37043685 0
1.994823 -1.3643502 -0.21143983 0
1.9346319 -1.3236785 0.45565188 0
2.0025175 -1.3706388 -0.12717639 0
1.9166549 -1.3123609 0.53628331 0
1.974785 -1.3526698 -0.04178106 0
1.9091519 -1.3082025 0.62013048 0
1.9776016 -1.3591681 0.041885775 0
1.9714271 -1.3559378 0.12539697 0
1.9598187 -1.3484573 0.2081279 0
1.9538069 -1.3453262 0.29126775 0
1.9977111 -1.3760711 -0.2978487 0
1.9226313 -1.3248492 0.36981112 0
1.9867673 -1.3690442 -0.21109121 0
1.9219176 -1.324852 0.45374379 0
2.001009 -1.3798883 -0.12738572 0
1.9232907 -1.3267894 0.53943259 0
1.9733428 -1.3618263 -0.041850869 0
1.9013942 -1.3126637 0.61909521 0
1.9662691 -1.3615094 0.041746158 0
1.9699652 -1.3650861 0.12560631 0
1.9469128 -1.3496149 0.20725635 0
1.9490989 -1.352138 0.29126775 0
2.0059423 -1.3920903 -0.29979861 0
1.9244857 -1.3360586 0.37106261 0
1.9819763 -1.375971 -0.21109121 0
1.9076062 -1.3248335 0.45145413 0
1.9994607 -1.3891441 -0.12759508 0
1.9138472 -1.3301582 0.53808296 0
1.9718611 -1.3709896 -0.041920681 0
1.9015582 -1.322602 0.62064809 0
1.9664246 -1.3717968 0.041850869 0
1.9651881 -1.3719542 0.12560631 0
1.9487236 -1.3609658 0.2079536 0
1.9378589 -1.3543848 0.2902928 0
1.9994442 -1.3979467 -0.29955488 0
1.9359976 -1.3540899 0.37419128 0
1.9836918 -1.3874484 -0.21178845 0
1.9061873 -1.3337353 0.45221734 0
1.9880546 -1.3915335 -0.12717639 0
1.9187701 -1.3435373 0.54078233 0
1.9752525 -1.3836005 -0.042095207 0
1.8937657 -1.3270144 0.61961281 0
1.9665323 -1.382102 0.041955583 0
1.9538525 -1.3742098 0.12518762 0
1.9537379 -1.3746389 0.20899945 0
1.9363656 -1.3634266 0.29078028 0
1.9896835 -1.4014879 -0.29882365 0
1.9328737 -1.3619773 0.37450415 0
1.9853512 -1.398955 -0.2124857 0
1.9095434 -1.3460366 0.45412543 0
1.9831849 -1.3984647 -0.12717639 0
1.9061065 -1.3446103 0.53853279 0
1.9802139 -1.3974047 -0.042304631 0
1.9017478 -1.3425299 0.62375391 0
1.9714884 -1.3958914 0.042165015 0
1.9523029 -1.3833309 0.12539697 0
1.9489276 -1.3814503 0.20899945 0
1.9380709 -1.3747714 0.29175523 0
1.9815413 -1.4061272 -0.29833618 0
1.9184431 -1.3618553 0.37262696 0
1.9837052 -1.4081831 -0.21283433 0
1.9112359 -1.3572408 0.45565188 0
1.9880607 -1.4123191 -0.12780441 0
1.906167 -1.354642 0.53988254 0
1.9573961 -1.3915633 -0.041920681 0
1.8954759 -1.3480405 0.6232363 0
1.9682318 -1.4039261 0.042199921 0
1.9507135 -1.3924581 0.12560631 0
1.9408509 -1.3859292 0.20865084 0
1.9413357 -1.3872989 0.29297391 0
1.9830806 -1.4176531 -0.29931113 0
1.910464 -1.3662455 0.3720012 0
1.9706745 -1.4093043 -0.21196276 0
1.9128736 -1.3684732 0.45717838 0
1.9814943 -1.4180876 -0.12769975 0
1.9077648 -1.3658254 0.54168218 0
1.957404 -1.4018805 -0.042025398 0
1.8860474 -1.3512733 0.62168342 0
1.9568232 -1.4061203 0.042060301 0
1.9555705 -1.4062552 0.12623434 0
1.9360012 -1.3926957 0.20865084 0
1.9348702 -1.3929073 0.29273018 0
1.9877851 -1.4315273 -0.30077356 0
1.9136971 -1.3786793 0.37356552 0
1.9689761 -1.4185038 -0.21231139 0
1.8985287 -1.3682548 0.45488867 0
1.9765323 -1.4249957 -0.12769975 0
1.9093077 -1.3770361 0.54348177 0
1.9573635 -1.4122144 -0.042130109 0
1.8813192 -1.3578485 0.62168342 0
1.945424 -1.408252 0.041920681 0
1.9474149 -1.4107295 0.12602501 0
1.9375812 -1.4041218 0.2093481 0
1.9203544 -1.3926604 0.29126775 0
1.9892031 -1.44312 -0.30174851 0
1.9136692 -1.3888316 0.37450415 0
1.9672377 -1.4277085 -0.21266 0
1.8905636 -1.3725667 0.45412543 0
1.965082 -1.4271917 -0.12728105 0
1.9029127 -1.382547 0.54303181 0
1.96051 -1.4249166 -0.042304631 0
1.8828179 -1.3689516 0.62375391 0
1.9534223 -1.4244599 0.042199921 0
1.9378853 -1.4136486 0.12571098 0
1.9358865 -1.4132259 0.20969671 0
1.9218931 -1.404039 0.29224271 0
1.9729347 -1.4418557 -0.30004236 0
1.9154328 -1.3998322 0.37575564 0
1.965459 -1.4369186 -0.21300863 0
1.8952689 -1.3861116 0.45641515 0
1.9633121 -1.4364011 -0.1274904 0
1.891785 -1.3845773 0.54123223 0
1.9541605 -1.4302292 -0.042269729 0
1.8845028 -1.3797526 0.62582451 0
1.9583585 -1.4380312 0.042409346 0
1.9329392 -1.4204042 0.12571098 0
1.9325469 -1.4211552 0.20987104 0
1.9284196 -1.4186389 0.29394889 0
1.9665437 -1.4472135 -0.29979861 0
1.9041715 -1.4018254 0.37450415 0
1.9668483 -1.4484967 -0.21370588 0
1.8969853 -1.3970456 0.45794162 0
1.9681859 -1.4500117 -0.12811844 0
1.8856144 -1.3896867 0.54078233 0
1.9411083 -1.4311084 -0.042095207 0
1.8827846 -1.3886158 0.62685978 0
1.9468964 -1.4401016 0.042269729 0
1.9424168 -1.4378372 0.12665303 0
1.9214187 -1.4228133 0.20917378 0
1.9282405 -1.4289075 0.29468012 0
1.9742376 -1.4635266 -0.30174851 0
1.8945066 -1.4049336 0.37356552 0
1.9524319 -1.4478899 -0.21266 0
1.8952507 -1.4059983 0.45870483 0
1.969528 -1.461634 -0.12853712 0
1.8885754 -1.4020684 0.54303181 0
1.9377062 -1.4390676 -0.042130109 0
1.8686216 -1.388267 0.62375391 0
1.940254 -1.445694 0.042234823 0
1.9405881 -1.4469967 0.12686236 0
1.9180377 -1.4307029 0.2093481 0
1.9200596 -1.4332544 0.29419261 0
1.9738884 -1.4739723 -0.30247974 0
1.8990862 -1.4186313 0.37544277 0
1.9521546 -1.4582738 -0.21318294 0
1.8808954 -1.4055541 0.45641515 0
1.9676132 -1.4708917 -0.12874646 0
1.8977154 -1.4191561 0.54708099 0
1.9438798 -1.4542079 -0.042374443 0
1.8699511 -1.399411 0.62582451 0
1.9335966 -1.4512577 0.042199921 0
1.9371225 -1.4549614 0.12696704 0
1.9178104 -1.4409797 0.20987104 0
1.9086984 -1.435176 0.29321766 0
1.95604 -1.4713074 -0.30052981 0
1.9035933 -1.4323778 0.37731999 0
1.9534206 -1.4698708 -0.2138802 0
1.8791147 -1.4144723 0.45717838 0
1.9497027 -1.4681396 -0.12790908 0
1.8911935 -1.4245991 0.54663104 0
1.9483739 -1.4682049 -0.042583872 0
1.8743105 -1.4129071 0.62893027 0
1.9333042 -1.4616162 0.042304631 0
1.9208825 -1.453279 0.12623434 0
1.9207122 -1.4536774 0.21074259 0
1.9036769 -1.4418299 0.29321766 0
1.9556391 -1.4817226 -0.30126104 0
1.9017305 -1.4414005 0.37794572 0
1.9514536 -1.4790877 -0.21422882 0
1.8835523 -1.42814 0.4594681 0
1.9477488 -1.4773506 -0.12811844 0
1.8799995 -1.4264802 0.54483145 0
1.9384584 -1.4713701 -0.042479157 0
1.8724443 -1.4217777 0.62996554 0
1.9345541 -1.4732019 0.042444255 0
1.9224076 -1.4644821 0.12665303 0
1.9187951 -1.4627888 0.21109121 0
1.9049455 -1.4532824 0.29419261 0
1.9599233 -1.495766 -0.3027235 0
1.887518 -1.4405081 0.3760685 0
1.9462786 -1.4858906 -0.21422882 0
1.8847966 -1.4394728 0.46099457 0
1.9489282 -1.4889905 -0.12853712 0
1.8688153 -1.4283004 0.54303181 0
1.9256247 -1.4717188 -0.042304631 0
1.8646498 -1.4256322 0.62893027 0
1.934419 -1.4832593 0.042548969 0
1.9156995 -1.469968 0.12654836 0
1.9057759 -1.4634106 0.21021965 0
1.9032643 -1.4620099 0.29468012 0
1.9549524 -1.5022573 -0.3027235 0
1.8856108 -1.449496 0.37669426 0
1.9347625 -1.487817 -0.21353155 0
1.8784565 -1.4445182 0.46061292 0
1.9503123 -1.5003164 -0.12895581 0
1.8717905 -1.4404321 0.54528135 0
1.9252294 -1.4820911 -0.042409346 0
1.8535398 -1.4274179 0.62685978 0
1.927647 -1.4887803 0.042514063 0
1.9250387 -1.4873023 0.1274904 0
1.9087938 -1.4758158 0.21109121 0
1.9012893 -1.4710742 0.2951676 0
1.9544059 -1.5127171 -0.30345467 0
1.8870422 -1.4605774 0.37794572 0
1.929818 -1.4942248 -0.21353155 0
1.8687465 -1.4474598 0.4594681 0
1.9513783 -1.5120084 -0.1293745 0
1.8729122 -1.4517328 0.54708099 0
1.9345286 -1.4994929 -0.042723492 0
1.8518493 -1.4359242 0.62789506 0
1.9163852 -1.4902542 0.042374443 0
1.916683 -1.4915597 0.12728105 0
1.9020586 -1.4812455 0.21091689 0
1.8964007 -1.4773711 0.2951676 0
1.9415499 -1.5130887 -0.30223599 0
1.8912796 -1.4744426 0.37982294 0
1.9340171 -1.5083035 -0.21457744 0
1.8608401 -1.4512341 0.45870483 0
1.9369053 -1.5110997 -0.12874646 0
1.8742326 -1.4627311 0.54888058 0
1.9355873 -1.5111588 -0.042863112 0
1.8605287 -1.4530813 0.63255376 0
1.920617 -1.5043328 0.042583872 0
1.9051768 -1.4933126 0.12686236 0
1.9081112 -1.4961503 0.21213706 0
1.8943555 -1.4864326 0.29565504 0
1.9456255 -1.527211 -0.30369842 0
1.8845676 -1.4798154 0.37951005 0
1.9384069 -1.5220915 -0.21562332 0
1.8634824 -1.4637845 0.46061292 0
1.9347596 -1.5203197 -0.12895581 0
1.8614551 -1.463243 0.54663104 0
1.9224412 -1.5117257 -0.042688586 0
1.8615186 -1.4643446 0.6346243 0
1.9216341 -1.5159823 0.042723492 0
1.903088 -1.502429 0.12707172 0
1.9060043 -1.5052714 0.2124857 0
1.8907129 -1.494267 0.2958988 0
1.9465115 -1.5389175 -0.30467337 0
1.873193 -1.4814833 0.37825859 0
1.9315192 -1.5276127 -0.21544899 0
1.8691392 -1.4788073 0.46328428 0
1.9341391 -1.5307826 -0.12926982 0
1.856336 -1.4697318 0.54663104 0
1.9124497 -1.5147022 -0.042583872 0
1.8563956 -1.4708337 0.6346243 0
1.9131993 -1.5201925 0.04265368 0
1.9072117 -1.5165211 0.12769975 0
1.8945012 -1.5069544 0.21178845 0
1.8948039 -1.5082753 0.29736122 0
1.9566568 -1.5580685 -0.30711079 0
1.86492 -1.4855515 0.37763283 0
1.926175 -1.5343457 -0.21544899 0
1.8639657 -1.485323 0.46328428 0
1.9319077 -1.5400145 -0.12947917 0
1.8588126 -1.4822776 0.54888058 0
1.9102772 -1.5238628 -0.04265368 0
1.8452103 -1.4724847 0.63255376 0
1.9016362 -1.5218636 0.042514063 0
1.9050242 -1.5256664 0.12790908 0
1.8923391 -1.5160497 0.21213706 0
1.887979 -1.5136385 0.2971175 0
1.9450117 -1.559921 -0.3061358 0
1.8658866 -1.4969968 0.37888432 0
1.9239156 -1.5435534 -0.21579762 0
1.8526452 -1.4869049 0.46175778 0
1.929635 -1.5492495 -0.12968852 0
1.8673015 -1.4997398 0.5529297 0
1.9080642 -1.5330266 -0.042723492 0
1.840059 -1.4789168 0.63255376 0
1.9025398 -1.5335121 0.04265368 0
1.9043508 -1.5360687 0.12822311 0
1.8932381 -1.5276504 0.21283433 0
1.8765059 -1.5152311 0.29614252 0
1.9210242 -1.5517325 -0.30321094 0
1.8667953 -1.5084668 0.38013577 0
1.927542 -1.5581095 -0.21684349 0
1.8474435 -1.4933628 0.46175778 0
1.9180032 -1.5509524 -0.12926982 0
1.8605399 -1.505023 0.5524798 0
1.9166918 -1.5509988 -0.043037634 0
1.8438948 -1.4926237 0.63565958 0
1.8971753 -1.5401438 0.04265368 0
1.8927767 -1.5376693 0.12780441 0
1.8969021 -1.5421205 0.2138802 0
1.8712053 -1.5217721 0.29614252 0
1.8615184 -1.5149741 0.38013577 0
1.9344523 -1.5748917 -0.21823798 0
1.8465245 -1.5038431 0.46290264 0
1.9123058 -1.5579718 -0.12926982 0
1.844437 -1.5032144 0.54933047 0
1.9112661 -1.5576799 -0.043037634 0
1.8476572 -1.5063756 0.63876545 0
