# .PCD v0.7 - Point Cloud Data file format
VERSION 0.7
FIELDS x y z rgba
SIZE 4 4 4 4
TYPE F F F U
COUNT 1 1 1 1
WIDTH 678
HEIGHT 1
VIEWPOINT 0 0 0 1 0 0 0
POINTS 678
DATA ascii
3.8606157 -0.41326231 -0.20348223 0
3.8531942 -0.42607731 -0.2031682 0
3.8635898 -0.44088352 -0.20379624 0
3.8640108 -0.45460069 -0.2039009 0
3.8604176 -0.46784553 -0.20379624 0
3.9317412 -0.37304372 0.068937011 0
3.9248323 -0.37377059 0.20662238 0
3.9588323 -0.37770569 0.34792572 0
3.9560578 -0.37883452 0.4879649 0
3.9601595 -0.38062242 0.63011813 0
3.9670587 -0.38198429 0.77468461 0
3.8786478 -0.37415454 -0.20421492 0
3.8852389 -0.37615922 -0.068134196 0
3.9224546 -0.38598245 0.068797387 0
3.9314537 -0.38825366 0.20704105 0
3.9416277 -0.38995308 0.34653121 0
3.9626124 -0.39342594 0.48893982 0
3.9548757 -0.39405197 0.62949234 0
3.9617939 -0.39543959 0.77392131 0
3.8892422 -0.38888359 -0.20484295 0
3.8819122 -0.3895193 -0.06809929 0
3.9171047 -0.39926645 0.068727575 0
3.926101 -0.40156817 0.20683172 0
3.9283509 -0.40249112 0.34548536 0
3.9533165 -0.40644357 0.4879649 0
3.9534762 -0.40785462 0.62949234 0
3.9486721 -0.40805557 0.7716316 0
3.8819013 -0.40184024 -0.20452894 0
3.8825181 -0.40327388 -0.068134196 0
3.9097209 -0.4123081 0.068622865 0
3.9286475 -0.41569072 0.20704105 0
3.9348469 -0.41704109 0.34618258 0
3.9380562 -0.41877136 0.48625872 0
3.9539921 -0.42186189 0.62980521 0
3.9355106 -0.42058477 0.76934189 0
3.8606157 -0.41326231 -0.20348223 0
3.8810868 -0.41682395 -0.068134196 0
3.9003065 -0.42508644 0.068483248 0
3.9093037 -0.42744792 0.20609902 0
3.9373281 -0.43120757 0.34653121 0
3.9405165 -0.4329488 0.48674619 0
3.9485691 -0.4352285 0.62917954 0
3.9418244 -0.43518144 0.77086836 0
3.8531942 -0.42607731 -0.2031682 0
3.8796079 -0.43036896 -0.068134196 0
3.9107215 -0.44004005 0.068692669 0
3.9097726 -0.44131538 0.2062037 0
3.9377789 -0.44517261 0.34670553 0
3.9389815 -0.44670117 0.48674619 0
3.9391749 -0.44811583 0.62792808 0
3.9480841 -0.44982734 0.7723949 0
3.8635898 -0.44088352 -0.20379624 0
3.8741086 -0.44345385 -0.068064384 0
3.8952572 -0.45207459 0.068448335 0
3.9181275 -0.45611504 0.20672706 0
3.9203689 -0.45706949 0.34531105 0
3.9472563 -0.46160087 0.4879649 0
3.8640108 -0.45460069 -0.2039009 0
3.8705511 -0.45673999 -0.068029478 0
3.8896842 -0.46519387 0.06837853 0
3.9106443 -0.46839294 0.20641303 0
3.8604176 -0.46784553 -0.20379624 0
3.8690155 -0.46957266 -0.068029478 0
4.3086939 0.74811321 0.53695637 0
4.3209534 0.74869037 0.69456911 0
4.209671 0.72789299 -0.22389325 0
4.234766 0.73071003 -0.075010449 0
4.2497063 0.72641605 0.075254776 0
4.2723451 0.72874898 0.22713807 0
4.2917089 0.72973979 0.53451896 0
4.3118553 0.73161906 0.69269186 0
4.2024636 0.71079445 -0.22336988 0
4.243206 0.71692175 -0.075115159 0
4.2562847 0.71149558 0.07532458 0
4.2492528 0.70955777 0.22577733 0
4.2843409 0.71387994 0.37999901 0
4.2923965 0.71368033 0.53427523 0
4.2929478 0.71300209 0.68925035 0
4.202949 0.69579345 -0.22326522 0
4.2101703 0.69623613 -0.074486867 0
4.2487535 0.6957624 0.075150065 0
4.2576175 0.69568592 0.22609136 0
4.2750087 0.69699568 0.37895316 0
4.2927804 0.69912416 0.53403151 0
4.2856612 0.69642931 0.68768603 0
4.2052326 0.68185502 -0.22326522 0
4.2007308 0.6796183 -0.074277438 0
4.2333856 0.67807972 0.074835919 0
4.2580476 0.68050557 0.22598669 0
4.2497516 0.67841905 0.3765128 0
4.2893133 0.68319947 0.53330034 0
4.2822142 0.68053401 0.68674743 0
4.1957517 0.66529399 -0.22263718 0
4.2070274 0.6655767 -0.07434725 0
4.2258492 0.66175032 0.074661396 0
4.2584233 0.6653285 0.22588199 0
4.256031 0.66419393 0.37686142 0
4.2681346 0.66455674 0.53037542 0
4.2865148 0.66588622 0.68706024 0
4.1822591 0.64819574 -0.22179982 0
4.2053728 0.65027511 -0.074277438 0
4.2320862 0.64760101 0.074731201 0
4.2370276 0.6468417 0.22462595 0
4.254384 0.64873368 0.3765128 0
4.2586532 0.64786172 0.52891296 0
4.2849073 0.65032756 0.68643451 0
4.1825213 0.63329488 -0.22169513 0
4.1997085 0.63439572 -0.074137822 0
4.2303662 0.63223219 0.074661396 0
4.2353086 0.63145959 0.2244166 0
4.2546525 0.63358462 0.37633851 0
4.2648158 0.63357657 0.52940047 0
4.2715192 0.63304865 0.68393159 0
4.1847067 0.61869013 -0.22169513 0
4.1781573 0.61623174 -0.073718965 0
4.2266111 0.61659652 0.074556686 0
4.2355103 0.61638498 0.22431193 0
4.2410645 0.61643744 0.37494397 0
4.2748594 0.61982596 0.53037542 0
4.2600174 0.61615586 0.68174148 0
4.1888175 0.60436517 -0.22179982 0
4.1783037 0.60135955 -0.073684059 0
4.20894 0.59902036 0.074207634 0
4.2415915 0.60215902 0.22452128 0
4.2392454 0.60106915 0.37459537 0
4.2573414 0.60212123 0.52793807 0
4.2660542 0.60183263 0.68236721 0
4.1750793 0.58751214 -0.22096242 0
4.1803775 0.58677173 -0.073684059 0
4.2030826 0.58322632 0.074068017 0
4.2218027 0.58507299 0.22336988 0
4.2432909 0.58654147 0.37476969 0
4.2456527 0.58535767 0.52623188 0
4.2778115 0.58903068 0.68393159 0
4.1533599 0.5696789 -0.21970637 0
4.1922064 0.57426167 -0.073858589 0
4.210938 0.57009077 0.074172728 0
4.2099643 0.56846064 0.22263718 0
4.2472868 0.57199275 0.37494397 0
4.2397008 0.57021576 0.52525693 0
4.2563462 0.57094419 0.68017709 0
4.1552267 0.55590153 -0.21970637 0
4.1862569 0.55856568 -0.073718965 0
4.2029896 0.55408055 0.073998205 0
4.1960812 0.55168176 0.22179982 0
4.2432342 0.55712587 0.37442106 0
4.2377281 0.55490035 0.52476943 0
4.2485204 0.55480325 0.67861283 0
4.1531806 0.54087871 -0.21949703 0
4.1643853 0.54085779 -0.073300108 0
4.1989479 0.53864151 0.073893487 0
4.217793 0.53956461 0.22284654 0
4.2254839 0.53904957 0.37267792 0
4.2475162 0.54110688 0.52574438 0
4.2484713 0.53972167 0.67829996 0
4.1551352 0.52565384 -0.21949703 0
4.1622791 0.5258196 -0.073230296 0
4.1889877 0.52176595 0.073684059 0
4.2037945 0.52286518 0.22200914 0
4.2115221 0.52233368 0.37128347 0
4.2337103 0.52358717 0.52379447 0
4.2424879 0.52391893 0.67704844 0
4.1490154 0.51017046 -0.21907835 0
4.1640897 0.51128626 -0.073230296 0
4.1748137 0.50594807 0.073404826 0
4.2016282 0.50770974 0.22179982 0
4.2133198 0.50762838 0.37128347 0
4.223598 0.50812101 0.52233207 0
4.2501745 0.50981134 0.67798704 0
4.1387854 0.49498674 -0.21845031 0
4.1618776 0.49627513 -0.073160492 0
4.1904559 0.49300858 0.073649161 0
4.1914735 0.49164304 0.22117178 0
4.2189379 0.49411809 0.3716321 0
4.2174597 0.49245274 0.52135712 0
4.238193 0.49337631 0.67579699 0
4.1424723 0.48076585 -0.21855497 0
4.1576252 0.4810538 -0.073055774 0
4.1861911 0.4776969 0.073544443 0
4.1812568 0.47565544 0.22054374 0
4.212718 0.47848973 0.37093481 0
4.2152071 0.47728223 0.52086961 0
4.2281117 0.47724873 0.67391974 0
4.1322165 0.46496385 -0.21792693 0
4.1433811 0.46475366 -0.072776534 0
4.179883 0.46220124 0.073404826 0
4.1809063 0.4608393 0.22043908 0
4.2044606 0.46269086 0.37006328 0
4.2227678 0.4632158 0.52160084 0
4.2218976 0.46162906 0.67266828 0
4.1417565 0.45140144 -0.21834564 0
4.1410027 0.44985673 -0.072706729 0
4.1675525 0.44611886 0.073160492 0
4.1944056 0.4475126 0.22106709 0
4.1882195 0.44611335 0.36849448 0
4.2144885 0.44742379 0.52038211 0
4.221519 0.44668007 0.67235541 0
4.1313896 0.43568534 -0.2177176 0
4.1425471 0.43540007 -0.072706729 0
4.1531711 0.42992228 0.072881252 0
4.1840219 0.43163982 0.22043908 0
4.1917329 0.43169603 0.36866876 0
4.192328 0.43027857 0.51745731 0
4.221087 0.43173936 0.67204249 0
4.1209636 0.42004514 -0.21708956 0
4.144042 0.4209381 -0.072706729 0
4.1586266 0.41582122 0.072951064 0
4.1656294 0.41505095 0.21939236 0
4.1932144 0.41706038 0.36866876 0
4.1898537 0.41524929 0.5169698 0
4.2147055 0.41622677 0.67079103 0
4.1144538 0.40487626 -0.21667089 0
4.1415057 0.40607873 -0.072636917 0
4.1640334 0.4016853 0.073020868 0
4.1591001 0.39974418 0.21897365 0
4.1886945 0.40185082 0.36814582 0
4.189302 0.40043345 0.51672608 0
4.1964679 0.39963832 0.66766238 0
4.1138535 0.39032385 -0.21656621 0
4.1309533 0.39048949 -0.072427489 0
4.1494818 0.38566607 0.072741628 0
4.1584811 0.3850385 0.21886899 0
4.1722164 0.38557595 0.36657706 0
4.1946278 0.38617048 0.51721358 0
4.193903 0.38462955 0.66703665 0
4.1191688 0.37632376 -0.21677555 0
4.1243253 0.37534329 -0.072287865 0
4.1388516 0.37011155 0.072532199 0
4.1657033 0.37177986 0.21918301 0
4.1616297 0.36995217 0.36553118 0
4.1900182 0.37099978 0.51648235 0
4.1931877 0.37054491 0.66672373 0
4.1144891 0.3614195 -0.21646154 0
4.1315231 0.3621892 -0.072392583 0
4.1380639 0.3562139 0.072497301 0
4.166913 0.3579627 0.21918301 0
4.1687889 0.35666004 0.36605412 0
4.1754012 0.35575575 0.51453239 0
4.1904569 0.35630387 0.66609806 0
4.0977526 0.34626061 -0.21551949 0
4.1247315 0.34781334 -0.072252966 0
4.1432085 0.34281823 0.072567105 0
4.1442509 0.3414501 0.21792693 0
4.1759062 0.34332249 0.36657706 0
4.1706228 0.34142461 0.51380116 0
4.187737 0.34135216 0.66547227 0
4.0948977 0.33234587 -0.21531016 0
4.1179471 0.33276784 -0.072113343 0
4.1364059 0.32772082 0.072427489 0
4.1434269 0.32682377 0.21782227 0
4.1651616 0.32780471 0.36553118 0
4.1777263 0.32732838 0.51453239 0
4.1770868 0.32581139 0.66359508 0
4.0920501 0.31773961 -0.2151008 0
4.0991464 0.31685323 -0.07176429 0
4.1335368 0.31298098 0.072357684 0
4.1385674 0.31190708 0.21750826 0
4.1543598 0.31237012 0.36448529 0
4.172905 0.31229785 0.51380116 0
4.166379 0.31034711 0.66171783 0
4.0971179 0.30374998 -0.21531016 0
4.0922499 0.3019529 -0.071624674 0
4.1206422 0.29754108 0.072113343 0
4.1475992 0.29803234 0.21792693 0
4.1454883 0.29715344 0.36361378 0
4.1700101 0.29744822 0.51331371 0
4.1634965 0.29552102 0.66109216 0
4.0941682 0.28916591 -0.2151008 0
4.0892901 0.28738695 -0.071554869 0
4.1156712 0.28274524 0.072008632 0
4.1426363 0.28314301 0.21761292 0
4.1445122 0.28254452 0.36343944 0
4.1571589 0.28194895 0.51160759 0
4.1684442 0.28125274 0.66171783 0
4.0732327 0.27340046 -0.21394941 0
4.0982494 0.27364269 -0.071694486 0
4.1226187 0.26876631 0.072113343 0
4.1196828 0.26713085 0.21635687 0
4.1534729 0.26786608 0.36413667 0
4.1462317 0.26667246 0.51014513 0
4.1654577 0.26644912 0.66109216 0
4.0622478 0.25771165 -0.21332137 0
4.0892005 0.25870308 -0.071519956 0
4.119585 0.25340974 0.072043538 0
4.1186404 0.25190666 0.21625218 0
4.1444392 0.25276056 0.36326513 0
4.1531253 0.25183335 0.51087636 0
4.1486607 0.25010923 0.65827632 0
4.0710969 0.244009 -0.21374007 0
4.074152 0.24276304 -0.071240723 0
4.1084661 0.23833218 0.071834102 0
4.1175013 0.2374143 0.21614751 0
4.1353922 0.23699769 0.36239356 0
4.1579428 0.23756203 0.5113638 0
4.1455636 0.23540306 0.65765053 0
4.0779467 0.22942159 -0.21405408 0
4.0789676 0.22876492 -0.071310528 0
4.1012473 0.22426884 0.071694486 0
4.1262426 0.22419313 0.21656621 0
4.1301484 0.22368042 0.36187065 0
4.1468143 0.22313334 0.50990134 0
4.1502666 0.22186436 0.65827632 0
4.06668 0.2159725 -0.21342604 0
4.0797038 0.21523812 -0.071310528 0
4.096014 0.20964763 0.071589775 0
4.121016 0.20948319 0.21625218 0
4.1349196 0.20874296 0.36221924 0
4.1317072 0.20785789 0.5079515 0
4.1510162 0.20737673 0.65827632 0
4.041512 0.1997849 -0.21206531 0
4.0844254 0.20119168 -0.07138034 0
4.10075 0.19482037 0.071659587 0
4.1057963 0.19362576 0.21541482 0
4.1356235 0.19430704 0.36221924 0
4.1264925 0.19243653 0.50722027 0
4.1438556 0.19179474 0.65702486 0
4.0441799 0.18576676 -0.21216999 0
4.0691543 0.18549258 -0.071101107 0
4.0994067 0.18041977 0.071624674 0
4.1024566 0.17911734 0.21520546 0
4.1283145 0.17952645 0.36152202 0
4.1291223 0.17811565 0.50746399 0
4.1346316 0.17690746 0.65546048 0
4.0467992 0.17173627 -0.21227466 0
4.0617847 0.17095 -0.070961483 0
4.0860252 0.16554135 0.07138034 0
4.1030278 0.16551098 0.21520546 0
4.1149802 0.16455647 0.36030185 0
4.1336861 0.16385937 0.5079515 0
4.1194048 0.16257322 0.65295756 0
4.0453782 0.15753044 -0.21216999 0
4.0583334 0.15732367 -0.070891678 0
4.0765605 0.15161796 0.071205825 0
4.1075459 0.15205254 0.21541482 0
4.1055474 0.15054359 0.35943025 0
4.1242881 0.14979126 0.50673276 0
4.1238694 0.14905342 0.65358323 0
4.0438824 0.1440424 -0.21206531 0
4.0548358 0.14372401 -0.070821866 0
4.0670481 0.13776107 0.071031295 0
4.1000671 0.13744681 0.21499613 0
4.1119986 0.13712834 0.35995319 0
4.1148419 0.13578531 0.50551409 0
4.1283131 0.13478535 0.65420902 0
4.0223794 0.12992316 -0.21091393 0
4.0573115 0.12963383 -0.070856772 0
4.0615077 0.12338229 0.070926577 0
4.0885439 0.12277328 0.2143681 0
4.1104822 0.121998 0.35977891 0
4.1014013 0.1210101 0.5038079 0
4.130733 0.12043443 0.65452182 0
4.0228281 0.11518043 -0.21091393 0
4.0497437 0.11524178 -0.070717148 0
4.0799236 0.10897478 0.071240723 0
4.0729752 0.10807788 0.21353073 0
4.1108832 0.1076479 0.35977891 0
4.1018171 0.10597781 0.5038079 0
4.1034822 0.1053042 0.65014172 0
4.0311923 0.10133713 -0.2113326 0
4.0301304 0.10060664 -0.070368104 0
4.074265 0.09530326 0.071136013 0
4.0753241 0.093906745 0.2136354 0
4.089323 0.092801213 0.35786149 0
4.1100845 0.092554696 0.50478286 0
4.1038246 0.090980597 0.65014172 0
4.027513 0.08788041 -0.21112327 0
4.0224605 0.086365484 -0.070228487 0
4.0625768 0.080842987 0.070926577 0
4.0876083 0.079913788 0.21426344 0
4.0856242 0.079161696 0.35751286 0
4.0984735 0.07797958 0.5033204 0
4.1041174 0.076653928 0.65014172 0
4.0238013 0.073748864 -0.21091393 0
4.0187383 0.072252892 -0.070158668 0
4.0508375 0.066465475 0.070717148 0
4.077877 0.065485395 0.21374007 0
4.0838947 0.06415426 0.35733855 0
4.086812 0.063488618 0.501858 0
4.1023846 0.062296331 0.64982885 0
4.0080686 0.058765139 -0.21007656 0
4.0309629 0.058399092 -0.070368104 0
4.0590525 0.051718839 0.070856772 0
4.0621133 0.050341692 0.21290269 0
4.084094 0.049899276 0.35733855 0
4.0890026 0.048533745 0.50210178 0
4.0946846 0.047169816 0.64857739 0
4.0002599 0.044685613 -0.20965785 0
4.0251513 0.043558534 -0.070263386 0
4.0592084 0.037548706 0.070856772 0
4.05827 0.036125325 0.21269335 0
4.0802584 0.035606958 0.35698992 0
4.0792217 0.034175921 0.50088304 0
4.0908732 0.032845549 0.6479516 0
4.0083809 0.030782115 -0.21007656 0
4.0092816 0.029391447 -0.069984153 0
4.0473166 0.023312874 0.070647344 0
4.0543766 0.021936405 0.21248402 0
4.0664115 0.021293757 0.35576975 0
4.0932117 0.020003393 0.50258923 0
4.0830622 0.01852859 0.64670014 0
4.0044694 0.016776089 -0.20986721 0
4.0133595 0.015410553 -0.070053965 0
4.0393744 0.0091657331 0.07050772 0
4.0624175 0.0078000482 0.21290269 0
4.0684533 0.0071015982 0.35594404 0
4.081346 0.0056995265 0.50112677 0
4.0752001 0.0042665713 0.64544868 0
3.9945171 0.0027897374 -0.20934384 0
4.0113888 0.001401366 -0.070019051 0
4.0353842 -0.0035215376 0.070437916 0
4.0504384 -0.0049485466 0.21227466 0
4.0684557 -0.0056806393 0.35594404 0
4.0694332 -0.0071025072 0.49966437 0
4.0751934 -0.0085350769 0.64544868 0
3.9825227 -0.0097311586 -0.20871581 0
4.0153728 -0.011213065 -0.070088863 0
4.0313473 -0.017590184 0.070368104 0
4.0304241 -0.018993067 0.21122794 0
4.0584455 -0.020541813 0.3550725 0
4.0554876 -0.021234678 0.49795815 0
4.075139 -0.022760106 0.64544868 0
3.9704769 -0.024254564 -0.20808777 0
4.0033112 -0.025153875 -0.069879435 0
4.0332561 -0.032381747 0.07040301 0
4.0383162 -0.03383211 0.21164663 0
4.0483871 -0.034623109 0.35420093 0
4.0613375 -0.036151648 0.49868938 0
4.0631762 -0.037586443 0.6435715 0
3.9783568 -0.038190659 -0.20850646 0
3.9871957 -0.039667431 -0.069600195 0
4.0271201 -0.046391137 0.070298299 0
4.0341792 -0.047880854 0.21143727 0
4.0362883 -0.048610449 0.35315505 0
4.0691271 -0.050426539 0.49966437 0
4.05512 -0.051668685 0.64232004 0
3.9821935 -0.052129772 -0.20871581 0
3.9750354 -0.053423859 -0.069390766 0
4.014936 -0.060268041 0.070088863 0
4.0339875 -0.061962474 0.21143727 0
4.034102 -0.06266848 0.35298076 0
4.0570173 -0.064440981 0.49820194 0
4.0568895 -0.065855436 0.6426329 0
3.9739995 -0.065897442 -0.20829713 0
3.9888208 -0.067535967 -0.069635101 0
4.0027051 -0.074060448 0.069879435 0
4.0377407 -0.076118633 0.21164663 0
4.0497947 -0.077052951 0.35437521 0
4.0488286 -0.078448392 0.49722698 0
4.0546603 -0.079977274 0.64232004 0
4.039578 -0.080385089 0.78536987 0
3.9577703 -0.079448216 -0.20745975 0
3.9905601 -0.081499964 -0.069670007 0
4.0144176 -0.088295884 0.070088863 0
4.0134888 -0.089677118 0.21039055 0
4.0355582 -0.090874925 0.35315505 0
4.0405917 -0.092399433 0.496252 0
4.0543566 -0.094130188 0.64232004 0
4.0431986 -0.094577178 0.78613311 0
3.9614623 -0.093357034 -0.20766909 0
3.9902511 -0.09542913 -0.069670007 0
4.0120859 -0.10225733 0.070053965 0
4.0131512 -0.10368627 0.21039055 0
4.0292411 -0.10480567 0.35263211 0
4.0323067 -0.10629392 0.49527705 0
4.0421548 -0.10796548 0.64044279 0
4.044806 -0.10874277 0.7865147 0
3.961112 -0.10718454 -0.20766909 0
3.9739022 -0.10891881 -0.069390766 0
4.0057287 -0.11538859 0.069949247 0
4.014782 -0.11705199 0.21049525 0
4.0209055 -0.1179329 0.35193488 0
4.0359011 -0.11978275 0.49576455 0
4.0338764 -0.12113199 0.63919127 0
4.0346112 -0.12185887 0.78460658 0
3.9687202 -0.12056205 -0.20808777 0
3.9695218 -0.12197332 -0.069320954 0
3.9913104 -0.12891859 0.069704913 0
4.014349 -0.13106549 0.21049525 0
4.0184779 -0.13190241 0.35176057 0
4.033474 -0.13380411 0.49552077 0
4.0334287 -0.13521211 0.63919127 0
4.0302372 -0.13580932 0.7838434 0
3.964283 -0.1342795 -0.20787844 0
3.9670732 -0.1357604 -0.069286056 0
3.980844 -0.14249241 0.06953039 0
4.0178843 -0.14452042 0.21070457 0
4.0160022 -0.1458564 0.35158628 0
4.0151286 -0.14722808 0.49332717 0
4.0369067 -0.14873217 0.63981706 0
4.0317001 -0.1499496 0.78422499 0
3.9478233 -0.14751998 -0.20704105 0
3.9745944 -0.14921501 -0.069425672 0
3.9863441 -0.15592708 0.069635101 0
4.00139 -0.15791449 0.20986721 0
4.0214405 -0.16011174 0.35210916 0
4.0066838 -0.16022463 0.49235216 0
4.0324149 -0.16266343 0.63919127 0
4.0351043 -0.16347733 0.78498828 0
3.943321 -0.16044822 -0.20683172 0
3.9680552 -0.16284205 -0.069320954 0
3.9897714 -0.17001134 0.069704913 0
3.9888415 -0.17136662 0.20923917 0
4.0109353 -0.17301714 0.35123762 0
4.0179996 -0.17472707 0.49381462 0
4.0160351 -0.17604615 0.63668835 0
4.0266638 -0.1772162 0.78346181 0
3.9387465 -0.17403568 -0.20662238 0
3.9534788 -0.17606936 -0.069076627 0
3.9771681 -0.18338452 0.069495484 0
3.9922097 -0.18547462 0.20944853 0
3.9983325 -0.18715779 0.35019177 0
4.0193486 -0.18884461 0.49405837 0
4.0075035 -0.1896901 0.63543689 0
4.0240254 -0.19187994 0.78308016 0
3.9460618 -0.18885265 -0.20704105 0
3.9448504 -0.18948476 -0.068937011 0
3.9704776 -0.19766207 0.069390766 0
4.0015116 -0.19990715 0.20997187 0
3.9956651 -0.20101334 0.35001746 0
4.0087166 -0.20307282 0.49283966 0
4.0107622 -0.20387824 0.63606256 0
4.0135288 -0.2054235 0.7811721 0
3.9374003 -0.20221606 -0.20662238 0
3.9581442 -0.2039741 -0.069181338 0
3.9598157 -0.21029732 0.069216244 0
3.9888227 -0.21323413 0.20934384 0
4.0028968 -0.21538779 0.35071471 0
4.000092 -0.21593706 0.49186471 0
4.0238342 -0.21862741 0.63825274 0
4.0069442 -0.21841115 0.78002721 0
3.9207537 -0.21439941 -0.20578501 0
3.9574082 -0.21778935 -0.069181338 0
3.9650471 -0.22445743 0.069320954 0
3.97609 -0.22647494 0.20871581 0
4.0081286 -0.22900167 0.35123762 0
3.9953504 -0.22967081 0.4913772 0
4.0151577 -0.23221566 0.63700122 0
4.0061574 -0.23239666 0.78002721 0
3.9159937 -0.22785205 -0.20557566 0
3.9426501 -0.23078398 -0.068937011 0
3.9702277 -0.23865663 0.069425672 0
3.9732816 -0.24023218 0.20861115 0
3.9854286 -0.24166477 0.34932023 0
4.0004683 -0.24397831 0.49210843 0
4.0005207 -0.24538319 0.6348111 0
4.0112004 -0.24674097 0.7811721 0
3.9251418 -0.2421349 -0.20609902 0
3.9178698 -0.24305914 -0.068518147 0
3.9593921 -0.25187907 0.06925115 0
3.9704258 -0.25397256 0.20850646 0
3.9785957 -0.2551924 0.34879729 0
4.0075164 -0.25845209 0.49308339 0
3.989784 -0.25870702 0.63324684 0
4.0005188 -0.26010427 0.77926397 0
3.9222798 -0.25570479 -0.20599434 0
3.9189932 -0.2568644 -0.068553053 0
3.9465175 -0.26489484 0.069041722 0
3.975493 -0.26823375 0.20882049 0
3.9737051 -0.26880977 0.34844866 0
3.9947071 -0.27163136 0.49162099 0
3.9868855 -0.27249765 0.63293391 0
3.9858758 -0.27312759 0.77659267 0
3.9173782 -0.26912078 -0.20578501 0
3.9340322 -0.27164465 -0.068832293 0
3.9415796 -0.27838743 0.06897191 0
3.9705482 -0.28182635 0.20861115 0
3.9747295 -0.28282034 0.34862295 0
3.9838343 -0.28486589 0.49040228 0
3.9957621 -0.28712076 0.6344983 0
3.9809816 -0.28675711 0.77582937 0
3.9004781 -0.28164262 -0.20494762 0
3.921093 -0.28450704 -0.068622865 0
3.9405839 -0.29214439 0.06897191 0
3.9615731 -0.29509094 0.20819245 0
3.9757054 -0.29684141 0.34879729 0
3.9748976 -0.29817638 0.48942733 0
3.9927657 -0.30091837 0.63418543 0
3.9858296 -0.30109522 0.77697426 0
3.8934965 -0.29480374 -0.20463361 0
3.9180825 -0.29804081 -0.068587959 0
3.9435272 -0.30620742 0.069041722 0
3.9506166 -0.30745158 0.20766909 0
3.9666994 -0.31009626 0.34810004 0
3.9777901 -0.31236032 0.48991477 0
3.975991 -0.31291732 0.63168246 0
3.9886684 -0.31531599 0.7777375 0
3.898417 -0.30886599 -0.20494762 0
3.9110923 -0.31055716 -0.068483248 0
3.9345176 -0.31863731 0.068902098 0
3.9595287 -0.32135844 0.20819245 0
3.959692 -0.32276303 0.3475771 0
3.9846468 -0.32619733 0.49088979 0
3.9631188 -0.32513133 0.62980521 0
3.9836879 -0.32821876 0.77697426 0
3.8993618 -0.32195625 -0.2050523 0
3.9040623 -0.32303041 -0.06837853 0
3.9254689 -0.33101076 0.068762481 0
3.9583831 -0.33517781 0.20819245 0
3.9526439 -0.33538669 0.34705415 0
3.9776092 -0.33890349 0.49015856 0
3.9737692 -0.33997354 0.63168246 0
3.9825773 -0.34142733 0.77697426 0
3.8982728 -0.33488521 -0.2050523 0
3.9049032 -0.33682799 -0.068413429 0
3.9262815 -0.34488615 0.068797387 0
3.9532099 -0.3486422 0.20798311 0
3.9574032 -0.34970811 0.3475771 0
3.9605832 -0.35138243 0.48820862 0
3.9804285 -0.35454351 0.63293391 0
3.9657178 -0.35393086 0.77392131 0
3.885144 -0.34742332 -0.20442426 0
3.9136622 -0.35135067 -0.068587959 0
3.9310279 -0.35913515 0.068902098 0
3.9300907 -0.36043289 0.20683172 0
3.9640946 -0.36424914 0.34827435 0
3.9573557 -0.36502299 0.4879649 0
3.9634311 -0.3669787 0.630431 0
3.964458 -0.36777166 0.77392131 0
3.8739643 -0.36005875 -0.2039009 0
3.9144027 -0.36519548 -0.068622865 0
3.9317412 -0.37304372 0.068937011 0
3.9248323 -0.37377059 0.20662238 0
3.9588323 -0.37770569 0.34792572 0
3.9560578 -0.37883452 0.4879649 0
3.9601595 -0.38062242 0.63011813 0
3.9670587 -0.38198429 0.77468461 0
3.8786478 -0.37415454 -0.20421492 0
3.8852389 -0.37615922 -0.068134196 0
3.9224546 -0.38598245 0.068797387 0
3.9314537 -0.38825366 0.20704105 0
3.9416277 -0.38995308 0.34653121 0
3.9626124 -0.39342594 0.48893982 0
3.9548757 -0.39405197 0.62949234 0
3.9617939 -0.39543959 0.77392131 0
3.8892422 -0.38888359 -0.20484295 0
3.8819122 -0.3895193 -0.06809929 0
3.9171047 -0.39926645 0.068727575 0
3.926101 -0.40156817 0.20683172 0
3.9283509 -0.40249112 0.34548536 0
3.9533165 -0.40644357 0.4879649 0
3.9534762 -0.40785462 0.62949234 0
3.9486721 -0.40805557 0.7716316 0
3.8819013 -0.40184024 -0.20452894 0
3.8825181 -0.40327388 -0.068134196 0
3.9097209 -0.4123081 0.068622865 0
3.9286475 -0.41569072 0.20704105 0
3.9348469 -0.41704109 0.34618258 0
3.9380562 -0.41877136 0.48625872 0
3.9539921 -0.42186189 0.62980521 0
3.9355106 -0.42058477 0.76934189 0
3.8606157 -0.41326231 -0.20348223 0
3.8810868 -0.41682395 -0.068134196 0
3.9003065 -0.42508644 0.068483248 0
3.9093037 -0.42744792 0.20609902 0
3.9373281 -0.43120757 0.34653121 0
3.9405165 -0.4329488 0.48674619 0
3.9485691 -0.4352285 0.62917954 0
3.9418244 -0.43518144 0.77086836 0
3.8531942 -0.42607731 -0.2031682 0
3.8796079 -0.43036896 -0.068134196 0
3.9107215 -0.44004005 0.068692669 0
3.9097726 -0.44131538 0.2062037 0
3.9377789 -0.44517261 0.34670553 0
3.9389815 -0.44670117 0.48674619 0
3.9391749 -0.44811583 0.62792808 0
3.9480841 -0.44982734 0.7723949 0
3.8635898 -0.44088352 -0.20379624 0
3.8741086 -0.44345385 -0.068064384 0
3.8952572 -0.45207459 0.068448335 0
3.9181275 -0.45611504 0.20672706 0
3.9203689 -0.45706949 0.34531105 0
3.9472563 -0.46160087 0.4879649 0
3.8640108 -0.45460069 -0.2039009 0
3.8705511 -0.45673999 -0.068029478 0
3.8896842 -0.46519387 0.06837853 0
3.9106443 -0.46839294 0.20641303 0
3.8604176 -0.46784553 -0.20379624 0
3.8690155 -0.46957266 -0.068029478 0
