# .PCD v0.7 - Point Cloud Data file format
VERSION 0.7
FIELDS x y z intensity ring
SIZE 4 4 4 4 2
TYPE F F F F U
COUNT 1 1 1 1 1
WIDTH 1286
HEIGHT 1
VIEWPOINT 0 0 0 1 0 0 0
POINTS 1286
DATA ascii
6.2666841 -0.80166912 1.2280468 24 13
6.2760305 -0.80397803 -0.33160067 17 6
6.2741976 -0.8048563 1.4603822 26 14
6.2675381 -0.80511397 -0.11029921 23 7
6.2712784 -0.80670702 1.6942296 16 15
1.6686283 -0.21671696 -0.4508628 7 0
6.2900615 -0.81805271 0.11071807 29 8
1.9130976 -0.24914709 -0.4454031 5 1
6.2722096 -0.81795758 0.33149597 32 9
2.2193179 -0.28942081 -0.43504456 74 2
6.2686281 -0.81860322 0.55309033 30 10
2.6990905 -0.35294604 -0.43113342 4 3
6.2670355 -0.82062024 0.7760641 19 11
3.3834133 -0.44363263 -0.41898686 2 4
6.2576218 -0.82160944 0.99961638 26 12
4.5909109 -0.60277468 -0.4050999 4 5
6.2619014 -0.82328308 1.2276652 24 13
6.2771463 -0.82640201 -0.33181 23 6
6.2713499 -0.82675236 1.4603822 26 14
6.2686543 -0.82751018 -0.11036902 26 7
6.2645936 -0.82808661 1.6931943 16 15
1.6697767 -0.22279577 -0.45138043 7 0
6.2792392 -0.83894479 0.11057845 32 8
1.9238055 -0.25737396 -0.4481025 5 1
6.2673364 -0.83958143 0.3313913 37 9
2.2163482 -0.29690519 -0.43466291 73 2
6.2677073 -0.84074473 0.55326468 33 10
2.6978421 -0.36236548 -0.43113342 4 3
6.2759371 -0.8440789 0.77752644 23 11
3.4015174 -0.45808968 -0.42142424 3 4
6.2488427 -0.84265554 0.99867773 29 12
4.5907536 -0.61906248 -0.40527418 4 5
6.2589889 -0.84513617 1.2276652 25 13
6.272244 -0.8480407 -0.33170533 20 6
6.2549081 -0.84680843 1.457233 29 14
6.2538381 -0.84777504 -0.11015959 19 7
6.2463508 -0.84787035 1.6890532 17 15
1.6555909 -0.22678775 -0.44775698 8 0
6.2624049 -0.85895628 0.11033412 30 8
1.9228953 -0.26408774 -0.4481025 5 1
6.2643676 -0.86145347 0.3313913 30 9
2.2191882 -0.30517483 -0.43542615 74 2
6.2469707 -0.86017191 0.55169582 27 10
2.6867764 -0.37043151 -0.42956907 4 3
6.2572212 -0.86380911 0.77557659 20 11
3.407763 -0.47104773 -0.42239916 3 4
6.245863 -0.86446297 0.99867773 25 12
4.5885644 -0.63508344 -0.40527418 2 5
6.2346091 -0.86401439 1.2234674 21 13
6.2692456 -0.86992967 -0.33170533 21 6
6.2654252 -0.87051421 1.4603822 26 14
6.252821 -0.86987531 -0.11019449 30 7
6.2433529 -0.86966902 1.6890532 16 15
1.6643544 -0.23390977 -0.45034516 7 0
6.2573881 -0.88053232 0.11029921 30 8
1.9045945 -0.26835129 -0.44405338 4 1
6.2534118 -0.88219887 0.33097261 37 9
2.2258856 -0.3140164 -0.43695265 76 2
6.2537937 -0.88336599 0.55256736 32 10
2.6893787 -0.38036114 -0.43019485 4 3
6.2345128 -0.88286233 0.77313918 22 11
3.4021673 -0.4823828 -0.42191169 3 4
6.2388959 -0.88570464 0.998052 28 12
4.5863199 -0.6510967 -0.40527418 2 5
6.221837 -0.88439065 1.2215593 24 13
6.2424426 -0.88843101 -0.33044925 21 6
6.2507734 -0.89072978 1.4576828 29 14
6.2438078 -0.89084911 -0.11008978 24 7
6.2364545 -0.89091069 1.6880178 17 15
1.6711761 -0.24082015 -0.4524157 7 0
6.2542763 -0.90236926 0.11029921 29 8
1.9132898 -0.27639106 -0.44630289 4 1
6.2364573 -0.90202069 0.33023992 26 9
2.2306046 -0.32262734 -0.43809745 58 2
6.2408133 -0.90376276 0.55169582 23 10
2.6919448 -0.39031342 -0.43082058 4 3
6.2176418 -0.90262324 0.771433 16 11
3.3886759 -0.49254242 -0.42044926 2 4
6.2318568 -0.90690815 0.99742627 21 12
4.603735 -0.66997117 -0.40701729 3 5
6.236196 -0.90865111 1.2249938 19 13
6.2432561 -0.91079247 -0.33065861 22 6
6.2283435 -0.90972722 1.4531839 26 14
6.2406602 -0.9126386 -0.11008978 24 7
6.2390409 -0.91351408 1.6895708 15 15
1.6741477 -0.24721661 -0.45345098 7 0
6.2550445 -0.92478013 0.11036902 30 8
1.9103857 -0.28278264 -0.44585299 6 1
6.2312951 -0.9234916 0.33013523 38 9
2.2197549 -0.32897255 -0.43618938 75 2
6.2435331 -0.92641908 0.55221879 33 10
2.6983817 -0.40086877 -0.43207204 4 3
6.2301607 -0.92665756 0.7733829 23 11
3.3987167 -0.50612247 -0.42191169 2 4
6.218884 -0.92719924 0.99586189 30 12
4.6131921 -0.68779993 -0.40806317 2 5
6.2174525 -0.92809516 1.2219409 23 13
6.2380638 -0.93228483 -0.33055395 23 6
6.2251301 -0.93146265 1.4531839 29 14
6.21766 -0.93145436 -0.10974073 24 7
6.2186198 -0.93270797 1.6849121 17 15
1.6599035 -0.25103682 -0.44982749 7 0
6.2438698 -0.94541126 0.1102294 30 8
1.9248009 -0.29178604 -0.44945222 10 1
6.2280331 -0.94523734 0.33013523 38 9
2.2166522 -0.33642441 -0.43580776 75 2
6.208745 -0.94341844 0.54942977 30 10
2.6911073 -0.40939415 -0.43113342 4 3
6.2229638 -0.94780159 0.77289546 20 11
3.3930047 -0.51738459 -0.42142424 2 4
6.2058463 -0.94741094 0.99429762 25 12
4.5871282 -0.70029056 -0.40597141 4 5
6.2219381 -0.95097893 1.2234674 21 13
6.2426682 -0.95526242 -0.33097261 19 6
6.2179875 -0.95259649 1.452284 26 14
6.2104182 -0.95254618 -0.10967092 23 7
6.2134161 -0.95411605 1.6843945 15 15
1.6571081 -0.25653389 -0.44930989 7 0
6.2326269 -0.96597546 0.11008978 32 8
1.9237705 -0.29850307 -0.44945222 8 1
6.2286434 -0.96758473 0.33034459 37 9
2.2135241 -0.34385854 -0.43542615 74 2
6.2211633 -0.96753478 0.55082428 30 10
2.6799023 -0.41726577 -0.42956907 4 3
6.2137327 -0.96860057 0.77216423 22 11
3.3951006 -0.52983743 -0.42191169 3 4
6.2083564 -0.9699825 0.99523622 30 12
4.5984354 -0.71845138 -0.40719163 3 5
6.1914248 -0.96844417 1.2181247 23 13
6.2254834 -0.97488463 -0.33023992 22 6
6.2242503 -0.97580451 1.4545335 29 14
6.2070551 -0.97421879 -0.10967092 24 7
6.1890559 -0.9725005 1.6787004 20 15
1.6619267 -0.26322335 -0.4508628 7 0
6.2153921 -0.98553348 0.10984544 32 8
1.9015456 -0.30185568 -0.44450328 6 1
6.2173381 -0.98806691 0.32992589 38 9
2.2297609 -0.35435629 -0.43886071 79 2
6.2020073 -0.98674035 0.54942977 32 10
2.6842818 -0.42755005 -0.43050769 4 3
6.1926708 -0.9874714 0.7699706 21 11
3.4089127 -0.54418874 -0.42386162 3 4
6.1990809 -0.99071258 0.99429762 29 12
4.5840955 -0.73261195 -0.40614575 4 5
6.180253 -0.98880982 1.2165983 22 13
6.2102098 -0.99471432 -0.3296119 15 6
6.2150345 -0.99659979 1.4531839 26 14
6.2095394 -0.9968304 -0.10977564 22 7
6.200882 -0.99655074 1.6828415 18 15
1.6648117 -0.26964065 -0.45189807 7 0
6.20994 -1.0069032 0.10981054 29 8
1.9004805 -0.30849153 -0.44450328 6 1
6.205966 -1.0084821 0.32950723 36 9
2.2207589 -0.36087784 -0.43733424 77 2
6.1985254 -1.0083834 0.54942977 30 10
2.6808233 -0.43659982 -0.43019485 5 3
6.1891861 -1.0090818 0.7699706 20 11
3.3874006 -0.55288702 -0.42142424 3 4
6.1936355 -1.0120268 0.9939847 27 12
4.589375 -0.74989408 -0.40684301 3 5
6.1806383 -1.0110108 1.2173615 21 13
6.1988163 -1.015095 -0.3291932 22 6
6.1845946 -1.0138745 1.4468851 26 14
6.2001023 -1.0175281 -0.10967092 26 7
6.1973658 -1.0181898 1.6828415 17 15
1.6581427 -0.27450374 -0.45034516 7 0
6.2221694 -1.0311892 0.11008978 30 8
1.9109268 -0.31703725 -0.44720268 6 1
6.1905856 -1.0281752 0.32887918 40 9
2.2039919 -0.36605421 -0.43428129 73 2
6.208725 -1.0323015 0.55065 35 10
2.6909745 -0.44790092 -0.43207204 4 3
6.1915007 -1.0316588 0.77070183 22 11
3.3854499 -0.56470793 -0.42142424 2 4
6.182271 -1.032339 0.99273324 30 12
4.6024508 -0.76853466 -0.40823749 3 5
6.1886897 -1.0345211 1.2196511 25 13
6.2011447 -1.0377157 -0.32950723 18 6
6.1887059 -1.0367447 1.4486848 29 14
6.1866517 -1.0375105 -0.1094964 22 7
6.1861529 -1.038537 1.680771 22 15
1.6514601 -0.27932352 -0.44879225 7 0
6.2067027 -1.0508994 0.10988036 32 8
1.9136512 -0.324357 -0.4481025 6 1
6.1772962 -1.0470295 0.32835582 35 9
2.2027006 -0.37374535 -0.43428129 73 2
6.1795483 -1.0496304 0.54838395 30 10
2.6854997 -0.45662919 -0.43144631 5 3
6.1839476 -1.0525987 0.77021432 20 11
3.3951995 -0.57852262 -0.42288667 2 4
6.16713 -1.0508437 0.99085599 27 12
4.5820642 -0.78158045 -0.40666869 2 5
6.1889114 -1.0567783 1.2204144 22 13
6.1915784 -1.0583459 -0.3291932 21 6
6.1773653 -1.0570261 1.4468851 26 14
6.1654382 -1.0549852 -0.10918226 26 7
6.1674418 -1.0564359 1.6766298 21 15
1.6542822 -0.28574416 -0.44982749 7 0
6.1874189 -1.0687529 0.10960111 32 8
1.9164056 -0.33136517 -0.4490023 6 1
6.1932836 -1.0719923 0.32940254 38 9
2.2129893 -0.38344303 -0.436571 76 2
6.1817365 -1.0722162 0.54890686 35 10
2.6781318 -0.46451935 -0.43050769 5 3
6.1745553 -1.0720807 0.76948309 21 11
3.3932626 -0.58977824 -0.42288667 3 4
6.1692624 -1.0733804 0.99179459 28 12
4.5851965 -0.79859567 -0.40719163 3 5
6.1466904 -1.0705583 1.212782 21 13
6.1919694 -1.079558 -0.32940254 21 6
6.1872644 -1.0798504 1.4500345 29 14
6.1735368 -1.078565 -0.10939168 24 7
6.1618137 -1.0776253 1.6761122 22 15
1.6552283 -0.29156348 -0.45034516 7 0
6.1738048 -1.0886084 0.1094266 30 8
1.9018037 -0.33568156 -0.44585299 7 1
6.1659026 -1.0894343 0.32814649 36 9
2.2175055 -0.39180419 -0.43771586 96 2
6.1624508 -1.0899336 0.54751235 23 10
2.6803842 -0.47455373 -0.43113342 5 3
6.1590486 -1.091549 0.76802069 18 11
3.3990014 -0.60300642 -0.42386162 2 4
6.1557536 -1.0931816 0.99023032 22 12
4.5962553 -0.81623501 -0.4084118 3 5
6.148715 -1.0930387 1.2139269 18 13
6.166533 -1.0973165 -0.32825115 19 6
6.1757832 -1.1000744 1.4482349 26 14
6.1736722 -1.1008102 -0.10946149 23 7
6.1599159 -1.0994668 1.6766298 20 15
1.6561017 -0.2976813 -0.4508628 6 0
6.1778393 -1.1115687 0.10956621 32 8
1.8948668 -0.34128177 -0.44450328 6 1
6.1640272 -1.111305 0.32825115 40 9
2.2180562 -0.39989063 -0.43809745 100 2
6.178216 -1.1149764 0.54925549 38 10
2.6903749 -0.48601413 -0.43301064 5 3
6.1473866 -1.1116285 0.76704568 23 11
3.3851554 -0.612746 -0.42239916 3 4
6.1577315 -1.1157191 0.99116892 28 12
4.585536 -0.83085304 -0.40771458 5 5
6.14293 -1.1141447 1.2135452 21 13
6.1567702 -1.1177648 -0.32793713 22 6
6.1527324 -1.1181409 1.4437358 29 14
6.1638894 -1.12128 -0.10935678 27 7
6.1598425 -1.1216544 1.6776651 22 15
1.6645533 -0.30520239 -0.45345098 7 0
6.177855 -1.1338485 0.10963602 32 8
1.9051638 -0.35000673 -0.44720268 7 1
6.148325 -1.1306474 0.32762313 38 9
2.2089236 -0.40621042 -0.436571 100 2
6.1527324 -1.132568 0.54733807 35 10
2.6828341 -0.4943285 -0.43207204 4 3
6.1434689 -1.1330801 0.76704568 20 11
3.3790917 -0.62383789 -0.42191169 3 4
6.1382599 -1.134335 0.98866594 24 12
4.5884857 -0.84794062 -0.40823749 5 5
6.1409345 -1.1359378 1.2139269 20 13
6.1626501 -1.1410673 -0.32846051 18 6
6.1430435 -1.1385458 1.4423862 29 14
6.1481409 -1.1406006 -0.10914735 23 7
6.1520905 -1.1424439 1.6766298 19 15
1.6539831 -0.30923575 -0.4508628 6 0
6.169929 -1.1546707 0.10956621 32 8
1.905846 -0.35701364 -0.44765261 7 1
6.1521926 -1.1535745 0.32804179 40 9
2.2152104 -0.41536576 -0.43809745 100 2
6.1330762 -1.1510981 0.54594356 31 10
2.6849747 -0.50441974 -0.43269777 5 3
6.1472802 -1.1559855 0.76802069 20 11
3.3846972 -0.63709813 -0.42288667 2 4
6.1284385 -1.1546574 0.98772728 26 12
4.57375 -0.86173898 -0.40719163 2 5
6.1234274 -1.1548198 1.2112557 21 13
6.1625547 -1.1633128 -0.32866985 17 6
6.1428618 -1.1607058 1.4432859 26 14
6.122509 -1.1579669 -0.1087634 25 7
6.1271858 -1.159959 1.6709359 20 15
1.6490983 -0.31428403 -0.44982749 6 0
6.1462173 -1.1724538 0.10921716 34 8
1.9103305 -0.36476061 -0.4490023 7 1
6.1383204 -1.1731681 0.32751846 37 9
2.2118189 -0.42272723 -0.43771586 96 2
6.1211934 -1.171002 0.54524636 32 10
2.6754372 -0.51230299 -0.43144631 4 3
6.1354089 -1.1759417 0.76704568 20 11
3.3824525 -0.64890909 -0.42288667 2 4
6.1263108 -1.1764153 0.98804021 25 12
4.5687571 -0.87732333 -0.40701729 3 5
6.1116467 -1.1747053 1.2097291 23 13
6.1584563 -1.184817 -0.32866985 13 6
6.1387725 -1.1821412 1.4432859 26 14
6.1361012 -1.1827376 -0.10907754 16 7
6.1212029 -1.1809739 1.6704183 21 15
1.6517839 -0.32077509 -0.4508628 7 0
6.1401248 -1.1935194 0.10918226 13 8
1.8975685 -0.36919367 -0.44630289 6 1
6.1498713 -1.1976418 0.32835582 8 9
2.2141838 -0.43119588 -0.4384791 98 2
6.1346684 -1.1957926 0.5468151 7 10
2.6658773 -0.52012581 -0.43019485 4 3
6.1488013 -1.2007755 0.76923937 6 11
3.3762703 -0.65995044 -0.42239916 3 4
6.1493077 -1.2031029 0.99242038 7 12
4.5754437 -0.89517868 -0.40788889 2 5
6.1441154 -1.2032005 1.2169799 7 13
6.2326818 -1.221674 -0.33285671 5 6
6.1403456 -1.2046877 1.4446357 13 14
6.259479 -1.2291955 -0.11134635 6 7
6.1644325 -1.2116482 1.6833591 5 15
1.6544445 -0.32728872 -0.45189807 7 0
6.2751961 -1.2425222 0.1116605 13 8
1.8905336 -0.37467861 -0.44495317 7 1
6.2534032 -1.2404757 0.33411276 10 9
2.2088137 -0.43815821 -0.43771586 96 2
6.2750707 -1.2459123 0.5597142 8 10
2.6872957 -0.53404874 -0.43394926 4 3
6.2613888 -1.2454678 0.78386366 5 11
3.358371 -0.66863078 -0.42044926 3 4
6.2632451 -1.2481097 1.0115054 8 12
4.5683827 -0.91036564 -0.40754023 3 5
6.2515473 -1.2469132 1.2391137 6 13
6.3654819 -1.2707934 -0.34018376 7 6
6.2431169 -1.2474978 1.4698302 9 14
6.3806462 -1.276137 -0.11358026 6 7
6.2889757 -1.2589444 1.7185585 5 15
1.6476105 -0.33191729 -0.45034516 7 0
6.4178386 -1.2940632 0.11427836 13 8
1.896855 -0.3828176 -0.44675279 6 1
6.3880329 -1.2903739 0.34154451 8 9
2.2091951 -0.44625443 -0.43809745 78 2
6.401526 -1.2942624 0.57139301 8 10
2.6892872 -0.54420954 -0.43457499 4 3
6.3931947 -1.2949011 0.80092543 6 11
3.3754721 -0.68429387 -0.42288667 2 4
6.38275 -1.295105 1.0315289 6 12
4.578846 -0.92908019 -0.4087604 3 5
6.381835 -1.2960793 1.2658269 6 13
6.5058427 -1.3224461 -0.34792948 6 6
6.3857646 -1.2991985 1.5044726 9 14
6.5113564 -1.3259339 -0.11598869 8 7
6.4075837 -1.305967 1.752205 6 15
1.6407645 -0.33650216 -0.44879225 7 0
6.5484433 -1.3442024 0.11668679 13 8
1.9012339 -0.39061308 -0.4481025 6 1
6.5321703 -1.3432385 0.34949955 11 9
2.207624 -0.45396325 -0.43809745 100 2
6.5218644 -1.3423057 0.58254898 8 10
2.6757624 -0.55120212 -0.43269777 4 3
6.532506 -1.3468728 0.81896204 5 11
3.3730628 -0.69607222 -0.42288667 2 4
6.513608 -1.3453469 1.0534298 5 12
4.5599651 -0.94183362 -0.40736595 3 5
6.5253119 -1.3489518 1.2952114 7 13
6.6517859 -1.3763078 -0.35598922 5 6
6.5071354 -1.3475629 1.5341661 6 14
6.6398382 -1.376253 -0.11836223 7 7
6.5297217 -1.3546175 1.7868867 5 15
1.6414709 -0.34262216 -0.44930989 7 0
6.6709447 -1.3936329 0.1189556 11 8
1.9017662 -0.39764607 -0.4485524 6 1
6.6642852 -1.3946697 0.35682657 9 9
2.2041044 -0.4612644 -0.43771586 96 2
6.6516943 -1.3932467 0.59457648 7 10
2.6660888 -0.55891776 -0.43144631 4 3
6.6695886 -1.3994249 0.83675498 5 11
3.3783832 -0.70947409 -0.42386162 3 4
6.659657 -1.3997682 1.0778337 5 12
4.5566497 -0.95774508 -0.40736595 3 5
6.6492844 -1.3988001 1.3207799 7 13
6.9830995 -1.470297 -0.37399277 5 6
6.6511273 -1.4016123 1.5692586 6 14
13.091932 -2.7612894 -0.2335481 34 7
6.6610475 -1.4061315 1.8241568 4 15
1.6421547 -0.34875122 -0.44982749 7 0
13.298827 -2.8267529 0.23731782 33 8
1.8927423 -0.40266004 -0.44675279 6 1
13.314846 -2.8350158 0.71344382 49 9
2.2063212 -0.46977302 -0.4384791 98 2
2.6660535 -0.56863284 -0.43175918 5 3
13.286615 -2.8362782 1.6681477 27 11
3.3758862 -0.72126245 -0.42386162 2 4
13.295938 -2.8431213 2.1534772 24 12
4.5688658 -0.97697794 -0.4087604 3 5
13.273364 -2.8407171 2.6385069 22 13
7.0111246 -1.501775 -0.37577221 6 6
13.300011 -2.851275 3.1403167 31 14
13.068527 -2.8040352 -0.23330377 37 7
12.987326 -2.7889836 3.5592797 3 15
1.6465923 -0.35570505 -0.45138043 7 0
13.306469 -2.8769603 0.23763196 48 8
1.8837066 -0.4076159 -0.44495317 6 1
13.285349 -2.8772483 0.7123971 50 9
2.204668 -0.47747165 -0.4384791 98 2
13.297241 -2.8822539 1.1903732 45 10
2.679496 -0.58128595 -0.4342621 5 3
13.284394 -2.8843248 1.6691227 36 11
3.3578293 -0.72966981 -0.42191169 3 4
13.287863 -2.889935 2.15379 33 12
4.5732155 -0.99461406 -0.40945768 3 5
13.282551 -2.8912077 2.642323 35 13
7.0058398 -1.5262393 -0.37577221 6 6
13.265224 -2.8922865 3.1344681 33 14
13.048892 -2.8475041 -0.23312925 42 7
12.979398 -2.8347127 3.5597973 4 15
1.6528879 -0.36310855 -0.45345098 7 0
13.284628 -2.9208148 0.23742254 48 8
1.8917882 -0.41628274 -0.44720268 6 1
13.26403 -2.9187131 0.71176904 50 9
2.1953187 -0.48347557 -0.43695265 95 2
13.263751 -2.923506 1.1882814 39 10
2.671664 -0.58935905 -0.43332353 5 3
13.2568 -2.9268265 1.666929 30 11
3.3591385 -0.74224305 -0.42239916 3 4
13.243487 -2.926312 2.1481583 37 12
4.558043 -1.0079902 -0.4084118 5 5
13.25321 -2.9333124 2.6385069 34 13
6.9985199 -1.550253 -0.37566754 6 6
13.253144 -2.9381516 3.1340182 33 14
13.021807 -2.8868651 -0.23281512 40 7
12.966155 -2.8769016 3.5587621 5 15
1.6365272 -0.36550725 -0.44930989 7 0
13.282674 -2.9665954 0.23756215 48 8
1.894201 -0.42340407 -0.4481025 6 1
13.253761 -2.9649954 0.71176904 49 9
2.1974492 -0.49199352 -0.43771586 96 2
13.237911 -2.9663024 1.1868869 38 10
2.6774051 -0.59994304 -0.43457499 5 3
13.250895 -2.9716403 1.6674166 30 11
3.3760276 -0.75772548 -0.42483655 2 4
13.231265 -2.9720895 2.1478455 39 12
4.5583844 -1.0247686 -0.4087604 3 5
13.241493 -2.976815 2.6381252 36 13
7.0167227 -1.5787132 -0.37692359 5 6
13.24523 -2.9825122 3.1344681 31 14
13.007748 -2.9314225 -0.23274529 40 7
12.944727 -2.9195943 3.5556562 5 15
1.6409581 -0.3722142 -0.4508628 7 0
13.244937 -3.0067451 0.2370735 46 8
1.896512 -0.43087694 -0.4490023 6 1
13.243331 -3.0112417 0.71176904 50 9
2.2072921 -0.50188959 -0.44000554 100 2
13.226059 -3.009742 1.1867125 42 10
2.6656644 -0.60709202 -0.43301064 5 3
13.224957 -3.0143473 1.6654665 31 11
3.377233 -0.77038842 -0.42532405 2 4
13.22081 -3.0182569 2.1478455 40 12
4.5549612 -1.0398791 -0.4087604 3 5
13.20997 -3.018208 2.6339276 34 13
7.0228515 -1.6058679 -0.37755162 6 6
13.234739 -3.0287287 3.1344681 31 14
12.993538 -2.9759173 -0.23267549 40 7
12.932573 -2.9643304 3.5551386 6 15
1.6434138 -0.37880775 -0.45189807 7 0
13.222671 -3.0502629 0.23686406 45 8
1.881705 -0.4344258 -0.44585299 7 1
13.228848 -3.0565519 0.71155971 49 9
2.2093523 -0.51047534 -0.44076881 100 2
13.209649 -3.0545447 1.1861897 38 10
2.6577554 -0.61505711 -0.43207204 4 3
13.19695 -3.0564618 1.663273 31 11
3.3822582 -0.78396535 -0.42629901 2 4
13.212117 -3.0648341 2.1481583 41 12
4.5629487 -1.0584738 -0.40980628 3 5
13.191703 -3.0625253 2.632401 34 13
6.9958034 -1.6254003 -0.37640023 6 6
13.224086 -3.0749083 3.1344681 34 14
12.955804 -3.01491 -0.23218682 34 7
12.925909 -3.0103316 3.5561738 6 15
1.6439624 -0.3849825 -0.4524157 7 0
12.592814 -2.9512992 0.22576433 23 8
1.8877662 -0.44277152 -0.44765261 6 1
12.570609 -2.9507244 0.67670399 28 9
2.1922667 -0.51459515 -0.43771586 96 2
12.587935 -2.9571095 1.1312815 17 10
2.6555922 -0.62433064 -0.43207204 4 3
12.569788 -2.9574769 1.5855203 15 11
3.3447208 -0.78757721 -0.42191169 2 4
12.59184 -2.9673042 2.0489788 17 12
4.559226 -1.0743951 -0.40980628 3 5
12.561823 -2.9625449 2.5087569 16 13
6.9978619 -1.6516454 -0.37681893 6 6
12.558961 -2.9664981 2.9792516 19 14
12.575449 -2.9727101 -0.2255549 33 7
12.588209 -2.9780467 3.4661047 21 15
1.6388499 -0.38982463 -0.45138043 7 0
12.584381 -2.9957016 0.22579923 27 8
1.8862091 -0.44935837 -0.44765261 6 1
12.566061 -2.9959757 0.67701799 30 9
2.1828179 -0.52042323 -0.43618938 94 2
12.569785 -2.9991822 1.1305844 27 10
2.6706889 -0.63772571 -0.43488789 5 3
12.557457 -3.000874 1.5852765 20 11
3.3458126 -0.80017114 -0.42239916 2 4
12.550667 -3.0038831 2.043973 28 12
4.5593233 -1.0912308 -0.41015494 5 5
12.545676 -3.0050037 2.5076118 31 13
6.9998231 -1.6779248 -0.37723759 6 6
12.550424 -3.0107737 2.9797015 24 14
12.551384 -3.0133209 -0.22531058 35 7
12.549562 -3.0151997 3.4583402 27 15
1.6280899 -0.39327484 -0.44879225 7 0
12.56413 -3.0372617 0.22562471 27 8
1.8865231 -0.45639795 -0.4481025 6 1
12.557467 -3.0402911 0.67712265 32 9
2.1886206 -0.52988738 -0.43771586 96 2
12.536004 -3.0374107 1.1284926 31 10
2.6550083 -0.64378583 -0.43269777 5 3
12.552693 -3.0460939 1.5860078 24 11
3.3545735 -0.81465608 -0.42386162 2 4
12.522828 -3.0434761 2.041157 29 12
4.54387 -1.104316 -0.40910906 3 5
12.531296 -3.0478501 2.5068486 30 13
7.0075073 -1.705655 -0.37797031 6 6
12.541733 -3.0550256 2.9801517 26 14
12.538847 -3.0566413 -0.22527567 36 7
12.516439 -3.0534933 3.4521284 28 15
1.6304597 -0.39987588 -0.44982749 7 0
12.547626 -3.0796702 0.22552 27 8
1.8887035 -0.46391004 -0.4490023 6 1
12.5429 -3.0831528 0.67691332 33 9
2.1848512 -0.53705525 -0.43733424 96 2
12.525325 -3.081151 1.1284926 33 10
2.6489089 -0.65210521 -0.43207204 4 3
12.530419 -3.0870433 1.5845454 27 11
3.3709829 -0.83111268 -0.42629901 3 4
12.510211 -3.0866971 2.0408442 30 12
4.5283809 -1.1173066 -0.40806317 3 5
12.501521 -3.086868 2.5030327 33 13
6.9782443 -1.7243561 -0.37671426 6 6
12.527207 -3.0978498 2.9792516 30 14
12.531982 -3.101352 -0.22534548 37 7
12.498202 -3.0953076 3.450058 27 15
1.6365525 -0.4074316 -0.45189807 7 0
12.527096 -3.1210334 0.22534548 30 8
1.8700548 -0.46625707 -0.44495317 6 1
12.530122 -3.1264334 0.67680866 38 9
2.1924875 -0.54705495 -0.43924233 79 2
12.51256 -3.1243713 1.1283183 34 10
2.6485329 -0.66182655 -0.43238491 4 3
12.496457 -3.124985 1.5816205 30 11
3.3603587 -0.84094691 -0.42532405 2 4
12.50511 -3.1317868 2.0417829 33 12
4.5360498 -1.1360109 -0.40910906 3 5
12.492574 -3.1309645 2.5034142 33 13
6.9411864 -1.74093 -0.37503949 6 6
12.518208 -3.1420338 2.9797015 33 14
12.521081 -3.1450779 -0.22534548 37 7
12.491069 -3.1398573 3.4510932 28 15
1.6388663 -0.41408828 -0.45293337 7 0
12.508369 -3.1627815 0.22520585 35 8
1.8759727 -0.47469407 -0.44675279 6 1
12.503643 -3.1662304 0.67597127 38 9
2.1905644 -0.55470484 -0.43924233 79 2
12.501577 -3.1680291 1.1283183 34 10
2.6519508 -0.67252439 -0.43332353 4 3
12.489321 -3.1695631 1.5821079 29 11
3.3612504 -0.8536489 -0.42581153 2 4
12.490272 -3.1744454 2.041157 32 12
4.543643 -1.1547824 -0.41015494 3 5
12.481568 -3.1745527 2.5034142 34 13
6.9408741 -1.7666265 -0.37535352 6 6
12.484504 -3.1799395 2.974303 31 14
12.4984 -3.185802 -0.22513604 34 7
12.485649 -3.1848729 3.4526463 31 15
1.6355393 -0.41932666 -0.4524157 7 0
12.508875 -3.2094061 0.22541527 35 8
1.8724169 -0.48075491 -0.44630289 5 1
12.484777 -3.2078688 0.67555261 38 9
2.1791074 -0.55990511 -0.43733424 77 2
12.496232 -3.2131369 1.1288412 34 10
2.6591523 -0.68423855 -0.43488789 5 3
12.482026 -3.2141299 1.5825955 30 11
3.3428721 -0.86141378 -0.42386162 3 4
12.471465 -3.2160528 2.0399058 33 12
4.5318675 -1.1686459 -0.40945768 3 5
12.47041 -3.2181022 2.5034142 33 13
6.9462676 -1.7938402 -0.37598157 6 6
12.469553 -3.2225239 2.973403 31 14
12.471716 -3.225405 -0.22485681 33 7
12.465105 -3.2260163 3.450058 29 15
1.6265873 -0.42308798 -0.45034516 7 0
12.493727 -3.2520432 0.22534548 34 8
1.8782705 -0.48925281 -0.4481025 6 1
12.477369 -3.2524369 0.67576194 37 9
2.1771398 -0.56750822 -0.43733424 77 2
12.471445 -3.253217 1.1276209 34 10
2.6548364 -0.69301772 -0.43457499 4 3
12.466888 -3.2566769 1.5821079 30 11
3.3360035 -0.87207329 -0.42337415 2 4
12.452518 -3.2575667 2.0386541 32 12
4.5316153 -1.1854662 -0.40980628 3 5
12.455302 -3.2606177 2.5026507 34 13
6.9844012 -1.8297175 -0.378389 6 6
12.454459 -3.265043 2.9725032 31 14
12.460381 -3.2689199 -0.22485681 31 7
12.442556 -3.2665651 3.4469523 29 15
1.6213646 -0.42777759 -0.44930989 7 0
12.468764 -3.2920616 0.22510114 37 8
1.8784354 -0.49630401 -0.4485524 6 1
12.47424 -3.2958362 0.67618066 38 9
2.1789415 -0.57610798 -0.43809745 78 2
12.452308 -3.2946923 1.1269237 34 10
2.639034 -0.69874138 -0.43238491 4 3
12.443932 -3.2971239 1.5806454 29 11
3.3637955 -0.89126581 -0.42727396 2 4
12.441647 -3.2988427 2.0386541 32 12
4.5235982 -1.2002554 -0.40945768 5 5
12.42487 -3.299037 2.4988348 33 13
6.9799018 -1.8545997 -0.37849367 5 6
12.449212 -3.3078265 2.9738529 30 14
12.447539 -3.3097079 -0.22482191 28 7
12.435389 -3.3088012 3.4479873 28 15
1.625536 -0.4346489 -0.4508628 8 0
12.450052 -3.3313239 0.22496152 37 8
1.8598374 -0.49799404 -0.44450328 6 1
12.457454 -3.3356345 0.6758666 38 9
2.1808119 -0.58434677 -0.43886071 79 2
12.439389 -3.3354516 1.1267494 33 10
2.6386104 -0.70800072 -0.43269777 4 3
12.429095 -3.3373423 1.580158 28 11
3.349318 -0.89932692 -0.42581153 2 4
12.434454 -3.3411076 2.0392799 30 12
4.531137 -1.2183535 -0.41050354 3 5
12.411966 -3.3397112 2.4984531 31 13
6.9698563 -1.8766969 -0.37828431 5 6
12.430648 -3.3470647 2.9720533 27 14
12.453873 -3.3556495 -0.22513604 34 7
12.416888 -3.3480086 3.4459171 29 15
1.6278149 -0.44104743 -0.45189807 7 0
12.444727 -3.3741617 0.22506624 35 8
1.8656988 -0.50619984 -0.44630289 6 1
12.41104 -3.3696787 0.6739825 36 9
2.1826515 -0.59260422 -0.43962395 80 2
12.432105 -3.3777282 1.127098 31 10
2.6438727 -0.71881986 -0.43394926 4 3
12.410298 -3.3764553 1.579183 25 11
3.3346665 -0.90788394 -0.42434907 3 4
12.41128 -3.3813763 2.0374026 28 12
4.5422344 -1.2383553 -0.41189805 3 5
12.397035 -3.3798194 2.4976897 31 13
6.961668 -1.8992739 -0.37817967 6 6
12.40761 -3.3873558 2.9693539 27 14
12.422794 -3.3938313 -0.22478701 33 7
12.408853 -3.39235 3.4469523 28 15
1.6261874 -0.4470107 -0.45189807 7 0
12.430944 -3.4170508 0.22503133 15 8
1.8676783 -0.51374298 -0.44720268 5 1
12.410755 -3.4161611 0.67461056 17 9
2.1672156 -0.59695065 -0.43695265 76 2
12.41388 -3.4216831 1.1265751 19 10
2.6469333 -0.73008108 -0.43488789 4 3
12.402265 -3.4208112 1.5796705 16 11
3.3276498 -0.91846234 -0.42386162 2 4
12.395594 -3.4236274 2.036777 21 12
4.5186806 -1.2488955 -0.41015494 5 5
12.397809 -3.4288976 2.5003612 26 13
6.9739089 -1.9301041 -0.37922639 6 6
12.395111 -3.4328094 2.9693539 22 14
12.742341 -3.5289743 -0.23079063 12 7
12.406244 -3.4382241 3.4495404 23 15
1.6190344 -0.45112887 -0.45034516 7 0
12.990424 -3.6221039 0.23539807 13 8
1.869537 -0.52163237 -0.4481025 5 1
12.975257 -3.622757 0.70601213 16 9
2.1689003 -0.60556787 -0.43771586 77 2
12.916126 -3.6086771 1.1732906 8 10
2.6367588 -0.73718858 -0.43363637 4 3
12.949767 -3.6229498 1.651086 7 11
3.335731 -0.93386358 -0.42532405 2 4
12.896542 -3.6129134 2.1212516 10 12
4.5159912 -1.2659867 -0.41032922 5 5
12.871593 -3.6083477 2.5984371 10 13
6.9805899 -1.958212 -0.37995908 5 6
12.919651 -3.626684 3.0980258 13 14
12.767826 -3.5864694 -0.23148872 27 7
12.577676 -3.5354254 3.5007865 6 15
1.6136519 -0.45600912 -0.44930989 7 0
12.902653 -3.6462185 0.23403677 51 8
1.8658295 -0.52762485 -0.44765261 6 1
2.1761112 -0.61618763 -0.43962395 80 2
2.6359398 -0.74738669 -0.43394926 4 3
12.912214 -3.6610916 1.6479174 42 11
3.3477283 -0.94983643 -0.42727396 2 4
12.899054 -3.6622245 2.1237545 47 12
4.5153775 -1.2828317 -0.41067785 5 5
12.909268 -3.6699948 2.6087408 28 13
6.9772081 -1.9848771 -0.38016844 5 6
12.969998 -3.6921537 3.1133227 27 14
12.751382 -3.6299205 -0.23141891 22 7
12.563401 -3.5787785 3.5002687 3 15
1.6214173 -0.46401528 -0.45189807 7 0
12.955209 -3.7099526 0.23522353 30 8
1.8639764 -0.53413463 -0.44765261 6 1
12.961169 -3.7165554 0.70664018 28 9
2.1759429 -0.6239416 -0.44000554 80 2
12.93275 -3.7108495 1.1771255 21 10
2.6239533 -0.75339794 -0.43238491 4 3
12.935606 -3.7165561 1.6525484 23 11
3.3329453 -0.95822531 -0.42581153 3 4
12.918464 -3.7165129 2.1290734 30 12
4.5053549 -1.2961456 -0.41015494 3 5
12.900801 -3.71387 2.609504 47 13
6.9590721 -2.0046861 -0.37954038 5 6
12.899635 -3.718411 3.0993757 43 14
12.742476 -3.6755178 -0.23148872 22 7
12.558256 -3.6247547 3.5023394 3 15
1.6253541 -0.47128624 -0.45345098 8 0
12.982509 -3.766854 0.23595653 30 8
1.8639719 -0.54118115 -0.4481025 6 1
12.959625 -3.7651186 0.70726818 37 9
2.1794076 -0.63317639 -0.4411504 82 2
12.967547 -3.769875 1.1814833 27 10
2.6232042 -0.76310426 -0.43269777 4 3
12.945426 -3.7683451 1.6554734 28 11
3.3257687 -0.96874344 -0.42532405 3 4
12.949031 -3.7742984 2.1362693 37 12
4.523756 -1.3185546 -0.41224664 3 5
12.942414 -3.7748208 2.6205709 36 13
6.9616189 -2.0317636 -0.38006377 5 6
12.937084 -3.7781663 3.1115229 40 14
12.727649 -3.719414 -0.23145382 19 7
12.549235 -3.6696527 3.5033746 3 15
1.6181384 -0.47532353 -0.45189807 6 0
12.967362 -3.8115842 0.23592164 34 8
1.8620715 -0.54768425 -0.4481025 6 1
12.950234 -3.8114612 0.70747751 45 9
2.1564672 -0.63468283 -0.43695265 76 2
12.944754 -3.8123033 1.1806116 34 10
2.6299987 -0.77504838 -0.4342621 4 3
12.934097 -3.8140719 1.655717 30 11
3.3185589 -0.97922307 -0.42483655 3 4
12.92441 -3.816119 2.1343923 38 12
4.5114822 -1.3320805 -0.41154939 3 5
12.932925 -3.8210876 2.6213341 36 13
6.9812989 -2.0639791 -0.38152915 5 6
12.931292 -3.8255138 3.1133227 42 14
12.699248 -3.7592781 -0.23117457 20 7
12.528941 -3.7112415 3.5013041 3 15
1.603508 -0.47711244 -0.44827461 7 0
12.950147 -3.8556848 0.23585182 42 8
1.8638836 -0.55529368 -0.4490023 5 1
12.933023 -3.8555019 0.70726818 48 9
2.1636457 -0.64501083 -0.43886071 79 2
12.923731 -3.8551872 1.1799145 36 10
2.6253846 -0.78365904 -0.43394926 4 3
12.916901 -3.8580606 1.6552296 29 11
3.3189247 -0.99193782 -0.42532405 3 4
12.909117 -3.8606448 2.1340792 39 12
4.5029879 -1.346679 -0.41120079 3 5
12.911984 -3.8639574 2.6198077 36 13
6.9740515 -2.0883362 -0.38152915 4 6
12.921592 -3.8717475 3.1142225 43 14
12.674557 -3.8001382 -0.23096514 20 7
12.508509 -3.7527318 3.4992335 3 15
1.6073818 -0.48437902 -0.44982749 6 0
12.92895 -3.898556 0.2357122 43 8
1.8619339 -0.56179637 -0.4490023 5 1
12.921398 -3.9011998 0.70737284 50 9
2.1632605 -0.65312678 -0.43924233 79 2
12.900659 -3.8973949 1.1790429 38 10
2.6112878 -0.78938895 -0.43207204 4 3
12.903355 -3.9031255 1.6552296 30 11
3.3287416 -1.0075426 -0.42703021 5 4
12.891782 -3.9045374 2.1334534 39 12
4.4906316 -1.3600788 -0.41050354 3 5
12.890903 -3.9067273 2.6182814 36 13
6.9781871 -2.1161449 -0.38215721 4 6
12.909863 -3.9173944 3.1146722 40 14
12.663128 -3.8449383 -0.23100007 21 7
12.491636 -3.7952492 3.4981983 3 15
1.6130722 -0.49224222 -0.45189807 6 0
12.907614 -3.9413269 0.23557259 40 8
1.8525068 -0.56601465 -0.44720268 5 1
12.894333 -3.9421928 0.70664018 48 9
2.1647224 -0.66182202 -0.44000554 80 2
12.888881 -3.9429862 1.1792172 35 10
2.6160719 -0.80081213 -0.43332353 4 3
12.874468 -3.9434919 1.6532797 28 11
3.3176124 -1.016829 -0.42605525 6 4
12.887517 -3.9524102 2.1350179 38 12
4.5010958 -1.3804193 -0.41189805 3 5
12.873433 -3.9505489 2.6175179 36 13
6.9593024 -2.1369727 -0.38152915 5 6
12.892385 -3.9612896 3.1137726 39 14
12.661098 -3.8926437 -0.23120949 22 7
12.485697 -3.8411019 3.5002687 3 15
1.6150357 -0.49901056 -0.45293337 6 0
12.899508 -3.988131 0.2356773 39 8
1.8616898 -0.57593322 -0.44990209 4 1
12.87286 -3.9848156 0.70622146 48 9
2.154897 -0.66705203 -0.4384791 78 2
12.886457 -3.9914894 1.180263 36 10
2.6113737 -0.80935419 -0.43301064 4 3
12.860624 -3.9884081 1.6532797 28 11
3.3026674 -1.0248735 -0.42459282 7 4
12.866096 -3.9950287 2.1337664 39 12
4.5038605 -1.3984858 -0.41259527 3 5
12.867064 -3.9977922 2.6190445 36 13
6.9575219 -2.1630309 -0.38184318 5 6
12.861732 -4.0010586 3.1097233 37 14
12.637886 -3.9338434 -0.23103496 27 7
12.479591 -3.8869598 3.5023394 2 15
1.613284 -0.50464499 -0.45293337 6 0
12.887417 -4.0337315 0.2357122 40 8
1.8615279 -0.58301067 -0.45035201 3 1
12.860778 -4.030323 0.70632613 46 9
2.1488087 -0.67339575 -0.43771586 77 2
12.866742 -4.0346589 1.1797401 38 10
2.6254954 -0.82378697 -0.43582645 4 3
12.846623 -4.0332761 1.6532797 30 11
3.2952824 -1.0352058 -0.42410538 9 4
12.838881 -4.035769 2.1315763 40 12
4.4951501 -1.4130038 -0.41224664 3 5
12.853031 -4.0426817 2.6190445 36 13
6.9499292 -2.1873043 -0.38184318 5 6
12.851404 -4.047101 3.1106234 42 14
12.612635 -3.9743283 -0.23082553 24 7
12.454892 -3.9270124 3.4992335 3 15
1.5930953 -0.50444162 -0.44775698 6 0
12.873258 -4.0786924 0.2357122 40 8
1.8669119 -0.59186065 -0.4521516 3 1
12.846631 -4.0751915 0.70632613 49 9
2.155802 -0.68386066 -0.43962395 80 2
12.843086 -4.0765338 1.1788685 40 10
2.6150734 -0.83055484 -0.43457499 4 3
12.840033 -4.0804992 1.6542546 31 11
3.2840815 -1.0442959 -0.42313039 10 4
12.820951 -4.0793624 2.1309505 40 12
4.4844952 -1.426874 -0.41172373 5 5
12.827617 -4.0839496 2.6167548 36 13
6.9498634 -2.2139754 -0.38226187 5 6
12.833486 -4.0907521 3.1097233 42 14
12.598684 -4.0183306 -0.23082553 27 7
12.433748 -3.9681149 3.4971633 3 15
1.5950041 -0.51117873 -0.44879225 7 0
12.849422 -4.1205502 0.23553768 40 8
1.859268 -0.59658772 -0.45080194 3 1
12.843739 -4.123673 0.70695418 49 9
2.1477938 -0.6895811 -0.4384791 78 2
12.821189 -4.1189022 1.1781713 37 10
2.5952327 -0.83423746 -0.43175918 4 3
12.825711 -4.1252942 1.6542546 33 11
3.291754 -1.0594022 -0.42459282 12 4
12.810393 -4.1253023 2.1315763 40 12
4.4813833 -1.4431299 -0.41189805 3 5
12.805809 -4.1262927 2.6152282 37 13
6.9553995 -2.2425115 -0.38299456 4 6
12.820982 -4.1361227 3.1101732 39 14
12.582678 -4.0616689 -0.23079063 24 7
12.414305 -4.0097113 3.4956102 4 15
1.6005604 -0.51912725 -0.4508628 7 0
12.819742 -4.16044 0.23525845 42 8
1.8553206 -0.60247225 -0.45035201 3 1
12.822395 -4.1637745 0.70653552 49 9
2.1509752 -0.6988942 -0.43962395 80 2
12.810524 -4.1648636 1.1785198 39 10
2.6054542 -0.84756905 -0.43394926 4 3
12.799908 -4.1663527 1.6527921 33 11
3.303324 -1.0752275 -0.42654276 15 4
12.807912 -4.1714306 2.1334534 39 12
4.4876847 -1.462468 -0.41294393 3 5
12.783862 -4.1685343 2.6137018 36 13
6.9323397 -2.261821 -0.38215721 4 6
12.810903 -4.1798253 3.111073 40 14
12.576743 -4.1058545 -0.23093024 22 7
12.395431 -4.049057 3.4940574 3 15
1.6080084 -0.52744251 -0.45345098 7 0
12.821075 -4.2079182 0.23553768 43 8
1.8403522 -0.60436523 -0.44720268 4 1
12.793335 -4.2012868 0.70569807 50 9
2.1505108 -0.70663613 -0.44000554 80 2
12.794749 -4.2066994 1.1783456 37 10
2.6063824 -0.85743898 -0.43457499 4 3
12.780364 -4.2069135 1.652061 31 11
3.2921977 -1.083693 -0.42556778 9 4
12.782751 -4.2101727 2.1315763 40 12
4.4790254 -1.4760944 -0.41259527 3 5
12.784883 -4.2158222 2.6167548 37 13
6.9380774 -2.2891774 -0.3828899 3 6
12.782166 -4.2174001 3.1074739 40 14
12.564958 -4.1481652 -0.23096514 26 7
12.407617 -4.0986228 3.5013041 2 15
1.608084 -0.53338015 -0.45396861 6 0
12.801358 -4.2485209 0.23543297 46 8
1.8568325 -0.61660624 -0.45170173 3 1
12.778592 -4.2459183 0.70569807 49 9
2.138716 -0.71104157 -0.43809745 78 2
12.782619 -4.2497339 1.1785198 37 10
2.60165 -0.86545378 -0.4342621 4 3
12.764461 -4.2486453 1.6518172 32 11
3.2996953 -1.098942 -0.42703021 3 4
12.752985 -4.2497711 2.1290734 40 12
4.4927468 -1.4980224 -0.41433838 3 5
12.770089 -4.2604237 2.6167548 36 13
6.9319391 -2.3140142 -0.38299456 4 6
12.765517 -4.2613745 3.107024 42 14
12.529537 -4.1850309 -0.23058119 25 7
12.389569 -4.1406837 3.5002687 2 15
1.59513 -0.53558111 -0.4508628 6 0
12.785701 -4.2954121 0.23543297 46 8
1.8619485 -0.62589145 -0.45350131 3 1
12.764838 -4.2933626 0.7058028 48 9
2.1453991 -0.72200662 -0.44000554 80 2
12.753738 -4.2921076 1.1772997 37 10
2.6003327 -0.87561387 -0.43457499 4 3
12.76009 -4.2992034 1.6532797 33 11
3.2975264 -1.1116625 -0.42727396 3 4
12.739195 -4.2971153 2.1293862 40 12
4.4758997 -1.5106561 -0.41329253 3 5
12.750669 -4.305944 2.6159916 37 13
6.9347644 -2.3432417 -0.38362259 4 6
12.755352 -4.3100057 3.1083736 40 14
12.510325 -4.2296453 -0.23051138 25 7
12.359671 -4.1811132 3.4961278 2 15
1.589498 -0.54018074 -0.44982749 6 0
12.758512 -4.3383827 0.23522353 48 8
1.848573 -0.62894553 -0.45080194 3 1
12.757337 -4.340467 0.70622146 48 9
2.1298563 -0.72506219 -0.43733424 77 2
12.730378 -4.3362536 1.1766025 36 10
2.589627 -0.88258976 -0.43332353 4 3
12.740488 -4.3446612 1.6527921 32 11
3.2936258 -1.1231664 -0.42727396 3 4
12.733465 -4.3447471 2.1309505 39 12
4.4555144 -1.5211209 -0.41189805 3 5
12.724414 -4.3466177 2.6137018 37 13
6.9378819 -2.37131 -0.38425064 4 6
12.74945 -4.357655 3.1106234 42 14
12.503055 -4.2758765 -0.23065101 24 7
12.341345 -4.22298 3.4950926 2 15
1.5950062 -0.54795939 -0.45189807 6 0
12.740273 -4.3793674 0.23515373 49 8
1.8391058 -0.63253689 -0.4490023 4 1
12.744761 -4.3833976 0.70632613 50 9
2.146004 -0.73850954 -0.4411504 82 2
12.723463 -4.3810396 1.1772997 36 10
2.5848181 -0.89052898 -0.43301064 4 3
12.716628 -4.3836522 1.6515735 34 11
3.2898831 -1.1340824 -0.42727396 2 4
12.718987 -4.3869486 2.1309505 40 12
4.4542122 -1.5371875 -0.41224664 3 5
12.70993 -4.3887897 2.6137018 37 13
6.918654 -2.3903906 -0.38362259 4 6
12.729403 -4.3980012 3.1092734 40 14
12.496366 -4.3199282 -0.23079063 21 7
12.327272 -4.2638822 3.4950926 2 15
1.6004801 -0.55578053 -0.45396861 6 0
12.733235 -4.4242167 0.23529334 48 8
1.8333168 -0.63735229 -0.4481025 4 1
12.716178 -4.4232655 0.70559341 52 9
2.1379805 -0.74368691 -0.44000554 100 2
12.716393 -4.4258275 1.177997 37 10
2.5837166 -0.89974523 -0.43332353 4 3
12.696397 -4.4238381 1.6508422 32 11
3.2746577 -1.1416382 -0.42581153 2 4
12.711058 -4.4339228 2.1322021 39 12
4.4603782 -1.5558871 -0.41329253 3 5
12.702721 -4.4335012 2.6152282 36 13
6.918231 -2.4159544 -0.38404128 4 6
12.697416 -4.4366231 3.1052244 37 14
12.47366 -4.3608828 -0.23065101 18 7
12.315961 -4.3081622 3.4961278 3 15
1.5967076 -0.56072384 -0.45345098 6 0
12.715828 -4.4679737 0.23525845 51 8
1.8365963 -0.64568686 -0.44945222 4 1
12.696893 -4.4663005 0.70538408 53 9
2.1279635 -0.74853939 -0.4384791 98 2
12.702745 -4.4708505 1.1781713 42 10
2.5954654 -0.91400766 -0.43582645 4 3
12.688367 -4.4707685 1.6518172 30 11
3.2781413 -1.1557021 -0.42678648 2 4
12.676873 -4.471694 2.1290734 40 12
4.4549198 -1.5714473 -0.41329253 3 5
12.694571 -4.4804282 2.6167548 37 13
6.9097557 -2.4400887 -0.38404128 4 6
12.685528 -4.4822168 3.1061242 42 14
12.445164 -4.3997312 -0.23040667 20 7
12.300848 -4.3511271 3.4961278 3 15
1.5819973 -0.56176871 -0.44982749 5 0
12.707692 -4.5150108 0.23539807 51 8
1.8435119 -0.6553576 -0.45170173 3 1
12.695185 -4.5130634 0.7061168 55 9
2.1253376 -0.75596285 -0.4384791 98 2
12.672046 -4.5098205 1.1767769 38 10
2.5866766 -0.92107415 -0.43488789 4 3
12.682034 -4.5183635 1.653036 34 11
3.2815666 -1.1698041 -0.42776144 2 4
12.658255 -4.5123806 2.1284475 40 12
4.4419007 -1.5843108 -0.41259527 3 5
12.675159 -4.5233941 2.6159916 37 13
6.916244 -2.4695668 -0.38487867 4 6
12.677145 -4.5290928 3.1079237 37 14
12.428622 -4.4403043 -0.23037177 24 7
12.286352 -4.3918943 3.4961278 3 15
1.583663 -0.56859314 -0.4508628 5 0
12.668182 -4.5483422 0.2349443 49 8
1.8394946 -0.66080844 -0.4512518 3 1
12.677475 -4.5566745 0.70601213 53 9
2.1189911 -0.76204824 -0.43771586 96 2
12.656226 -4.5540261 1.1767769 37 10
2.565021 -0.92295861 -0.43175918 4 3
12.665112 -4.5597205 1.6527921 32 11
3.2851398 -1.1833707 -0.42873639 2 4
12.651717 -4.5598879 2.1300118 39 12
4.4400926 -1.6011583 -0.41294393 3 5
12.645312 -4.5600734 2.6129384 34 13
6.9192882 -2.4965553 -0.38550669 4 6
12.663889 -4.5717683 3.1083736 39 14
12.424332 -4.4877372 -0.23058119 23 7
12.263679 -4.432128 3.4940574 3 15
1.583585 -0.57450038 -0.45138043 6 0
12.659747 -4.5952635 0.23508391 48 8
1.8243549 -0.66256881 -0.4481025 4 1
12.65586 -4.5988531 0.70569807 50 9
2.1219881 -0.77108246 -0.43886071 79 2
12.641055 -4.5959711 1.1767769 37 10
2.5692091 -0.9346078 -0.43301064 4 3
12.636062 -4.5991502 1.651086 31 11
3.2847195 -1.1961894 -0.42922387 2 4
12.643147 -4.6067276 2.1312635 37 12
4.4457068 -1.6207416 -0.41398975 5 5
12.627473 -4.6035132 2.6125569 36 13
6.9142847 -2.5220616 -0.38571605 4 6
12.651515 -4.6172819 3.1092734 36 14
12.41047 -4.5317645 -0.23061611 20 7
12.248133 -4.4749093 3.4940574 3 15
1.5778414 -0.57896972 -0.45034516 6 0
12.626735 -4.6332269 0.23476978 28 8
1.8256897 -0.67027628 -0.4490023 4 1
12.628482 -4.6388707 0.70507008 50 9
2.1209903 -0.77953202 -0.43924233 99 2
12.633475 -4.64571 1.1776484 36 10
2.5768895 -0.94811076 -0.43488789 4 3
12.614342 -4.6411743 1.6503549 30 11
3.2507184 -1.1966755 -0.42532405 3 4
12.626989 -4.6508322 2.1312635 39 12
4.4362841 -1.6348723 -0.41364115 3 5
12.617884 -4.6524816 2.6140833 36 13
6.8956251 -2.5439303 -0.38519266 5 6
12.618053 -4.657548 3.1052244 28 14
12.392698 -4.5743656 -0.23058119 27 7
12.239687 -4.5203133 3.4961278 3 15
1.5830559 -0.58716118 -0.4524157 7 0
12.500931 -4.6391225 0.23274529 24 8
1.8305284 -0.67967659 -0.45080194 3 1
12.618883 -4.6879072 0.70548874 49 9
2.1072145 -0.78282881 -0.43695265 95 2
12.620916 -4.6911693 1.177997 40 10
2.5717127 -0.95641148 -0.43457499 4 3
12.61213 -4.692915 1.6523046 27 11
3.257472 -1.2127374 -0.42678648 3 4
12.596901 -4.692255 2.1290734 39 12
4.4339957 -1.6525127 -0.41398975 3 5
12.608925 -4.6992397 2.6156096 38 13
6.8848319 -2.5672872 -0.385088 4 6
12.601719 -4.7015643 3.1052244 33 14
12.366483 -4.6162596 -0.23040667 18 7
12.226657 -4.5664959 3.4971633 2 15
1.5700403 -0.5888887 -0.44930989 7 0
12.428493 -4.6616631 0.23169816 51 8
1.8208467 -0.68332332 -0.4490023 7 1
12.596834 -4.7298207 0.70517474 48 9
2.1098442 -0.79261804 -0.43809745 58 2
12.584988 -4.7303858 1.1762538 33 10
2.5663412 -0.9651354 -0.4342621 3 3
12.604962 -4.7404046 1.6535234 28 11
3.2495034 -1.2227027 -0.42629901 2 4
12.576748 -4.7348056 2.1284475 40 12
4.4170136 -1.6637665 -0.41294393 3 5
12.589781 -4.74473 2.6152282 40 13
6.8791142 -2.5939138 -0.38529736 4 6
12.589871 -4.749784 3.1065741 25 14
12.344682 -4.6572809 -0.23030196 21 7
12.199798 -4.6050534 3.4940574 1 15
1.5645694 -0.59245002 -0.44827461 4 0
12.405484 -4.7000179 0.23155853 34 8
1.8185706 -0.68935776 -0.4490023 4 1
12.594152 -4.7765255 0.70590746 44 9
2.1165223 -0.80272353 -0.44000554 60 2
12.583103 -4.774847 1.177474 37 10
2.5651433 -0.97389424 -0.43457499 3 3
12.585462 -4.7807684 1.653036 32 11
3.2565644 -1.2377032 -0.42776144 1 4
12.562824 -4.7771878 2.1287606 41 12
4.4151959 -1.6798216 -0.41329253 3 5
12.561967 -4.7793717 2.6125569 39 13
6.8597312 -2.6112487 -0.3846693 5 6
12.583993 -4.7927814 3.1088235 24 14
12.331037 -4.6989036 -0.23033686 25 7
12.189875 -4.6475482 3.4956102 1 15
1.5659956 -0.59956193 -0.44930989 3 0
12.583223 -4.8176517 0.23518863 37 8
1.8161532 -0.69570154 -0.4490023 2 1
12.588593 -4.8247466 0.70653552 41 9
2.1098995 -0.80906969 -0.43924233 59 2
12.574821 -4.8245029 1.1783456 33 10
2.557868 -0.98187357 -0.43394926 3 3
12.555723 -4.8196907 1.6513296 32 11
3.2744617 -1.2576038 -0.4306863 1 4
12.562668 -4.8273888 2.1315763 39 12
4.4148846 -1.6973681 -0.41381544 2 5
12.544365 -4.8253813 2.6125569 39 13
6.8445225 -2.6342213 -0.38435531 5 6
12.559068 -4.8360696 3.107024 19 14
12.327622 -4.7469482 -0.23058119 24 7
12.168169 -4.6879873 3.4940574 2 15
1.5747035 -0.6092068 -0.4524157 3 0
12.571076 -4.8659048 0.23529334 40 8
1.8135911 -0.70235342 -0.4490023 2 1
12.555924 -4.8650804 0.70569807 41 9
2.110724 -0.81784832 -0.44000554 60 2
12.561619 -4.8698087 1.1786942 35 10
2.5544252 -0.99079615 -0.43394926 3 3
12.539825 -4.866396 1.6515735 32 11
3.2254183 -1.2523527 -0.42483655 1 4
12.541207 -4.8719697 2.1309505 40 12
4.4200759 -1.7170975 -0.41486132 2 5
12.529275 -4.8698516 2.6129384 37 13
6.8390083 -2.6595449 -0.38456467 6 6
12.536662 -4.8777609 3.1056743 21 14
12.321322 -4.796452 -0.23079063 12 7
12.158106 -4.7353587 3.4961278 3 15
1.5689689 -0.61329329 -0.45138043 3 0
12.563325 -4.9133983 0.23546787 39 8
1.8183876 -0.71152014 -0.45080194 1 1
12.542585 -4.9103355 0.70590746 38 9
2.0968871 -0.82091689 -0.43771586 58 2
12.527846 -4.9070868 1.1771255 24 10
2.5638251 -1.0047522 -0.43613935 3 3
12.530154 -4.9130368 1.6525484 32 11
3.2284191 -1.2665038 -0.42581153 2 4
12.509414 -4.9099431 2.1284475 40 12
4.4177642 -1.7339718 -0.41520998 2 5
12.51951 -4.9164276 2.614465 26 13
6.8408365 -2.6877832 -0.38519266 5 6
12.517746 -4.9207783 3.1052244 16 14
12.285894 -4.8321128 -0.23044157 7 7
12.155884 -4.7834287 3.5002687 1 15
1.5596312 -0.61592782 -0.44930989 3 0
12.547958 -4.9579573 0.23550276 43 8
1.8122681 -0.71643025 -0.44990209 2 1
12.529948 -4.9533696 0.7061168 39 9
2.0940089 -0.82823139 -0.43771586 58 2
12.527315 -4.9573855 1.1786942 26 10
2.5529559 -1.0107868 -0.43488789 3 3
12.52031 -4.9596691 1.6535234 31 11
3.2535055 -1.2894678 -0.42971134 1 4
12.498571 -4.9535818 2.1293862 41 12
4.4061284 -1.7471788 -0.41468704 3 5
12.505921 -4.9615469 2.6152282 26 13
6.8425508 -2.7160671 -0.38582069 5 6
12.507736 -4.9673209 3.107024 19 14
12.269803 -4.872828 -0.23044157 7 7
12.127387 -4.8187194 3.4966455 1 15
1.5538832 -0.61993653 -0.44827461 3 0
12.522161 -4.9958358 0.23532824 48 8
1.8135023 -0.72388101 -0.45080194 1 1
12.521855 -5.0007815 0.70664018 35 9
2.10569 -0.84136337 -0.44076881 61 2
12.496984 -4.9959064 1.177474 31 10
2.556927 -1.0221802 -0.43613935 2 3
12.505638 -5.0018983 1.6537671 24 11
3.2455256 -1.2987747 -0.42922387 1 4
12.499544 -5.0045223 2.132515 30 12
4.3796582 -1.7543989 -0.41276959 2 5
12.483932 -5.0008006 2.6140833 28 13
6.8316531 -2.7380002 -0.38571605 6 6
12.505666 -5.0145731 3.1106234 18 14
12.258287 -4.9178615 -0.2305463 6 7
12.099737 -4.8567052 3.4935398 1 15
1.5518188 -0.62508595 -0.44827461 3 0
12.495372 -5.0357785 0.23515373 54 8
1.803735 -0.72729176 -0.4490023 2 1
12.495062 -5.0407238 0.7061168 33 9
2.0883229 -0.84246558 -0.43771586 58 2
12.49513 -5.0432868 1.1788685 36 10
2.5460167 -1.0281405 -0.43488789 2 3
12.482581 -5.0432901 1.653036 22 11
3.2336106 -1.30712 -0.42824891 2 4
12.481998 -5.0481238 2.132515 27 12
4.3848987 -1.7733948 -0.41381544 2 5
12.462761 -5.0428743 2.6133201 30 13
6.8146486 -2.7588325 -0.38529736 4 6
12.488086 -5.0581951 3.1106234 18 14
12.248459 -4.9636254 -0.2306859 6 7
12.111355 -4.9105253 3.5018218 1 15
1.5567851 -0.63341129 -0.45034516 4 0
12.486979 -5.0831347 0.23532824 52 8
1.8011851 -0.73358363 -0.4490023 2 1
12.475541 -5.0835557 0.70601213 33 9
2.0980964 -0.85493606 -0.44038719 40 2
12.488518 -5.0913854 1.1799145 36 10
2.5424123 -1.0370215 -0.43488789 3 3
12.463061 -5.0860806 1.6527921 27 11
3.2253525 -1.3168987 -0.42776144 2 4
12.464301 -5.0916629 2.132515 28 12
4.3786817 -1.78869 -0.41381544 2 5
12.455986 -5.0908031 2.6156096 29 13
6.7938852 -2.7780674 -0.3846693 4 6
12.455923 -5.0958529 3.107024 19 14
12.23476 -5.0078654 -0.23075573 6 7
12.086988 -4.9498434 3.4997511 1 15
1.5509907 -0.63737297 -0.44930989 4 0
12.46731 -5.1259308 0.23529334 49 8
1.8058225 -0.74283183 -0.45080194 1 1
12.45772 -5.1270719 0.70601213 37 9
2.0842059 -0.85777122 -0.43809745 58 2
12.461458 -5.1311541 1.1790429 31 10
2.5424299 -1.0473949 -0.43551362 3 3
12.448903 -5.1310678 1.6532797 21 11
3.2244065 -1.3296628 -0.42824891 2 4
12.437322 -5.1313734 2.1309505 29 12
4.3613605 -1.7994043 -0.41276959 2 5
12.445398 -5.1372485 2.6171362 29 13
6.798914 -2.8078647 -0.38550669 4 6
12.43806 -5.1393008 3.107024 19 14
12.21166 -5.0482502 -0.23065101 6 7
12.074992 -4.9942198 3.5013041 2 15
1.5523251 -0.6442641 -0.45034516 4 0
12.469657 -5.1778541 0.2356773 45 8
1.8050181 -0.74987841 -0.4512518 2 1
12.445279 -5.1728258 0.70632613 39 9
2.0830121 -0.86579484 -0.4384791 58 2
12.436112 -5.1715612 1.1783456 33 10
2.5332868 -1.0539869 -0.43457499 5 3
12.443746 -5.179831 1.6549859 23 11
3.2160804 -1.3393836 -0.42776144 2 4
12.419333 -5.1747565 2.1309505 29 12
4.3660874 -1.8192151 -0.41381544 2 5
12.420141 -5.1776376 2.6156096 29 13
6.7964454 -2.8346555 -0.38592538 5 6
12.425441 -5.1849384 3.1083736 18 14
12.184737 -5.0869937 -0.23047648 6 7
12.041442 -5.0296373 3.4966455 1 15
1.5465033 -0.64818531 -0.44930989 4 0
12.434909 -5.2143898 0.23536316 54 8
1.8005927 -0.75542068 -0.45080194 1 1
12.440949 -5.2194762 0.70705879 27 9
2.0835977 -0.87458026 -0.43924233 59 2
12.412474 -5.2126255 1.1778227 31 10
2.5204864 -1.0589973 -0.43301064 4 3
12.427418 -5.2240052 1.6552296 24 11
3.2113853 -1.3506016 -0.42776144 2 4
12.407568 -5.2182093 2.1318891 28 12
4.3670564 -1.8375354 -0.41451269 7 5
12.396564 -5.2186756 2.614465 26 13
6.7920308 -2.8606882 -0.38623938 5 6
12.414449 -5.2313061 3.1101732 21 14
12.182545 -5.1335845 -0.23075573 6 7
12.037158 -5.0747938 3.5002687 2 15
1.5477895 -0.65508556 -0.45034516 3 0
12.400974 -5.2485814 0.23504901 16 8
1.7944885 -0.75986773 -0.44990209 2 1
12.415299 -5.2597551 0.70664018 20 9
2.0841475 -0.88338047 -0.44000554 60 2
12.39787 -5.2574768 1.1781713 24 10
2.5133235 -1.0658072 -0.43238491 4 3
12.399062 -5.2605357 1.6537671 20 11
3.232471 -1.3721025 -0.43117377 2 4
12.402004 -5.2668934 2.1340792 24 12
4.3569484 -1.8512099 -0.4141641 2 5
12.384611 -5.2620578 2.6156096 25 13
6.7678027 -2.8769445 -0.38540202 5 6
12.41138 -5.2785468 3.1137726 16 14
11.951105 -5.0852561 -0.22670676 7 7
12.01937 -5.1167808 3.5002687 2 15
1.5580446 -0.66552669 -0.45396861 3 0
1.795409 -0.76765937 -0.45080194 1 1
2.0830116 -0.8910591 -0.44038719 81 2
40.10294 -17.163292 3.8163755 100 10
2.5132196 -1.0761291 -0.43301064 4 3
27.580418 -11.815283 3.6841106 58 11
3.1984687 -1.3708655 -0.42727396 2 4
21.027153 -9.0165939 3.6236484 52 12
4.3507853 -1.8656479 -0.4141641 2 5
17.033701 -7.3076925 3.6028554 44 13
6.7595539 -2.9013388 -0.38550669 4 6
14.230054 -6.1107721 3.5753722 42 14
11.758737 -5.0519519 -0.2233908 15 7
11.99966 -5.1579423 3.4997511 4 15
1.5574859 -0.67172635 -0.45448625 4 0
27.649235 -11.930532 0.52563161 5 8
1.7927184 -0.77392185 -0.45080194 3 1
43.632919 -18.845495 2.4908776 12 9
2.0726793 -0.89521086 -0.43886071 39 2
40.051926 -17.307125 3.8172469 100 10
