# .PCD v0.7 - Point Cloud Data file format
VERSION 0.7
FIELDS x y z intensity
SIZE 4 4 4 4
TYPE F F F F
COUNT 1 1 1 1
WIDTH 1420
HEIGHT 1
VIEWPOINT 0 0 0 1 0 0 0
POINTS 1420
DATA ascii
2.0115459 0.85343724 -0.42474085 100
23.447548 9.9432344 2.2282238 24
2.4480345 1.0376165 -0.42112163 4
23.423615 9.9234533 3.1235116 25
3.0764623 1.3027135 -0.41021225 3
16.22683 6.8678346 2.790791 1
4.1778817 1.7682445 -0.39690727 5
13.978584 5.9134126 2.9502888 11
6.3262968 2.6749353 -0.35996673 4
13.672658 5.7783694 3.4269044 21
13.084367 5.5270534 -0.24792889 18
12.249845 5.1720185 3.5629032 21
1.5224483 0.64060402 -0.44258058 7
18.346466 7.7159152 0.34740758 18
1.7551528 0.73779863 -0.43955436 6
23.410727 9.8361597 1.3307989 28
2.0271826 0.85173315 -0.42741215 100
23.404959 9.8289309 2.2209024 28
2.4534628 1.0298301 -0.42143452 4
23.399538 9.8170481 3.1157119 25
3.0809906 1.2919673 -0.41021225 3
23.383158 9.8005791 4.0156732 14
4.1840286 1.7536511 -0.39690727 4
16.440069 6.8871508 3.46471 10
6.3319106 2.6512947 -0.35975742 4
15.952396 6.6763082 3.9924314 8
13.118339 5.4875236 -0.24820814 15
12.253565 5.1232681 3.5587621 21
1.5193257 0.63305628 -0.44102767 7
18.255142 7.6026287 0.34517372 21
1.7595168 0.73241597 -0.44000426 6
23.369316 9.7229195 1.3265072 28
2.0410194 0.84917623 -0.42970186 100
23.356339 9.7127523 2.2130587 28
2.4497466 1.0182263 -0.42018303 4
23.358503 9.7040768 3.1057186 25
3.0928144 1.2842505 -0.4111872 3
23.353371 9.6923876 4.0047226 10
4.1754031 1.7329245 -0.39551273 5
16.549244 6.8650746 3.482646 7
6.3632655 2.6383567 -0.36101347 4
15.9288 6.6011815 3.9807339 26
13.146651 5.4455209 -0.24838264 14
12.271373 5.0804667 3.5587621 21
1.532241 0.63217008 -0.44413349 7
18.181742 7.4976873 0.34328881 21
1.7566575 0.72404212 -0.43865454 6
23.334784 9.613142 1.3226345 27
2.03671 0.83905572 -0.42817542 81
23.32378 9.6038485 2.2067833 28
2.4569392 1.011173 -0.42080876 5
23.298605 9.5839729 3.0932879 24
3.0825913 1.2674071 -0.4092373 3
17.596935 7.2313876 3.0132411 6
4.1961689 1.7243984 -0.39690727 5
16.522257 6.7863822 3.4719608 11
6.3650465 2.6130929 -0.36059478 5
14.646469 6.0099444 3.6550047 1
13.171129 5.4018769 -0.24848737 11
12.292608 5.039063 3.5597973 21
1.5398037 0.62900901 -0.44568643 6
18.104126 7.3918495 0.34133416 18
1.7555654 0.71643358 -0.43775475 7
23.277584 9.4946623 1.3175055 27
2.0450802 0.83416498 -0.42932025 99
23.290747 9.4952908 2.2005081 28
2.456795 1.0011001 -0.42018303 5
23.265736 9.475625 3.0845134 24
3.0906742 1.2581351 -0.40972477 3
23.288721 9.4755239 3.9821963 10
4.1873984 1.7037343 -0.39551273 4
14.21437 5.7805271 2.9827263 6
6.3778305 2.5923615 -0.36080414 4
14.6818 5.9646525 3.6586037 1
13.163968 5.3453321 -0.2479987 11
12.317285 4.9990253 3.561868 24
1.5384077 0.62218267 -0.44465113 6
18.029707 7.2881365 0.33944932 21
1.756249 0.70957071 -0.43730485 6
23.23835 9.3842001 1.3134233 27
2.0406973 0.82408226 -0.4277938 96
23.246147 9.382618 2.193187 27
2.4676025 0.99547374 -0.42143452 4
23.230543 9.3669043 3.075495 21
3.0913644 1.2458556 -0.4092373 3
23.213552 9.3506212 3.963737 24
4.2081056 1.6950616 -0.39690727 4
18.421387 7.4165587 3.8600662 10
6.3905454 2.5715754 -0.36101347 4
15.74574 6.332942 3.9181976 20
13.156572 5.2889032 -0.24751003 9
12.350791 4.9624848 3.5665267 42
1.5280162 0.61178207 -0.44102767 6
17.951075 7.183547 0.33749464 21
1.7659525 0.70633107 -0.43910447 6
23.207916 9.277813 1.3098645 30
2.0417387 0.81622446 -0.42741215 96
23.201054 9.2703609 2.1858661 27
2.4710622 0.98685461 -0.42143452 4
23.200417 9.2607298 3.0672078 24
3.0993824 1.2365276 -0.40972477 3
16.422144 6.5484543 2.8001773 10
4.1991906 1.6744592 -0.39551273 4
18.359621 7.3173256 3.8417485 10
6.4050503 2.5514684 -0.36132747 5
15.883622 6.3240786 3.9469914 20
13.161944 5.2377791 -0.24726568 8
12.398556 4.9314766 3.5753264 50
1.5337344 0.60786772 -0.44206294 7
17.879358 7.0825582 0.33567959 23
1.7720312 0.70159674 -0.44000426 5
23.165876 9.1673422 1.3056777 27
2.0555286 0.81342638 -0.42970186 83
23.148039 9.1556244 2.1778476 23
2.468981 0.9760437 -0.4204959 4
23.153217 9.1483154 3.0567272 24
3.1073716 1.2271615 -0.41021225 3
23.134947 9.1317616 3.9393332 21
4.2216897 1.6663735 -0.39708155 2
16.441902 6.4865851 3.4357069 11
6.4009094 2.5239706 -0.36059478 4
16.444069 6.4808073 4.0806122 14
13.178288 5.1910667 -0.24723078 8
12.469618 4.9094071 3.5908556 49
1.5412421 0.60462719 -0.44361585 6
17.799721 6.9792213 0.33372495 20
1.7690264 0.69327325 -0.43865454 5
23.129206 9.064229 1.3019093 30
2.052871 0.80409861 -0.42855701 98
23.122345 9.0522442 2.1724439 23
2.4723732 0.96741873 -0.4204959 4
23.107363 9.0370779 3.0464902 20
3.1151216 1.2182955 -0.41069973 3
23.133823 9.0427723 3.9340143 10
4.2274814 1.6516259 -0.39708155 4
16.48456 6.4370117 3.4399049 7
6.3966579 2.4965274 -0.35986209 3
16.015253 6.2505326 3.9690363 28
13.186116 5.1437006 -0.24705628 8
12.536227 4.8876753 3.6053493 49
1.54684 0.60091227 -0.44465113 6
17.725836 6.8825154 0.33190987 22
1.7622315 0.6838792 -0.43640503 6
23.073481 8.954257 1.2970945 27
2.0573566 0.79799706 -0.42893866 82
23.083508 8.9488659 2.1659944 22
2.4829352 0.96207005 -0.42174736 4
23.066858 8.9331646 3.0372281 23
3.1080375 1.2036581 -0.4092373 3
16.253633 6.2913179 2.7604427 9
4.2440834 1.6419121 -0.39812744 2
17.150372 6.6315465 3.5742342 6
6.4086275 2.4767396 -0.36007139 3
16.043165 6.2001953 3.9708359 32
13.193773 5.0963454 -0.24688175 7
12.602828 4.865561 3.6198435 54
1.5470213 0.5950855 -0.44413349 5
17.653368 6.7871022 0.33012971 20
1.7772233 0.68292427 -0.43955436 5
23.041206 8.849308 1.2935356 26
2.0563266 0.7897619 -0.42817542 81
23.04237 8.8451405 2.1593707 22
2.4898002 0.95524663 -0.42237309 4
23.027779 8.8303185 3.0282097 20
3.1048057 1.189959 -0.40826234 3
23.015907 8.8165531 3.903666 23
4.246067 1.6256634 -0.39777881 2
17.207106 6.5879698 3.581485 8
6.4261322 2.4590445 -0.36059478 3
16.101116 6.1580749 3.9798341 34
13.209614 5.0495481 -0.24684684 8
12.670265 4.8408413 3.6343372 53
1.5455807 0.58803785 -0.44309825 5
17.585369 6.6905999 0.32841939 20
1.7868823 0.67948735 -0.44135398 5
23.006615 8.7439842 1.2898722 29
2.0555363 0.78082585 -0.42741215 80
23.102573 8.7712402 2.1619854 41
2.4988258 0.94821656 -0.42331171 4
23.117855 8.7724133 3.0360093 46
3.1200769 1.1833384 -0.40972477 3
22.989281 8.7144585 3.8939674 13
4.2293591 1.6023605 -0.39568707 2
17.220121 6.5206919 3.5791955 39
6.4388375 2.4368906 -0.36080414 3
17.547104 6.6374974 4.3312078 18
13.229032 5.0041113 -0.24688175 7
12.734068 4.8143492 3.6477959 50
1.5422001 0.58059675 -0.44154531 6
17.504965 6.5866599 0.32646471 20
1.7893609 0.6729331 -0.44135398 5
22.971203 8.6343098 1.286104 26
2.0619254 0.77502698 -0.42817542 81
23.110672 8.6821289 2.1598935 18
2.4873257 0.93393373 -0.42080876 4
3.1243937 1.171894 -0.40972477 3
22.963728 8.6086378 3.8842683 13
4.2461195 1.5917845 -0.39673293 2
17.047903 6.3875217 3.538744 5
6.4529161 2.4164994 -0.36111811 4
17.533661 6.5625472 4.3222094 13
13.247282 4.9555936 -0.24688175 7
12.791438 4.7825255 3.6591837 53
1.5387864 0.57318652 -0.4399924 5
17.43977 6.4927282 0.32482421 22
1.7807403 0.66260576 -0.43865454 5
22.943171 8.5324841 1.2828591 26
2.079339 0.77329886 -0.43122834 86
23.170715 8.6125164 2.1626825 3
2.4979773 0.92799789 -0.42206025 4
23.042326 8.5556288 3.0179727 11
3.1247427 1.1596 -0.4092373 3
16.226118 6.018332 2.741045 12
4.2441778 1.5741825 -0.39603567 2
17.892952 6.6330056 3.709327 17
6.4519472 2.3904915 -0.36059478 5
17.549154 6.4985924 4.3204103 13
13.264502 4.9093184 -0.24688175 6
12.866033 4.7592955 3.6757481 54
1.5534667 0.57248807 -0.44361585 6
17.374136 6.3993239 0.32318369 22
1.7866998 0.65773261 -0.43955436 5
22.888466 8.4213161 1.2781489 29
2.0801833 0.76535851 -0.43084675 68
23.084702 8.4889431 2.1518753 3
2.4974933 0.91790909 -0.42143452 4
22.98447 8.4429789 3.0065172 23
3.1324987 1.1500531 -0.40972477 3
22.87491 8.3936729 3.8592389 19
4.26087 1.5634749 -0.39708155 2
16.902229 6.1987228 3.4994371 12
6.4471269 2.3631425 -0.35986209 6
17.553432 6.4305954 4.3159108 13
13.266534 4.8574896 -0.24660251 6
12.944251 4.7369251 3.6933479 52
1.5627154 0.56970906 -0.44568643 6
17.311819 6.3078351 0.32161295 22
1.7926471 0.65282506 -0.44045416 5
22.844526 8.3147335 1.2740667 29
2.0662382 0.75204974 -0.42741215 80
23.073002 8.3933315 2.1480405 3
2.5081079 0.91188604 -0.42268598 4
22.957832 8.3423519 2.9992046 30
3.1252987 1.1350464 -0.40826234 3
22.82608 8.28547 3.8460982 26
4.2737923 1.5513122 -0.39777881 2
17.32056 6.2836323 3.581485 11
6.4797459 2.349472 -0.3612228 6
17.528135 6.3520236 4.3042135 12
13.28341 4.8111477 -0.24660251 8
13.01157 4.7101207 3.7078416 49
1.550156 0.55900824 -0.44154531 6
17.235907 6.2121048 0.3197979 21
1.7985821 0.64788395 -0.44135398 5
22.826427 8.2180309 1.2714498 29
2.0688505 0.74483305 -0.42741215 80
23.132156 8.3235273 2.1508293 3
2.5038407 0.90045094 -0.42143452 4
22.930765 8.2420359 2.9918926 46
3.1329784 1.1254715 -0.40874982 3
22.786076 8.1810379 3.834522 26
4.2829323 1.5377299 -0.39812744 2
17.290644 6.2045784 3.5707996 8
6.5029469 2.3322346 -0.36206019 7
17.592394 6.3059192 4.3145609 20
13.296353 4.7634101 -0.24653269 8
13.071582 4.680305 3.7202652 52
1.5557371 0.55489135 -0.44258058 6
17.167076 6.1196675 0.31812248 21
1.7934897 0.63898605 -0.43955436 5
22.791006 8.1155167 1.267891 28
2.0695887 0.73694777 -0.42703056 95
23.022167 8.1932907 2.1379304 3
2.5032461 0.89038187 -0.42080876 4
22.871489 8.1306849 2.980437 46
3.1350179 1.1138632 -0.4085061 3
22.749342 8.0783195 3.8235717 26
4.2619882 1.5134374 -0.39568707 2
17.240044 6.1185722 3.5559168 11
6.5148139 2.3108544 -0.36226952 7
17.550013 6.2216859 4.2988148 19
13.333636 4.7243114 -0.24691665 8
13.142472 4.6539907 3.7357943 50
1.5613085 0.55074233 -0.44361585 6
17.097803 6.0278034 0.31644702 21
1.7883575 0.63013077 -0.43775475 5
22.751863 8.0166578 1.2642275 25
2.0869632 0.73493546 -0.43008351 100
22.836372 8.037487 2.1180589 43
2.5082026 0.8822934 -0.42112163 5
22.839806 8.0297241 2.9726374 52
3.1424396 1.1047783 -0.40899354 3
22.725683 7.9851589 3.815124 26
4.274765 1.5011903 -0.39638433 2
17.189049 6.0329943 3.5410335 23
6.5153003 2.2854595 -0.36185086 6
15.720629 5.5145364 3.8462133 43
13.358665 4.6833735 -0.24709117 6
13.217997 4.6314669 3.7528763 48
1.5613018 0.54492629 -0.44309825 5
17.04784 5.9466982 0.31515557 21
1.7904371 0.62419719 -0.43775475 5
22.702885 7.9148698 1.2600405 31
2.0838263 0.72607434 -0.42893866 82
2.5111141 0.87397152 -0.42112163 5
22.789436 7.9271946 2.9626441 49
3.1404612 1.0923941 -0.40826234 3
22.683004 7.885747 3.8035481 25
4.2910113 1.4909309 -0.39743021 2
17.173725 5.9637189 3.5337827 8
6.5190706 2.2625301 -0.3616415 6
17.390219 6.0355067 4.2497749 23
13.374122 4.6390514 -0.24709117 7
13.262488 4.5977297 3.7611585 61
1.5667526 0.54100651 -0.44413349 6
16.976732 5.8588238 0.31348014 21
1.7998663 0.62079763 -0.43955436 5
22.656733 7.8101935 1.2559584 28
2.075211 0.71495843 -0.42664891 78
22.840202 7.8689799 2.1135268 3
2.5252056 0.86949766 -0.42299888 5
22.764914 7.8341527 2.956063 46
3.1329916 1.0775536 -0.40679988 3
22.631935 7.7795448 3.7904077 25
4.2943048 1.4752969 -0.39725587 4
21.457764 7.3675704 4.4099779 12
6.5325966 2.2417035 -0.36195552 6
17.330082 5.9469318 4.2299795 31
13.405368 4.5975251 -0.24737041 7
13.247387 4.5407672 3.7523587 52
1.5650684 0.53401232 -0.44309825 6
16.928061 5.7726841 0.31218866 21
1.8095077 0.61671168 -0.44135398 5
22.62471 7.7064877 1.2526089 37
2.0815344 0.70861346 -0.42741215 80
22.842482 7.7762294 2.1110864 3
2.5246348 0.85896438 -0.42237309 5
22.737095 7.7314854 2.948751 44
3.1500766 1.0705353 -0.4085061 3
22.600439 7.6762171 3.7803955 28
4.2921371 1.4569846 -0.39655861 4
21.456736 7.2794075 4.4042535 20
6.5445514 2.2190292 -0.36216486 6
17.270557 5.855844 4.2101841 25
13.429703 4.5509315 -0.24751003 6
13.216369 4.4760671 3.7389002 57
1.5560312 0.52456993 -0.4399924 6
16.841093 5.6741948 0.31019905 21
1.8117558 0.61007571 -0.44135398 5
22.596577 7.6089854 1.2495735 43
2.0839956 0.70134264 -0.42741215 80
22.848173 7.6848159 2.1089947 3
2.5165317 0.8459295 -0.4204959 5
22.693771 7.6240797 2.9394889 44
3.1556759 1.0601642 -0.40874982 3
22.572794 7.5790415 3.7713227 28
4.2971964 1.4419943 -0.39655861 4
21.476429 7.2025971 4.4031086 17
6.552258 2.1961694 -0.36216486 6
17.215137 5.7701263 4.1917381 23
13.483429 4.5167317 -0.24820814 6
13.195272 4.4176431 3.7285473 64
1.5687584 0.52307302 -0.44309825 6
16.77824 5.591136 0.30869818 21
1.7989775 0.59913862 -0.43775475 5
22.561045 7.5138197 1.2462239 40
2.0956237 0.69752753 -0.42932025 66
22.816814 7.5901437 2.1037652 7
2.5193233 0.83757907 -0.4204959 5
22.643578 7.5237389 2.9297392 47
3.1629424 1.0509449 -0.4092373 3
22.543434 7.4860959 3.7622492 25
4.3076282 1.429618 -0.39708155 5
21.507654 7.1338053 4.404635 17
6.5538163 2.1725452 -0.36185086 6
17.141687 5.6823516 4.1692429 23
13.513518 4.4770212 -0.24848737 6
13.17684 4.3629279 3.7192299 63
1.5796576 0.52089328 -0.44568643 6
16.71312 5.5079298 0.30716234 21
1.8065073 0.59499806 -0.43910447 6
22.511253 7.4100366 1.2420369 40
2.0941956 0.68934703 -0.42855701 65
22.853212 7.5181794 2.1048112 7
2.5258398 0.83045447 -0.42112163 5
22.606165 7.4281635 2.9216959 49
3.147732 1.0337033 -0.40679988 3
22.503736 7.3858037 3.7512989 25
4.3258433 1.4189205 -0.39830172 5
21.53492 7.0636721 4.4053984 17
6.5609856 2.1507981 -0.36185086 6
17.074379 5.5939693 4.1480975 27
13.544268 4.434804 -0.2487666 6
13.16445 4.3078899 3.7114654 60
1.5833931 0.51569784 -0.44620407 5
16.658092 5.4254007 0.30580106 20
1.8030143 0.5868786 -0.43775475 5
22.483801 7.3141179 1.2391062 42
2.0929744 0.68045229 -0.4277938 64
22.607756 7.3457036 2.0797102 49
2.5401394 0.82485247 -0.42299888 5
22.579092 7.332046 2.9148712 47
3.1702023 1.0288378 -0.4092373 3
22.457979 7.2840414 3.7394099 24
4.3118172 1.3976692 -0.39655861 4
21.564404 6.9858999 4.4061613 17
6.5726242 2.1279683 -0.36206019 6
17.007626 5.50315 4.1269522 24
13.574886 4.3924198 -0.24904583 6
13.137129 4.2482419 3.6995597 57
1.5704718 0.50543326 -0.44206294 5
16.599815 5.3392091 0.30436996 20
1.8162845 0.5838449 -0.44045416 6
22.440746 7.2135806 1.2353381 39
2.0934675 0.67254227 -0.42741215 64
22.544098 7.238122 2.0715177 59
2.5392413 0.81477284 -0.42237309 5
22.549109 7.23105 2.9075592 47
3.1720614 1.0166063 -0.40899354 3
22.415546 7.1839046 3.7281466 24
4.3090801 1.3801776 -0.39586139 4
21.592394 6.9117846 4.4069247 17
6.5933275 2.1092739 -0.36279288 6
16.95434 5.4206076 4.109406 26
13.597754 4.3474469 -0.24918546 6
13.102192 4.1864862 3.6855834 61
1.5722265 0.49994853 -0.44206294 5
16.52405 5.2544427 0.30265963 20
1.8256397 0.58017904 -0.44225377 5
22.4163 7.1194787 1.2326167 42
2.0995448 0.66641909 -0.42817542 65
2.5362809 0.80455542 -0.42143452 4
22.510519 7.1364317 2.8995156 55
3.1659529 1.0030847 -0.40777487 3
22.391525 7.090107 3.7200119 27
4.3176708 1.3663287 -0.39620999 4
21.603968 6.8365846 4.404635 17
6.6002855 2.0873995 -0.36279288 6
16.8979 5.3408589 4.0914102 26
13.635731 4.3071795 -0.24960433 6
13.083564 4.13026 3.6762657 61
1.5849335 0.49820751 -0.44516876 5
16.479336 5.1769495 0.30150777 20
1.8127795 0.56913334 -0.43865454 5
22.386425 7.028357 1.2296857 42
2.109236 0.66180336 -0.42970186 83
22.661285 7.1059623 2.0777929 10
2.5315337 0.79333484 -0.42018303 4
22.463306 7.0352712 2.8902535 50
3.1845911 0.99677014 -0.40972477 3
22.35647 6.9975271 3.7103131 24
4.3221779 1.3520042 -0.39620999 4
21.620203 6.7587919 4.4031086 17
6.5941877 2.0601764 -0.36206019 6
16.83087 5.2551284 4.0707145 26
13.669025 4.2679009 -0.24995336 6
13.063994 4.076489 3.6669483 60
1.5940429 0.49496308 -0.44723931 5
16.410475 5.0955839 0.29993707 22
1.8109344 0.56196409 -0.43775475 5
22.328794 6.9247375 1.2251849 42
2.1040328 0.65211141 -0.42817542 81
22.645983 7.0144415 2.0741322 7
2.5435851 0.78785849 -0.42174736 5
22.423933 6.9413748 2.8822103 45
3.1670187 0.9797498 -0.40704364 3
22.333582 6.9048533 3.7024913 24
4.330678 1.3380859 -0.39655861 4
21.653749 6.6905413 4.4053984 20
6.6048007 2.0394747 -0.36226952 6
16.768133 5.1745715 4.0513682 24
13.71059 4.2284141 -0.25044203 6
13.063376 4.0263066 3.6628072 38
1.5920666 0.48826405 -0.44620407 5
16.362123 5.0148964 0.29871538 22
1.8241619 0.55874681 -0.44045416 5
22.297451 6.8297839 1.2221494 39
2.1006639 0.64304042 -0.42703056 79
22.618889 6.9196062 2.0694258 10
2.5483451 0.77910739 -0.42206025 4
22.399862 6.8440638 2.8758731 57
3.1800807 0.97103477 -0.40826234 4
22.283865 6.8043585 3.6902897 23
4.3353224 1.3229597 -0.39655861 4
21.687515 6.6140003 4.4073067 20
6.6217833 2.0181661 -0.36279288 6
16.708691 5.0892348 4.0324726 22
13.698488 4.172369 -0.24995336 6
13.069961 3.9784291 3.6607368 23
1.5789702 0.4782235 -0.44206294 4
16.319332 4.9426446 0.29763335 27
1.8260049 0.55269414 -0.44045416 5
16.312643 4.9344025 0.89316547 31
2.1141713 0.63911182 -0.42932025 83
16.314642 4.9287839 1.4910605 13
2.550915 0.77065182 -0.42206025 5
16.293751 4.9193778 2.0898156 11
3.1813827 0.95991117 -0.40801859 3
16.276234 4.9078827 2.6925502 12
4.3284678 1.3043704 -0.39551273 5
16.271187 4.9032717 3.3032854 10
6.6360888 1.9985015 -0.36321157 6
14.803437 4.4553266 3.5690734 8
13.739777 4.1325932 -0.25044203 6
13.074515 3.9300106 3.6581485 18
1.584249 0.47409204 -0.44309825 5
16.256021 4.8615808 0.29616734 22
1.8223213 0.544644 -0.43910447 6
16.257048 4.8557057 0.88918805 31
2.1087549 0.62984943 -0.4277938 80
16.252621 4.851294 1.4839137 26
2.5441241 0.75892115 -0.4204959 4
16.24995 4.8443203 2.0820162 16
3.1904216 0.95049971 -0.40874982 3
16.251614 4.8386488 2.6856673 20
4.3289509 1.2888734 -0.39516413 5
16.229874 4.8290844 3.2914553 18
6.6449394 1.9758925 -0.36331624 6
14.839444 4.4097419 3.5740223 30
13.780957 4.0925736 -0.2509307 6
13.091858 3.8854434 3.6591837 18
1.5877467 0.46910757 -0.44361585 5
16.207684 4.7855568 0.29498056 20
1.8223423 0.53772759 -0.43865454 6
16.212597 4.7808466 0.88583845 33
2.1260054 0.62692648 -0.43084675 85
16.19492 4.7725711 1.4771154 27
2.5543375 0.75226736 -0.42174736 4
16.181067 4.7623425 2.0710478 16
3.1937196 0.93935794 -0.40874982 3
16.192598 4.759604 2.6731524 19
4.3468041 1.2776865 -0.39638433 5
16.156216 4.7458382 3.2731378 16
6.6498795 1.9521242 -0.36321157 6
14.880926 4.365592 3.5803208 53
13.787484 4.0421901 -0.25079107 6
13.109048 3.8408101 3.660219 18
1.5912291 0.46410292 -0.44413349 5
16.153259 4.7082438 0.2936891 20
1.8204662 0.53027356 -0.43775475 5
16.156311 4.7030244 0.88186091 31
2.1187553 0.61675942 -0.42893866 66
16.154089 4.6993108 1.4718862 26
2.5569477 0.74334705 -0.42174736 4
16.128962 4.685904 2.0622733 16
3.1874478 0.92543584 -0.40753111 3
16.137024 4.6821303 2.6612635 20
4.3438034 1.2595277 -0.39568707 4
16.112341 4.6719289 3.2609258 18
6.6681628 1.9322332 -0.3638396 6
14.897948 4.3141594 3.580771 27
13.789982 3.9907126 -0.25058165 6
13.126088 3.7960975 3.6612544 18
1.6040589 0.46147192 -0.44723931 5
1.8297977 0.52606905 -0.43955436 5
15.329926 4.4044757 0.83590996 26
2.1153407 0.6073637 -0.4277938 80
16.100346 4.6197433 1.4654367 24
2.5672507 0.73614776 -0.42299888 4
16.08416 4.6120615 2.0544736 15
3.1944749 0.91539812 -0.40801859 3
16.075405 4.6034794 2.6484358 16
4.3520045 1.2454524 -0.39603567 4
16.072731 4.5966439 3.2494774 16
6.6752 1.9077817 -0.3638396 6
14.909911 4.2584596 3.5798709 24
13.801908 3.9419994 -0.25054675 8
13.141118 3.7507823 3.661772 20
1.5870758 0.45059398 -0.44206294 6
15.278522 4.3349061 0.27721402 30
1.8429625 0.52254885 -0.44225377 5
15.274112 4.3307824 0.83203709 38
2.1098921 0.59783566 -0.42626733 78
15.280553 4.3268394 1.3894368 24
2.5660026 0.72610664 -0.42237309 4
15.266204 4.317029 1.9479598 21
3.1882577 0.90098375 -0.40679988 3
15.237862 4.3061342 2.5079577 22
4.344821 1.2270055 -0.39498982 5
15.238423 4.3005576 3.0777493 19
6.6856642 1.8855518 -0.36404896 6
14.920934 4.2053342 3.5789714 24
13.834828 3.8992248 -0.2508958 7
13.139254 3.7007012 3.6576309 18
1.5923595 0.44609314 -0.44309825 5
15.256227 4.2739706 0.27655083 36
1.8409321 0.5153833 -0.44135398 5
15.254515 4.2677493 0.83015299 36
2.1157479 0.59152377 -0.42703056 79
15.232239 4.255785 1.3836845 26
2.5569818 0.71440351 -0.4204959 4
15.242199 4.2557001 1.9430851 18
3.2046123 0.89414126 -0.4085061 3
15.218549 4.243371 2.502326 22
4.3644319 1.2161089 -0.39638433 4
15.212889 4.2389317 3.0697353 21
6.6918797 1.8633724 -0.36404896 6
14.938552 4.1568718 3.5798709 24
13.856064 3.8530478 -0.25103542 8
13.142784 3.6522307 3.6550426 19
1.59383 0.44081056 -0.44309825 5
15.222866 4.207376 0.27567822 30
1.8333278 0.50636041 -0.43910447 6
15.225039 4.2022491 0.82774556 33
2.1233757 0.58607095 -0.42817542 81
15.207853 4.1946573 1.3801982 24
2.5594599 0.70547414 -0.4204959 4
15.197633 4.1861224 1.9355291 16
3.2115414 0.884004 -0.40899354 3
15.210414 4.1839318 2.4985716 22
4.3609667 1.1987534 -0.39568707 4
15.185946 4.1743507 3.0613396 20
6.7021947 1.8410614 -0.36425829 7
14.945456 4.102634 3.5780716 26
13.907999 3.8152347 -0.25173351 8
13.166631 3.6093991 3.6581485 15
1.6028904 0.43699807 -0.44516876 5
15.202733 4.1447411 0.27504992 30
1.825683 0.49739695 -0.43685496 6
15.193363 4.1364889 0.82523346 31
2.1274033 0.5788002 -0.42855701 81
15.192364 4.1305299 1.3774093 23
2.5677474 0.69764161 -0.42143452 4
15.168092 4.1210799 1.9299231 16
3.205029 0.87018663 -0.40777487 3
15.182981 4.1194353 2.4916885 21
4.3843536 1.1887381 -0.39743021 4
15.170824 4.1104522 3.055234 20
6.697331 1.8133507 -0.36363026 7
14.947224 4.0442691 3.5749223 26
13.952115 3.7750227 -0.25229198 8
14.878061 4.0227695 4.1297169 20
1.6118683 0.4334071 -0.44723931 5
15.188853 4.0812116 0.27452636 32
1.8425508 0.49474365 -0.44045416 5
15.174919 4.0746202 0.82345402 38
2.1218262 0.56933606 -0.42703056 63
15.1759 4.0692129 1.3746203 24
2.5797076 0.69122994 -0.42299888 4
15.160083 4.0593004 1.9269981 17
3.206279 0.85792142 -0.40753111 3
15.147655 4.0531397 2.4835539 20
4.3788524 1.1708521 -0.39655861 5
15.150937 4.0483513 3.0483646 20
6.7151976 1.7930546 -0.36425829 6
14.963134 3.9925675 3.5753722 39
13.998054 3.7350578 -0.25288537 8
14.953614 3.9872317 4.1467991 32
1.5946982 0.42282644 -0.44206294 5
15.169446 4.0221047 0.27393299 34
1.851716 0.49062765 -0.44225377 6
15.150433 4.0114117 0.82136059 33
2.114311 0.55941463 -0.42512247 61
15.138005 4.0024595 1.3699139 26
2.5743463 0.6806522 -0.42174736 4
15.142753 4.000895 1.9230984 18
3.2206228 0.85032392 -0.40899354 3
15.119691 3.9891491 2.4766707 20
4.3674998 1.1514995 -0.39516413 5
15.122514 3.9870789 3.0399692 18
6.7365575 1.7748451 -0.36509567 7
15.057324 3.9642632 3.5947177 61
14.049683 3.6963584 -0.25358346 8
14.952492 3.9310827 4.1426578 21
1.5979605 0.41802514 -0.44258058 6
15.125354 3.9539521 0.27288583 34
1.8458754 0.48219118 -0.44045416 6
15.146952 3.953958 0.82041854 36
2.1313512 0.55636764 -0.42817542 65
15.114566 3.9426789 1.3666019 26
2.5805292 0.67265898 -0.42237309 4
15.120129 3.9385014 1.9184674 18
3.2178082 0.83757561 -0.40826234 3
15.106758 3.9293885 2.4722905 21
4.3674378 1.1360055 -0.3948155 5
15.090738 3.9224102 3.0308104 18
6.7465787 1.7523217 -0.36530501 6
15.097478 3.9185369 3.6010165 36
14.089598 3.6543179 -0.25407213 7
14.973604 3.8807995 4.1447282 20
1.6031511 0.4134098 -0.44361585 6
15.129378 3.8986461 0.27271131 18
1.8399987 0.47380063 -0.43865454 6
15.127779 3.892596 0.81863916 22
2.1351814 0.54941303 -0.42855701 81
15.116657 3.886929 1.3655562 16
2.5752089 0.66168016 -0.42112163 4
15.103022 3.8777957 1.9145676 13
3.2284031 0.82831389 -0.4092373 3
15.120383 3.8766282 2.4722905 17
4.3887472 1.1252056 -0.39638433 4
15.089124 3.8658075 3.0277574 13
6.7352395 1.7243075 -0.36436296 6
15.111066 3.865809 3.6010165 17
14.106145 3.6061008 -0.25414193 6
14.983314 3.8275623 4.143693 18
1.6139461 0.41019011 -0.44620407 6
15.230113 3.8679574 0.27428201 18
1.8454188 0.46833497 -0.43955436 5
15.221909 3.863054 0.82303536 24
2.1523101 0.54581773 -0.43160996 86
15.209319 3.8542006 1.372703 16
2.5851622 0.65462834 -0.42237309 4
15.191518 3.8440473 1.9240733 14
3.2351239 0.818012 -0.40972477 2
15.202098 3.8439016 2.4835539 13
4.3926482 1.1098781 -0.39638433 4
15.182473 3.8333015 3.0437853 13
6.7431545 1.7012734 -0.36446762 6
15.196275 3.8311367 3.618113 21
14.1316 3.5627213 -0.25438628 6
15.007165 3.7806826 4.1467991 18
1.6134943 0.40408415 -0.44568643 6
15.320449 3.8368592 0.27567822 22
1.8507428 0.46315843 -0.44045416 6
15.299242 3.8258815 0.82648951 24
2.1313465 0.5325895 -0.42703056 79
15.298067 3.8199143 1.3795011 17
2.5834858 0.64509428 -0.42174736 4
15.287001 3.8143167 1.9345541 13
3.2262623 0.80439705 -0.40826234 3
15.27676 3.806098 2.4935656 12
4.4042282 1.0964664 -0.39708155 4
15.284641 3.8052285 3.0617213 20
6.7584505 1.6813121 -0.36499101 6
15.225913 3.7849643 3.6221619 19
14.12454 3.5085602 -0.25403723 6
15.018396 3.7278051 4.1462812 19
1.6016966 0.39548996 -0.44206294 6
15.256087 3.7642069 0.27428201 52
1.8485641 0.45576182 -0.43955436 6
15.242692 3.7552502 0.82272136 61
2.1369133 0.5264585 -0.4277938 80
15.22746 3.7486866 1.3720057 41
2.5972311 0.63890278 -0.4236246 4
15.230826 3.7438695 1.9257796 37
3.2329056 0.79407811 -0.40874982 3
15.209378 3.7329688 2.4804251 37
4.4001007 1.0799546 -0.39638433 4
15.200587 3.7279985 3.042259 35
6.7603974 1.6567609 -0.36478165 5
15.09518 3.6965613 3.5879693 63
14.161953 3.4654098 -0.254491 5
15.018181 3.6721497 4.1426578 21
1.6030674 0.38989696 -0.44206294 6
15.265249 3.7099817 0.27421221 66
1.8558249 0.4506855 -0.44090405 6
15.257648 3.7024946 0.82282603 73
2.1425536 0.51992238 -0.42855701 81
15.230772 3.6931584 1.371134 57
2.5879269 0.62704116 -0.42174736 4
15.238011 3.6892829 1.9250482 37
3.2395167 0.78372258 -0.4092373 3
15.212718 3.6775303 2.4788609 37
4.401907 1.0641193 -0.39620999 5
15.200148 3.6716919 3.0395873 34
6.7719641 1.63456 -0.36509567 5
15.111779 3.6447566 3.5888691 58
14.197292 3.4215796 -0.25490984 5
15.025272 3.6183503 4.1411047 19
1.6062974 0.38474837 -0.44258058 6
15.682616 3.7534928 0.28147241 27
1.84791 0.44193965 -0.43865454 6
15.686189 3.7485514 0.84522581 30
2.1405368 0.51152718 -0.4277938 80
15.664098 3.7403827 1.4089596 21
2.5862567 0.61708742 -0.42112163 4
15.662094 3.7341263 1.9769646 16
3.2383707 0.77148879 -0.40874982 3
15.655917 3.7268789 2.5489435 19
4.4017181 1.0478256 -0.39586139 4
15.650254 3.7226448 3.1269779 19
6.7543111 1.6053675 -0.3638396 5
14.220824 3.3747678 -0.25511929 5
15.050969 3.5689964 4.1447282 17
1.6189122 0.38179997 -0.44568643 6
15.734552 3.7078967 0.2821705 34
1.8456479 0.43459275 -0.43775475 6
15.722506 3.6992657 0.84648186 43
2.1556864 0.50720012 -0.4304651 68
15.737183 3.6998208 1.4143634 31
2.5980101 0.6103152 -0.42268598 4
15.702089 3.685787 1.980377 23
3.2333133 0.7583676 -0.40777487 3
15.705371 3.6807737 2.554888 27
4.4131079 1.0342737 -0.39655861 5
15.688007 3.6738083 3.1319392 28
6.7676525 1.5836025 -0.36425829 5
15.218451 3.5582528 3.6082149 5
14.214992 3.3210089 -0.25480512 6
15.067099 3.5173187 4.1457639 18
1.6239988 0.37701991 -0.44672167 6
15.716234 3.6457164 0.28161204 38
1.8623409 0.43166822 -0.44135398 5
15.7003 3.6362455 0.84459776 46
2.1383176 0.495242 -0.42664891 63
15.701476 3.633631 1.4100057 30
2.6001246 0.60124332 -0.42268598 4
15.693583 3.6260338 1.9776958 22
3.2398093 0.74796885 -0.40826234 3
15.671927 3.6152761 2.547379 27
4.408926 1.0170723 -0.39586139 4
15.66821 3.611531 3.1254516 22
6.7789788 1.5613123 -0.36457232 4
15.209888 3.5003047 3.6032662 5
14.218702 3.2695796 -0.25466552 6
15.083052 3.4655647 4.1467991 18
1.6045884 0.36661583 -0.44102767 6
15.703519 3.5850515 0.28115827 40
1.8676363 0.42603111 -0.44225377 5
15.685634 3.5752084 0.84313232 46
2.1476901 0.48952055 -0.42817542 65
15.671325 3.5690703 1.4061707 33
2.6099122 0.59391606 -0.42393744 4
15.673238 3.5637519 1.9735522 24
3.2578866 0.74017429 -0.41021225 3
15.642074 3.5509243 2.5404961 27
4.4163351 1.002557 -0.39620999 4
15.648172 3.5494373 3.118964 23
6.7921786 1.5394071 -0.36499101 4
15.237218 3.4506297 3.6068652 5
14.241731 3.222578 -0.25487494 6
15.095056 3.4128969 4.1467991 21
1.6209366 0.36440265 -0.44516876 6
15.674965 3.5210063 0.28042528 40
1.8653094 0.41865525 -0.44135398 5
15.670734 3.5143187 0.84166694 50
2.157048 0.48373955 -0.42970186 67
15.658416 3.508678 1.4039048 34
2.6004038 0.58221197 -0.42206025 4
15.6449 3.4999228 1.9684337 23
3.2527015 0.72706467 -0.4092373 3
15.627382 3.4902689 2.5361156 27
4.4198079 0.98713386 -0.39620999 4
15.614478 3.4845338 3.1098051 21
6.793612 1.5148174 -0.36478165 5
15.245369 3.3965695 3.6059654 5
14.268506 3.1763246 -0.25515419 6
15.093678 3.3572445 4.1431756 33
1.6127675 0.35665619 -0.44258058 6
15.632486 3.4541996 0.27944794 38
1.8553417 0.40962118 -0.43865454 5
15.643897 3.4509866 0.83957344 45
2.1663923 0.47789821 -0.43122834 69
15.629704 3.4449952 1.4002441 33
2.5966325 0.57185727 -0.42112163 4
15.606616 3.4341948 1.9620966 20
3.2552195 0.71570683 -0.4092373 3
15.612459 3.4297676 2.5317357 26
4.4232268 0.97170079 -0.39620999 4
15.580525 3.4199021 3.1006463 23
6.7754478 1.4859577 -0.36352557 5
15.276166 3.347507 3.6104646 7
14.291228 3.1290612 -0.25536361 6
15.076997 3.2983401 4.1354108 34
1.6347675 0.35554087 -0.44827461 7
15.622953 3.3949356 0.27906397 40
1.8605691 0.40396878 -0.43955436 5
15.607052 3.3857758 0.83695668 43
2.1622913 0.46908501 -0.43008351 84
15.618268 3.385355 1.3981524 33
2.6024745 0.5636254 -0.42174736 4
15.585525 3.3725624 1.957953 20
3.2499366 0.70266229 -0.40826234 3
15.585722 3.3669028 2.5254784 26
4.4265919 0.95625371 -0.39620999 4
15.565502 3.3596916 3.0953035 23
6.7844973 1.4631449 -0.36373493 4
15.262994 3.2888224 3.6046154 17
14.274697 3.0732605 -0.25487494 6
15.06953 3.2416391 4.1302347 15
1.6322204 0.34902391 -0.44723931 6
15.599509 3.3328557 0.27843568 34
1.8619677 0.39747301 -0.43955436 5
15.583616 3.3237731 0.83507258 42
2.1485553 0.45825756 -0.42703056 79
15.59102 3.3225074 1.3946662 31
2.6082895 0.55536216 -0.42237309 4
15.575846 3.3135908 1.9552718 22
3.2446032 0.68966192 -0.40728739 3
15.554866 3.3034604 2.5185952 26
4.4338002 0.94162709 -0.39655861 4
15.552169 3.3000433 3.0903428 22
6.797379 1.4411088 -0.36415362 4
15.253408 3.2310932 3.5996668 29
14.300987 3.0267289 -0.25515419 6
15.035393 3.1794207 4.1178112 11
1.616414 0.33974755 -0.44258058 6
15.581692 3.2722218 0.27791211 38
1.8805088 0.39457217 -0.44360349 5
15.571097 3.2671592 0.83381653 42
2.1482203 0.45035148 -0.42664891 94
15.56352 3.2598987 1.3911799 30
2.6140795 0.54706275 -0.42299888 4
15.560116 3.2535086 1.9518596 22
3.2741945 0.68401581 -0.41069973 3
15.527064 3.243777 2.5123379 26
4.4097552 0.92044395 -0.39411828 4
15.530921 3.2389181 3.0838552 23
6.8043232 1.4177816 -0.36425829 5
15.237885 3.1722646 3.5933683 12
14.326607 2.9825521 -0.25543341 6
15.000462 3.1200981 4.1053877 10
1.6175898 0.33410427 -0.44258058 6
15.55329 3.2124465 0.27721402 40
1.8741728 0.38675812 -0.44180387 5
15.553065 3.2067323 0.83224642 47
2.1555476 0.44403988 -0.4277938 80
15.537727 3.1979163 1.387868 33
2.6120095 0.5375939 -0.42237309 4
15.520264 3.1914988 1.9455223 21
3.2725556 0.67235607 -0.41021225 3
15.511204 3.1839931 2.5079577 28
4.4266043 0.90784633 -0.39533845 5
15.501188 3.1791179 3.0758412 27
6.8129001 1.396013 -0.36446762 5
15.254049 3.1228848 3.5947177 5
14.366319 2.9385316 -0.25595698 6
14.975296 3.0603788 4.0955524 11
1.6300483 0.33104479 -0.44568643 6
15.531094 3.1513712 0.27662063 42
1.8564125 0.37634224 -0.43730485 5
15.532845 3.1460822 0.83057171 45
2.164705 0.43844768 -0.42932025 83
15.501379 3.1368928 1.3836845 33
2.6138704 0.52847236 -0.42237309 4
15.490448 3.1290529 1.9404038 22
3.2787745 0.66171318 -0.41069973 3
15.498987 3.12514 2.5042033 33
4.4354496 0.89434236 -0.39586139 4
15.477549 3.1180139 3.0689721 27
6.8020682 1.3690686 -0.36363026 5
15.362293 3.0892081 3.6176629 5
14.407856 2.8946712 -0.25651547 6
14.957478 3.0023799 4.0877881 11
1.631194 0.32535243 -0.44568643 6
15.508659 3.090498 0.27602726 38
1.8615372 0.37062126 -0.43820465 5
15.498677 3.0828772 0.82816422 42
2.1623712 0.4301222 -0.42855701 81
15.512233 3.082767 1.3836845 31
2.6156988 0.51934683 -0.42237309 4
15.470121 3.0687778 1.936504 22
3.2576976 0.64563382 -0.40777487 3
15.469105 3.0629723 2.497633 27
4.4385438 0.87885737 -0.39586139 5
15.457521 3.0578678 3.062866 22
6.8107243 1.3460891 -0.3638396 6
15.372981 3.0355756 3.6176629 7
14.410026 2.8428087 -0.25637585 5
14.948915 2.9464104 4.082612 12
1.6304238 0.31928557 -0.44516876 6
15.501691 3.0328841 0.27571312 40
1.8666449 0.36486822 -0.43910447 5
15.468178 3.0207219 0.82596612 38
2.1561522 0.42106679 -0.42703056 79
15.462279 3.0167687 1.3782809 30
2.6174958 0.51021248 -0.42237309 4
15.451511 3.0090697 1.932848 21
3.2677257 0.63577396 -0.40874982 3
15.438983 3.0010369 2.4910626 26
4.4415851 0.86335742 -0.39586139 5
15.443048 2.9990304 3.0579052 23
6.8271461 1.3245912 -0.36446762 6
15.383484 2.9818914 3.6176629 8
14.412007 2.7909734 -0.25623626 6
14.923072 2.8872421 4.0727768 12
1.6277341 0.31286344 -0.44413349 6
15.467017 2.9700773 0.2749103 36
1.890873 0.36275655 -0.44450328 5
15.464897 2.964081 0.82523346 40
2.1576087 0.41353834 -0.42703056 79
15.447278 2.9579017 1.3760148 28
2.6270218 0.50255781 -0.4236246 4
15.442424 2.9513924 1.9304106 21
3.2777247 0.62585199 -0.40972477 2
15.420258 2.9415774 2.4863696 27
4.4387002 0.84672904 -0.39533845 5
15.41678 2.9381182 3.0506544 22
6.8435001 1.3029914 -0.36509567 6
15.389971 2.9274499 3.6167631 12
14.423627 2.7410185 -0.25627115 7
14.887508 2.8264811 4.0603533 12
1.6250194 0.30646324 -0.44309825 6
15.437987 2.9086673 0.27421221 40
1.876807 0.35326961 -0.44090405 5
15.453052 2.9087133 0.82408202 43
2.1686864 0.4078179 -0.42893866 99
15.42422 2.897712 1.3730515 28
2.6093452 0.48974016 -0.4204959 4
15.417512 2.8908811 1.9260232 24
3.2719774 0.61351645 -0.40874982 3
15.402746 2.88533 2.4819896 27
4.4416289 0.83122879 -0.39533845 5
15.384487 2.8763514 3.042259 24
6.8381906 1.2772632 -0.36457232 6
15.395763 2.875679 3.6158633 17
14.422809 2.6913419 -0.2560966 6
14.868312 2.7717891 4.0525889 13
1.633625 0.30247998 -0.44516876 6
15.416084 2.8516405 0.27365372 40
1.870303 0.34562781 -0.43910447 5
15.415476 2.8487456 0.82156992 47
2.1796801 0.40240663 -0.43084675 85
15.408272 2.8418527 1.3707855 28
2.6226108 0.48323274 -0.42237309 4
15.384065 2.8318286 1.9206611 25
3.277899 0.60338074 -0.4092373 2
15.390859 2.8303099 2.478548 23
4.4424019 0.81613404 -0.39516413 4
15.366905 2.8203528 3.036916 25
6.8463163 1.2553015 -0.36478165 6
15.376461 2.81934 3.6091146 31
14.445424 2.6460176 -0.25634095 7
14.856519 2.7186394 4.0468946 14
1.6422219 0.29844302 -0.44723931 6
15.405782 2.796927 0.2733047 40
1.871439 0.33942324 -0.43910447 5
15.389951 2.7885118 0.81968582 47
2.1772077 0.39409569 -0.43008351 84
15.396046 2.7868335 1.368868 30
2.6319745 0.4759385 -0.4236246 4
15.36602 2.7758675 1.9172486 24
3.2760777 0.59123057 -0.40874982 2
15.361764 2.7695544 2.4722905 25
4.4530663 0.80203789 -0.39586139 5
15.345742 2.7611356 3.0308104 26
6.8467259 1.2306873 -0.36457232 6
15.345931 2.758405 3.5996668 49
14.458508 2.5962873 -0.25641075 7
14.837395 2.6616504 4.0391302 16
1.6433048 0.29242155 -0.44723931 6
15.394273 2.7365968 0.27292073 40
1.8841826 0.33460665 -0.44180387 4
15.360738 2.7250972 0.81759238 42
2.1709046 0.38474321 -0.42855701 81
15.36692 2.7234352 1.3653818 28
2.6337011 0.46628925 -0.4236246 4
15.348725 2.714678 1.9138362 21
3.2704036 0.57783836 -0.40777487 2
15.340686 2.7077415 2.4672847 30
4.4559765 0.78570789 -0.39586139 4
15.32869 2.7001073 3.0254676 25
6.8728275 1.2093935 -0.3657237 6
15.327149 2.6970785 3.5929184 50
14.446262 2.5394647 -0.2560268 7
14.816607 2.601908 4.030848 13
1.6310433 0.28407586 -0.44361585 5
15.352977 2.6712394 0.27201322 40
1.8834763 0.32736525 -0.44135398 4
15.350945 2.6653657 0.81654567 42
2.1683662 0.37649074 -0.4277938 80
15.335574 2.65994 1.3617213 28
2.6392851 0.4573082 -0.42425033 4
15.327276 2.6529903 1.9099365 20
3.2920604 0.56922925 -0.41021225 2
15.309629 2.6444399 2.4607143 28
4.4429841 0.76743883 -0.39446688 4
15.314806 2.6425741 3.0208881 25
6.8848805 1.1867507 -0.36614239 6
15.308125 2.6359265 3.5861697 34
14.441678 2.4841299 -0.25578249 9
14.784158 2.5403836 4.0194597 14
1.6339294 0.27870509 -0.44413349 6
15.330667 2.6122603 0.27145472 38
1.8846077 0.3207882 -0.44135398 4
15.334558 2.607408 0.81518495 42
2.1696672 0.36891887 -0.4277938 80
15.307445 2.6000566 1.3584094 28
2.6291802 0.44610918 -0.42237309 4
15.307087 2.5944917 1.9062805 22
3.2901125 0.55707228 -0.40972477 2
15.2915 2.5863669 2.4563344 28
4.4692106 0.75591135 -0.39655861 4
15.275541 2.5809181 3.0113478 21
6.8948889 1.1637093 -0.36645639 6
15.29033 2.5779352 3.5798709 34
14.454205 2.4343641 -0.25585228 13
14.758642 2.4829957 4.0101423 13
1.6367974 0.27331921 -0.44465113 6
15.310107 2.553791 0.27093115 40
1.8799492 0.31324723 -0.44000426 4
15.314013 2.5489562 0.81361485 43
2.1825614 0.36327863 -0.43008351 84
15.30267 2.5443163 1.3571892 31
2.6307213 0.43692818 -0.42237309 4
15.280798 2.5352066 1.9018931 22
3.295954 0.54623246 -0.41021225 3
15.280947 2.5297434 2.4532056 27
4.4521651 0.73705095 -0.3948155 4
15.26315 2.5240681 3.0071499 20
6.8811746 1.1367031 -0.36551434 6
15.272318 2.5201004 3.5735724 39
14.470505 2.3852055 -0.25599191 7
14.750065 2.4286346 4.0054836 15
1.645368 0.26884973 -0.44672167 7
15.303137 2.4977667 0.27065191 40
1.8771845 0.30605543 -0.43910447 5
15.285362 2.4893811 0.81162608 49
2.1838162 0.35565728 -0.43008351 84
15.268192 2.4838569 1.3533543 35
2.6361303 0.42837688 -0.42299888 4
15.260164 2.4770761 1.8982371 24
3.2978401 0.53472638 -0.41021225 3
15.254584 2.470706 2.4475739 27
4.4586453 0.72214365 -0.39516413 4
15.238922 2.46544 3.0006623 23
6.894959 1.1142677 -0.36603773 6
15.231001 2.4587035 3.5618749 39
14.500459 2.3381772 -0.25637585 13
14.731752 2.372828 3.9982369 14
1.6443887 0.26280019 -0.44620407 7
15.278193 2.4389706 0.27005854 42
1.8782415 0.29950047 -0.43910447 4
15.256061 2.4326994 0.80963731 47
2.1656561 0.34494451 -0.42626733 78
15.245287 2.4255328 1.3505653 34
2.6415114 0.41979182 -0.4236246 4
15.241269 2.4194391 1.8948246 25
3.3036079 0.52383238 -0.41069973 3
15.225624 2.4142315 2.4416294 31
4.4493313 0.70470434 -0.39411828 4
15.229981 2.4094734 2.9972279 24
6.8948603 1.0895743 -0.36582837 6
15.212543 2.4012644 3.5555763 35
14.486406 2.2866454 -0.25599191 7
14.707097 2.3188577 3.9894369 15
1.6376613 0.25586531 -0.44413349 7
15.250635 2.3827322 0.26943025 40
1.8907769 0.29507363 -0.44180387 4
15.240777 2.3757501 0.80838126 45
2.1746066 0.33859044 -0.4277938 80
15.233975 2.3692362 1.3488222 37
2.6428888 0.41103044 -0.4236246 3
15.223708 2.3649182 1.891656 26
3.289634 0.51043838 -0.40874982 3
15.206631 2.3568299 2.4372492 30
4.4635782 0.69099879 -0.39516413 4
15.206846 2.3541458 2.991122 27
6.9023833 1.0673127 -0.36603773 6
15.201163 2.3478332 3.5510774 34
14.516039 2.2394214 -0.25637585 9
14.675006 2.2613237 3.9785664 15
1.6365912 0.25014168 -0.44361585 7
15.215371 2.32284 0.26866236 37
1.8956481 0.28905967 -0.44270366 5
15.227258 2.3192234 0.80722988 50
2.1834805 0.33256015 -0.42932025 83
15.196445 2.3118093 1.344813 31
2.6443074 0.40180311 -0.4236246 4
15.196544 2.3064048 1.8872689 26
3.3129854 0.50222427 -0.41143093 3
15.191327 2.300189 2.4334948 30
4.4619045 0.67559755 -0.3948155 4
15.174207 2.2948878 2.983108 28
6.910017 1.043807 -0.36624706 6
15.189996 2.2918527 3.5465784 34
14.533654 2.1902304 -0.25655037 8
14.654157 2.2057674 3.9708021 15
1.6470076 0.24585378 -0.44620407 8
15.195696 2.2655888 0.26817369 37
1.8812259 0.2801441 -0.43910447 5
15.203652 2.261358 0.80555516 49
2.1923959 0.32609215 -0.43084675 85
15.190626 2.2567034 1.3435929 37
2.645694 0.3925696 -0.4236246 4
15.16523 2.2475207 1.8823941 23
3.3088269 0.48978537 -0.41069973 3
15.175815 2.2436762 2.4297404 31
4.4681783 0.66060013 -0.39516413 4
15.152992 2.2375998 2.9773839 26
6.901763 1.0179332 -0.36561903 6
15.17284 2.2351196 3.5407295 30
14.547146 2.1403546 -0.2566551 10
14.633096 2.1503913 3.9630373 15
1.6497675 0.24038126 -0.44672167 8
15.181745 2.2093675 0.26778972 35
1.889906 0.2746973 -0.44090405 5
15.177467 2.2060404 0.80377567 45
2.1954637 0.31871876 -0.43122834 86
15.16292 2.1985219 1.3404553 34
2.635318 0.38163391 -0.42174736 4
15.147442 2.1908796 1.8792255 24
3.3105166 0.47823316 -0.41069973 4
15.147979 2.1882584 2.4241087 25
4.4704566 0.64500022 -0.39516413 4
15.131561 2.1804953 2.9716594 23
6.9032969 0.99355227 -0.36551434 6
15.138115 2.176039 3.5308318 32
14.579895 2.0957973 -0.25710884 11
14.624848 2.0996611 3.9588962 15
1.6486839 0.23434873 -0.44620407 7
15.16325 2.1553485 0.26733595 37
1.8946655 0.26897684 -0.44180387 5
15.155414 2.148838 0.80220562 49
2.1790683 0.30857524 -0.4277938 96
15.138936 2.141119 1.3376663 35
2.6522164 0.37510633 -0.42425033 4
15.134968 2.1378562 1.876788 24
3.3140502 0.46752888 -0.41094348 3
15.124228 2.1309624 2.4191029 23
4.4687347 0.62883496 -0.3948155 4
15.113437 2.1267447 2.9666984 24
6.9223766 0.97287655 -0.36635172 6
15.110509 2.1209614 3.5227334 32
14.577221 2.0435064 -0.25693434 9
14.607218 2.0451121 3.9521668 15
1.6398845 0.22755294 -0.44361585 8
15.146912 2.0991149 0.26691711 39
1.9033142 0.26342976 -0.44360349 5
15.138715 2.0952861 0.80094957 47
2.1820245 0.30161676 -0.42817542 81
15.110428 2.0859959 1.3345287 39
2.649596 0.36530578 -0.4236246 4
15.116774 2.0814953 1.8736194 26
3.3176281 0.45622894 -0.4111872 3
15.094029 2.0756795 2.4131584 28
4.4628997 0.61292922 -0.39411828 4
15.093536 2.0702441 2.9613557 24
6.9316669 0.94952166 -0.36666575 5
15.086929 2.0639729 3.5155351 27
14.601748 1.9975975 -0.25724846 14
14.571811 1.9909043 3.940779 16
1.6425831 0.22208646 -0.44413349 8
15.110193 2.0429828 0.26614919 43
1.9041774 0.25711617 -0.44360349 5
15.126143 2.0397563 0.7999028 47
2.186955 0.2945227 -0.42893866 82
15.089973 2.029516 1.3320884 39
2.6468775 0.35599005 -0.42299888 4
15.096049 2.0276511 1.8702071 26
3.3230579 0.44575331 -0.41167468 3
15.083563 2.0206144 2.4103425 30
4.449214 0.59523225 -0.39272377 4
15.06724 2.0157509 2.9548683 23
6.9347773 0.92653155 -0.36666575 5
15.078238 2.0118654 3.5119357 22
14.62449 1.9487249 -0.25752771 13
14.55569 1.9369791 3.9345672 16
1.6509717 0.21764775 -0.44620407 8
15.087494 1.9863068 0.26562563 39
1.8896062 0.24843688 -0.44000426 5
15.105447 1.9833068 0.79843742 47
2.1976526 0.2885462 -0.43084675 68
15.068964 1.9758414 1.329648 35
2.6441863 0.34623739 -0.42237309 4
15.065636 1.9700565 1.865576 25
3.3285303 0.4346641 -0.41216215 3
15.06506 1.9646257 2.4062753 32
4.4670701 0.58175737 -0.39411828 4
15.043035 1.9590907 2.9487624 23
6.9241052 0.90051407 -0.36593303 5
15.052317 1.9549495 3.5042875 24
14.658966 1.9012679 -0.25801638 16
14.535541 1.8826803 3.9273202 16
1.6594231 0.21257742 -0.44827461 8
15.072516 1.9308376 0.26524168 37
1.8865961 0.24134436 -0.43910447 5
15.060769 1.9239826 0.79571593 47
2.2084327 0.28173214 -0.43275481 88
15.062269 1.9188386 1.3284278 37
2.6571956 0.33803749 -0.42425033 4
15.040915 1.9134433 1.8616763 25
3.3260889 0.42254311 -0.41167468 3
15.050269 1.9093025 2.4028337 31
4.4769802 0.5671612 -0.3948155 4
15.026741 1.9009886 2.9441829 23
6.8936734 0.8708759 -0.36415362 7
15.02458 1.89538 3.4961894 29
14.659562 1.8493323 -0.25791165 20
14.515192 1.8285463 3.9200735 15
1.6582379 0.20654443 -0.44775698 7
15.059648 1.873109 0.26489261 39
1.9029388 0.23634997 -0.44270366 4
15.04559 1.8687016 0.7945646 43
2.1879709 0.2713629 -0.42855701 81
15.037239 1.8623275 1.3256389 33
2.6662009 0.3297317 -0.42550179 4
15.026155 1.8556298 1.8589951 22
3.3197343 0.40937686 -0.41069973 3
15.01371 1.8514329 2.3959506 31
4.474977 0.55104625 -0.39446688 4
15.015748 1.8463635 2.9407485 25
6.888742 0.84583181 -0.36373493 10
15.000155 1.8391387 3.488991 34
14.679821 1.7998632 -0.258156 19
14.500393 1.7752882 3.9143794 15
1.6436061 0.19889772 -0.44361585 8
15.037985 1.8197918 0.26440397 37
1.9075816 0.23050533 -0.44360349 4
15.028226 1.8132961 0.7933085 42
2.2025492 0.26536709 -0.43122834 86
15.021888 1.8072119 1.3237214 31
2.6692407 0.32112366 -0.42581466 4
15.014486 1.8036631 1.8568015 25
3.3210738 0.39836505 -0.41069973 3
14.990662 1.7954934 2.3912575 32
4.4808302 0.53589433 -0.3948155 4
14.992548 1.7930653 2.9350243 25
6.9113407 0.82534963 -0.36478165 7
14.992625 1.7877668 3.4858415 35
14.662187 1.7457691 -0.25773713 27
14.47389 1.7207806 3.9055796 15
1.6442565 0.19344735 -0.44361585 8
15.012468 1.7635658 0.26384547 37
1.9083747 0.22384471 -0.44360349 4
15.016612 1.7587317 0.79236645 47
2.199517 0.2576054 -0.4304651 85
14.986241 1.7525308 1.3200608 38
2.6526873 0.30974171 -0.42299888 4
14.993087 1.7480195 1.8533891 25
3.3283594 0.38746083 -0.41143093 3
14.977217 1.7408706 2.3881288 32
4.4667506 0.51919091 -0.39342102 4
14.963614 1.7366427 2.9281549 25
6.8665638 0.79570645 -0.36226952 7
14.983289 1.7336261 3.4822423 35
14.676138 1.6954919 -0.25787675 27
14.449101 1.6667147 3.8972974 16
1.6525993 0.18858232 -0.44568643 7
14.984756 1.7072992 0.26325211 41
1.8936543 0.21542016 -0.44000426 4
14.994876 1.7031507 0.79090106 48
2.2082057 0.25081283 -0.43199161 87
14.97643 1.6984082 1.3186663 38
2.6576777 0.30092528 -0.4236246 4
14.965564 1.6918854 1.8492455 27
3.3316643 0.37606207 -0.41167468 3
14.959647 1.6859211 2.3843744 32
4.4566565 0.50225592 -0.39237517 4
14.94227 1.6813291 2.9228125 27
6.837543 0.76816338 -0.36059478 9
14.956327 1.6776174 3.4745941 39
14.666068 1.6424749 -0.25759751 25
14.435633 1.6141173 3.8921211 17
1.6590079 0.18344904 -0.44723931 7
14.972735 1.6530106 0.26293796 37
1.8943948 0.20880914 -0.44000426 5
14.968966 1.6472989 0.78922629 50
2.2071161 0.24288787 -0.43160996 86
14.964443 1.6441652 1.3170975 36
2.6626391 0.29207775 -0.42425033 5
14.941779 1.6363899 1.8455895 25
3.3250632 0.36356774 -0.41069973 3
14.937947 1.6307009 2.3799942 32
4.4781885 0.48886141 -0.39411828 4
14.918774 1.6259661 2.917088 28
6.9037199 0.75120628 -0.36394429 6
14.925283 1.6214042 3.4660459 40
14.647856 1.5886796 -0.25717866 27
14.418132 1.5612181 3.8859093 17
1.6577173 0.17745164 -0.44672167 8
14.95853 1.5986069 0.26258892 41
1.8970498 0.20240144 -0.44045416 4
14.944835 1.5918674 0.78765625 50
2.2020941 0.23455876 -0.4304651 85
14.940372 1.5887554 1.3144829 33
2.6734643 0.28382361 -0.42581466 4
14.931607 1.5825527 1.8436395 28
3.3263121 0.35195801 -0.41069973 3
14.914083 1.5754312 2.3753011 35
4.487793 0.47406265 -0.3948155 4
14.928263 1.5742948 2.9178512 30
6.894383 0.72584665 -0.36331624 7
14.905657 1.5666505 3.4601972 39
14.639391 1.5360817 -0.25693434 28
14.396595 1.5080653 3.8786623 16
1.6525618 0.17106764 -0.44516876 8
14.928217 1.5426784 0.26196063 37
1.9132524 0.19737849 -0.44405338 4
14.91851 1.5364199 0.78598148 47
2.1872759 0.22526205 -0.42741215 64
14.910153 1.5329223 1.3113452 37
2.6685433 0.27388528 -0.42487606 4
14.91137 1.527795 1.840471 28
3.3393693 0.34155589 -0.41216215 3
14.890013 1.5203551 2.3706081 33
4.481492 0.45758587 -0.39411828 4
14.894605 1.5181901 2.910219 28
6.9425759 0.70642477 -0.3657237 5
14.887769 1.5122504 3.4547982 35
14.61482 1.4819413 -0.25641075 28
14.367174 1.4542969 3.8693449 16
1.6531489 0.16529842 -0.44516876 7
14.901673 1.487385 0.26140213 37
1.9081123 0.19011866 -0.44270366 4
14.917822 1.4837383 0.78566748 45
2.1997707 0.21879092 -0.42970186 67
14.883691 1.4777204 1.3085563 33
2.6616204 0.26378864 -0.4236246 4
14.894882 1.4735814 1.8377899 28
3.344492 0.33028811 -0.41264963 3
14.877537 1.4666219 2.3677924 36
4.4711657 0.4407658 -0.3930724 4
14.858783 1.4621549 2.902205 26
6.9867406 0.68628788 -0.3679218 4
14.871623 1.4581773 3.4498494 35
14.615925 1.4305305 -0.25634095 31
14.3414 1.4011347 3.8610628 17
1.6537158 0.15952642 -0.44516876 7
14.876917 1.4324877 0.26087856 39
1.891306 0.18177937 -0.43865454 4
14.888862 1.4310154 0.78388804 42
2.2024753 0.21129891 -0.43008351 67
14.872892 1.4242343 1.3071618 30
2.6585922 0.25412092 -0.42299888 4
14.862389 1.4180006 1.8331589 22
3.3416724 0.31823438 -0.41216215 3
14.86462 1.4155886 2.3649766 33
4.4984622 0.42760566 -0.39533845 2
14.838387 1.4078714 2.897244 23
6.9751754 0.66057545 -0.36718911 3
14.861102 1.4047858 3.4462502 40
14.604661 1.380545 -0.2560617 31
14.322888 1.3513945 3.854851 17
1.6638806 0.15464637 -0.44775698 7
14.875612 1.3825868 0.26077387 41
1.8957794 0.17586698 -0.43955436 4
14.867913 1.376637 0.78252727 45
2.2031996 0.20360897 -0.43008351 67
