# .PCD v0.7 - Point Cloud Data file format
VERSION 0.7
FIELDS x y z rgba
SIZE 4 4 4 4
TYPE F F F U
COUNT 1 1 1 1
WIDTH 602
HEIGHT 1
VIEWPOINT 0 0 0 1 0 0 0
POINTS 602
DATA ascii
3.145524 -2.6798921 0.21656621 0
3.1449702 -2.6803677 0.36152202 0
3.1219468 -2.6626272 0.5038079 0
3.1650288 -2.7031898 -0.2181363 0
3.1421027 -2.6855066 -0.072148249 0
3.1591334 -2.7086616 0.072636917 0
3.1066101 -2.668335 0.50283301 0
3.0994663 -2.6640797 0.64732587 0
3.1372564 -2.7003715 -0.072252966 0
3.143605 -2.7144446 0.072497301 0
3.1206937 -2.696563 0.21614751 0
3.0972767 -2.6791632 0.50283301 0
3.0916421 -2.6761758 0.6476388 0
3.1475894 -2.7265275 -0.21824095 0
3.1293218 -2.7126157 -0.072287865 0
3.1114764 -2.7057185 0.071973726 0
3.1187952 -2.7139955 0.21667089 0
3.0971935 -2.6961477 0.35925597 0
3.0983837 -2.6990852 0.50453913 0
3.0733476 -2.679163 0.64576155 0
3.1380529 -2.7374978 -0.21824095 0
3.1228468 -2.7261534 -0.072357684 0
3.1065259 -2.7205155 0.072078437 0
3.1108043 -2.7261817 0.21677555 0
3.0997488 -2.7174497 0.36065045 0
3.0814817 -2.7033384 0.5033204 0
3.0728836 -2.6976943 0.6476388 0
3.1164746 -2.7378895 -0.21740359 0
3.1208208 -2.743639 -0.072532199 0
3.1000102 -2.7339883 0.072148249 0
3.0922844 -2.7290945 0.21614751 0
3.0917382 -2.7295723 0.36082479 0
3.0660758 -2.7088213 0.5023455 0
3.057528 -2.7031701 0.64638728 0
3.1098897 -2.7513981 -0.21761292 0
3.0947556 -2.7399349 -0.072148249 0
3.0919428 -2.7461205 0.072183155 0
3.0797541 -2.7372181 0.21593818 0
3.0747464 -2.7337284 0.35995319 0
3.0640168 -2.7261047 0.50356412 0
3.0392218 -2.7059455 0.64451009 0
3.1002667 -2.7622371 -0.21761292 0
3.0762172 -2.7427361 -0.07193882 0
3.0793569 -2.75423 0.072113343 0
3.0805979 -2.7572761 0.21667089 0
3.0607316 -2.7404573 0.35943025 0
3.0677886 -2.7487056 0.50575781 0
3.035641 -2.7218127 0.64576155 0
3.0995257 -2.781045 -0.21824095 0
3.075552 -2.7614734 -0.072148249 0
3.0652671 -2.7609475 0.072008632 0
3.0709546 -2.7680125 0.21667089 0
3.0555863 -2.7551277 0.35995319 0
3.043437 -2.746099 0.5033204 0
3.0275877 -2.7337158 0.64607441 0
3.0853531 -2.7878304 -0.21792693 0
3.062927 -2.7695096 -0.072078437 0
3.0570922 -2.772974 0.072043538 0
3.0602794 -2.7768388 0.21656621 0
3.0371003 -2.7577403 0.35890734 0
3.0250177 -2.7486961 0.501858 0
3.0185056 -2.743741 0.64607441 0
3.06674 -2.7905188 -0.21729892 0
3.0611207 -2.786382 -0.072252966 0
3.0508327 -2.7857928 0.072113343 0
3.0387723 -2.7767262 0.21572883 0
3.0421591 -2.78177 0.36065045 0
3.0158858 -2.7587125 0.501858 0
3.0161955 -2.7609298 0.6476388 0
3.0604146 -2.803371 -0.21750826 0
3.0528495 -2.7984014 -0.072287865 0
3.0469782 -2.8018401 0.072252966 0
3.0334706 -2.791374 0.21604285 0
3.032918 -2.7918427 0.36065045 0
3.0135386 -2.7759478 0.50307667 0
2.9934678 -2.7593915 0.64482296 0
3.0535469 -2.8167453 -0.2177176 0
3.0371854 -2.8036156 -0.072148249 0
3.0313098 -2.807024 0.072113343 0
3.0295682 -2.8073759 0.21646154 0
3.0173092 -2.7969949 0.35995319 0
3.0038304 -2.7864501 0.50307667 0
2.9867129 -2.7725117 0.64544868 0
3.0495493 -2.8328242 -0.2181363 0
3.0259154 -2.8128383 -0.072113343 0
3.0214932 -2.8175881 0.072113343 0
3.0226705 -2.8206592 0.21667089 0
2.9973326 -2.7979929 0.35873303 0
2.9984372 -2.8009839 0.5038079 0
2.9842319 -2.7896652 0.64701301 0
3.0367248 -2.8407228 -0.21792693 0
3.0146184 -2.8220172 -0.072078437 0
3.0116396 -2.8281178 0.072113343 0
3.0128064 -2.8311927 0.21667089 0
2.9962578 -2.8166268 0.35977891 0
2.9828582 -2.8059928 0.50283301 0
2.9744759 -2.8000653 0.64701301 0
3.0209749 -2.8458278 -0.21750826 0
3.0193007 -2.8462398 -0.072427489 0
3.0002964 -2.8372393 0.072078437 0
2.9912996 -2.8307097 0.2158335 0
2.9921951 -2.8325474 0.36047614 0
2.9744864 -2.8177531 0.50307667 0
2.9675512 -2.813149 0.6476388 0
3.0081255 -2.8536065 -0.21729892 0
3.0049961 -2.8526316 -0.072322771 0
2.9976153 -2.8545902 0.072252966 0
2.9785089 -2.8383789 0.21562417 0
2.9794049 -2.8402252 0.36012751 0
2.9660685 -2.8294885 0.5033204 0
2.9519973 -2.8180344 0.64638728 0
3.0039227 -2.8696079 -0.2177176 0
2.9834566 -2.8520494 -0.072043538 0
2.9890759 -2.8664205 0.072287865 0
2.9705215 -2.8496227 0.21572883 0
2.9651608 -2.8464687 0.3596046 0
2.9576051 -2.8411999 0.50356412 0
2.9397881 -2.8250711 0.64576155 0
2.999645 -2.8856146 -0.2181363 0
2.9783051 -2.866087 -0.072148249 0
2.9637284 -2.8610394 0.071903922 0
2.9677382 -2.8669126 0.21625218 0
2.9509094 -2.8526473 0.35908166 0
2.9538755 -2.8565123 0.50453913 0
2.9370062 -2.8421836 0.64732587 0
2.9843206 -2.8899884 -0.2177176 0
2.9754627 -2.8834236 -0.072322771 0
2.9623263 -2.8797305 0.072113343 0
2.9605763 -2.8800399 0.21646154 0
2.9400053 -2.8610275 0.35890734 0
2.9310868 -2.854341 0.5023455 0
2.9298968 -2.8551757 0.6479516 0
2.9684949 -2.8948104 -0.21729892 0
2.9711041 -2.899379 -0.072462395 0
2.9579723 -2.8956492 0.072252966 0
2.9447982 -2.8847663 0.21604285 0
2.9408817 -2.8829424 0.36030185 0
2.9211054 -2.8645551 0.5023455 0
2.918503 -2.8640025 0.6476388 0
2.9550149 -2.9028714 -0.21708956 0
2.9595389 -2.9083307 -0.072427489 0
2.9501867 -2.9092791 0.072322771 0
2.9356265 -2.8969429 0.21614751 0
2.9279649 -2.8903906 0.35995319 0
2.91906 -2.8836129 0.5038079 0
2.8995574 -2.8663476 0.64576155 0
2.9533837 -2.9215965 -0.2177176 0
2.9445961 -2.914938 -0.072322771 0
2.9357564 -2.9153321 0.072218053 0
2.9283299 -2.9099882 0.21635687 0
2.9032233 -2.887054 0.35821009 0
2.9117911 -2.8965847 0.50429535 0
2.8895342 -2.8764515 0.64576155 0
2.9483147 -2.9380407 -0.2181363 0
2.9202406 -2.9110808 -0.071973726 0
2.9190021 -2.9179831 0.072043538 0
2.9243119 -2.9253325 0.21677555 0
2.896956 -2.8989792 0.35855874 0
2.9021697 -2.9062243 0.50429535 0
2.886956 -2.8930085 0.64732587 0
2.936249 -2.9444597 -0.21792693 0
2.923275 -2.9334967 -0.072287865 0
2.9102075 -2.9295731 0.072078437 0
2.9084547 -2.929853 0.21635687 0
2.8952394 -2.9175589 0.3596046 0
2.8794277 -2.9036517 0.50210178 0
2.8782308 -2.9044719 0.6476388 0
2.9175212 -2.946177 -0.21729892 0
2.9214568 -2.9522114 -0.072497301 0
2.904177 -2.9439843 0.072183155 0
2.892601 -2.9342983 0.21593818 0
2.8948271 -2.9375815 0.36082479 0
2.8678813 -2.9122705 0.501858 0
2.8722315 -2.918725 0.64857739 0
2.9044185 -2.9534945 -0.21708956 0
2.9083307 -2.9595389 -0.072427489 0
2.8952818 -2.9555323 0.072218053 0
2.8823407 -2.9443774 0.21593818 0
2.8803749 -2.9433966 0.36030185 0
2.8660254 -2.9307792 0.5033204 0
2.8509803 -2.9174304 0.64607441 0
2.9024637 -2.9721889 -0.2177176 0
2.895189 -2.9668107 -0.072357684 0
2.8877363 -2.9684875 0.072287865 0
2.8803988 -2.9630132 0.21656621 0
2.8659174 -2.9491465 0.35977891 0
2.8613093 -2.9464619 0.50429535 0
2.8407793 -2.9273646 0.64607441 0
2.8920715 -2.982302 -0.2177176 0
2.8792486 -2.971154 -0.072218053 0
2.8717999 -2.9727967 0.072148249 0
2.8741996 -2.9773607 0.21688022 0
2.8542218 -2.9576986 0.3596046 0
2.8523853 -2.9578609 0.50453913 0
2.8346558 -2.94153 0.64701301 0
2.884414 -2.9952562 -0.21792693 0
2.8716331 -2.9840684 -0.072287865 0
2.8558676 -2.977031 0.072008632 0
2.8601632 -2.9825506 0.21656621 0
2.8438804 -2.9676435 0.3596046 0
2.8338053 -2.9591973 0.50307667 0
2.8303497 -2.9566219 0.64826447 0
2.8656592 -2.9966459 -0.21729892 0
2.8686311 -3.000802 -0.072462395 0
2.8528774 -2.9937229 0.072183155 0
2.8428483 -2.9852846 0.21604285 0
2.833504 -2.9775524 0.3596046 0
2.8239765 -2.9685783 0.50307667 0
2.8159285 -2.9621882 0.64732587 0
2.8584569 -3.0090282 -0.21750826 0
2.8553853 -3.0078962 -0.072392583 0
2.8437841 -3.0051153 0.072218053 0
2.8329332 -2.9946957 0.21604285 0
2.8277204 -2.991276 0.36012751 0
2.8163233 -2.9813035 0.50356412 0
2.8020215 -2.967201 0.64638728 0
2.8506773 -3.0218935 -0.2177176 0
2.8371632 -3.0086195 -0.072183155 0
2.8365428 -3.0174434 0.072287865 0
2.8292997 -3.0118444 0.21656621 0
2.819989 -3.0040336 0.36047614 0
2.8159301 -3.0007594 0.50527036 0
2.791647 -2.976964 0.64638728 0
2.8461034 -3.0371597 -0.2181363 0
2.8266442 -3.0185046 -0.072183155 0
2.8178053 -3.0185559 0.072078437 0
2.8228564 -3.0260835 0.21688022 0
2.7991412 -3.0017114 0.35908166 0
2.804085 -3.0091183 0.50502658 0
2.7866235 -2.9924736 0.6476388 0
2.8354845 -3.0470757 -0.2181363 0
2.8201754 -3.0327463 -0.072287865 0
2.8086107 -3.0298398 0.072113343 0
2.8095615 -3.0329885 0.21667089 0
2.794888 -3.0192611 0.35995319 0
2.7827785 -3.007232 0.50307667 0
2.7815251 -3.0079834 0.64889026 0
2.8161654 -3.048645 -0.21750826 0
2.8204246 -3.0543253 -0.072567105 0
2.8029037 -3.046 0.072252966 0
2.7943707 -3.0388548 0.21635687 0
2.7924218 -3.0377998 0.36099908 0
2.7730801 -3.018873 0.5033204 0
2.7678101 -3.0152478 0.64826447 0
2.8068569 -3.0599282 -0.21761292 0
2.806509 -3.0616939 -0.072497301 0
2.7963006 -3.060194 0.072357684 0
2.7823989 -3.0471156 0.21625218 0
2.7777712 -3.0431142 0.36047614 0
2.7665393 -3.0329344 0.50405163 0
2.751945 -3.0190511 0.64701301 0
2.8015387 -3.0756137 -0.21803163 0
2.7917662 -3.0670354 -0.072392583 0
2.7882891 -3.0728979 0.072427489 0
2.7789886 -3.0637224 0.21677555 0
2.7644556 -3.0498393 0.36012751 0
2.761266 -3.0484579 0.50502658 0
2.7445705 -3.0310893 0.6476388 0
2.7961447 -3.0912993 -0.21845031 0
2.7748742 -3.0688598 -0.072218053 0
2.7727282 -3.0761857 0.072287865 0
2.7736239 -3.07934 0.21719423 0
2.748461 -3.0535467 0.35943025 0
2.7537973 -3.0605493 0.50551409 0
2.7379358 -3.0450578 0.64857739 0
2.7832086 -3.0975831 -0.21824095 0
2.7694895 -3.0844793 -0.072357684 0
2.756639 -3.0798857 0.072148249 0
2.7615266 -3.0875149 0.21708956 0
2.7449603 -3.070071 0.36030185 0
2.7378068 -3.0642221 0.50453913 0
2.7312367 -3.0590169 0.64951599 0
2.7723789 -3.1072795 -0.21824095 0
2.7653596 -3.1015906 -0.072532199 0
2.7551701 -3.099952 0.072392583 0
2.7441008 -3.0896688 0.21656621 0
2.7363346 -3.0830913 0.36065045 0
2.7257762 -3.0722747 0.50429535 0
2.7205417 -3.068532 0.64951599 0
2.7583232 -3.1144297 -0.21803163 0
2.7571669 -3.1142192 -0.072602011 0
2.7451129 -3.1115289 0.072427489 0
2.7287958 -3.095211 0.21625218 0
2.7255557 -3.0926242 0.36065045 0
2.7197459 -3.0882039 0.50527036 0
2.7066667 -3.0755167 0.64889026 0
2.7527108 -3.130038 -0.21845031 0
2.7364943 -3.1137893 -0.072357684 0
2.7302816 -3.1165798 0.072322771 0
2.7271841 -3.1152375 0.21698491 0
2.7108078 -3.097621 0.36012751 0
2.7115626 -3.1006675 0.50575781 0
2.6894152 -3.0775087 0.64732587 0
2.7470231 -3.1456451 -0.21886899 0
2.7229784 -3.1203089 -0.072287865 0
2.7180736 -3.1245825 0.072287865 0
2.7207708 -3.1287851 0.21729892 0
2.7052059 -3.1130805 0.36082479 0
2.7007229 -3.1101136 0.50575781 0
2.6921442 -3.1013274 0.65045458 0
2.7281754 -3.1461613 -0.21824095 0
2.712616 -3.1293216 -0.072287865 0
2.7103124 -3.1366053 0.072357684 0
2.7098327 -3.1382635 0.21729892 0
2.6943228 -3.1225047 0.36082479 0
2.6787255 -3.1055236 0.50356412 0
2.6851714 -3.1151948 0.65139318 0
2.7151206 -3.1521645 -0.21803163 0
2.7147214 -3.1539273 -0.072636917 0
2.6993473 -3.1460469 0.072357684 0
2.6942093 -3.1411679 0.21688022 0
2.6891396 -3.1374731 0.36152202 0
2.676908 -3.1254094 0.50527036 0
2.6671178 -3.1150794 0.64951599 0
2.706697 -3.1646583 -0.21824095 0
2.6990499 -3.1568327 -0.072497301 0
2.6927907 -3.1595466 0.072462395 0
2.6819329 -3.1490328 0.21677555 0
2.6794627 -3.1483579 0.3616963 0
2.6691017 -3.1372929 0.50575781 0
2.6536689 -3.1213601 0.64889026 0
2.7000673 -3.1781831 -0.21855497 0
2.6841314 -3.1616616 -0.072392583 0
2.6817455 -3.168927 0.072462395 0
2.6735039 -3.1614256 0.21698491 0
2.665149 -3.1526611 0.36117339 0
2.6632583 -3.1526563 0.50673276 0
2.6478543 -3.136642 0.65014172 0
2.6966834 -3.1967485 -0.21918301 0
2.6743679 -3.1725407 -0.072427489 0
2.6680946 -3.1752067 0.072392583 0
2.6727271 -3.1829748 0.21782227 0
2.6535759 -3.1624084 0.36117339 0
2.6484098 -3.157371 0.50600159 0
2.6394269 -3.1488934 0.65076745 0
2.6823847 -3.2035482 -0.21897365 0
2.668411 -3.1879902 -0.072567105 0
2.6538775 -3.1818929 0.072322771 0
2.6590416 -3.1892166 0.21761292 0
2.6476221 -3.1777751 0.36187065 0
2.6317394 -3.1609545 0.50502658 0
2.6334739 -3.164161 0.6520189 0
2.6635246 -3.2036772 -0.21834564 0
2.6572666 -3.1972854 -0.072567105 0
2.6560681 -3.206075 0.072671816 0
2.6440728 -3.1938641 0.21729892 0
2.6441336 -3.196208 0.3629165 0
2.6187127 -3.1666048 0.50453913 0
2.6249297 -3.1763799 0.65264469 0
2.6554296 -3.2155724 -0.21855497 0
2.6511812 -3.2127106 -0.072706729 0
2.6435907 -3.2137825 0.072636917 0
2.6303713 -3.1999881 0.21708956 0
2.6297252 -3.2003407 0.36239356 0
2.6177208 -3.188 0.50648904 0
2.6063077 -3.1763599 0.65076745 0
2.6467218 -3.2279108 -0.21876432 0
2.6323464 -3.2126648 -0.072497301 0
2.6323564 -3.222991 0.072636917 0
2.629288 -3.2215285 0.21792693 0
2.6167185 -3.2084138 0.36221924 0
2.616612 -3.2094266 0.50843894 0
2.5952044 -3.1854384 0.65076745 0
2.6449585 -3.2499824 -0.21960169 0
2.6211157 -3.2218339 -0.072497301 0
2.6192665 -3.2310638 0.072602011 0
2.6180267 -3.2306871 0.21792693 0
2.6042492 -3.2159801 0.36204496 0
2.6048312 -3.2189953 0.50843894 0
2.5853117 -3.1960139 0.65108031 0
2.6361089 -3.2623024 -0.21981104 0
2.6173928 -3.2402973 -0.072706729 0
2.6110454 -3.242847 0.072671816 0
2.6092379 -3.2429187 0.2181363 0
2.6029949 -3.2374725 0.36343944 0
2.5817063 -3.2121427 0.50600159 0
2.5840354 -3.21734 0.65358323 0
2.6152747 -3.2585647 -0.21897365 0
2.6123216 -3.2572136 -0.072881252 0
2.6022074 -3.2550654 0.072741628 0
2.5959756 -3.2484324 0.21792693 0
2.5922446 -3.2460866 0.36343944 0
2.570478 -3.2211351 0.50600159 0
2.5721202 -3.2243466 0.65327036 0
2.6063738 -3.270798 -0.21918301 0
2.6039979 -3.2689869 -0.072951064 0
2.59886 -3.2730732 0.072951064 0
2.5821381 -3.2543457 0.2177176 0
2.5796602 -3.2535543 0.36326513 0
2.5721128 -3.2451985 0.50843894 0
2.555944 -3.2271118 0.6520189 0
2.5979924 -3.2825556 -0.21939236 0
2.5826473 -3.2655089 -0.072671816 0
2.5898948 -3.2852659 0.073020868 0
2.57447 -3.2680454 0.21803163 0
2.5651588 -3.257395 0.36274219 0
2.5644519 -3.2588365 0.50917011 0
2.5446632 -3.2360141 0.6520189 0
2.5963905 -3.3041675 -0.22022973 0
2.5712328 -3.2745042 -0.072671816 0
2.5710168 -3.2848382 0.072811447 0
2.5704298 -3.2864513 0.21865964 0
2.5544298 -3.2683446 0.3629165 0
2.5579495 -3.2740257 0.51014513 0
2.5406458 -3.2542193 0.65389615 0
2.5842626 -3.3136613 -0.22022973 0
2.5671639 -3.2929218 -0.072881252 0
2.5565059 -3.2910807 0.072741628 0
2.5595915 -3.2974284 0.21876432 0
2.5478914 -3.2835379 0.36361378 0
2.5337684 -3.2676921 0.50770777 0
2.5347509 -3.2713163 0.65546048 0
2.5653429 -3.3131866 -0.21960169 0
2.5611961 -3.3102169 -0.073055774 0
2.5547719 -3.3126523 0.073020868 0
2.5407512 -3.2968509 0.2181363 0
2.5437095 -3.301882 0.36465961 0
2.5223465 -3.2765167 0.50770777 0
2.5221119 -3.2785788 0.65514761 0
2.5537624 -3.3221209 -0.21960169 0
2.5471892 -3.3159652 -0.072985962 0
2.5480561 -3.3279009 0.073160492 0
2.5285902 -3.3036721 0.21803163 0
2.5321681 -3.3107409 0.36465961 0
2.5193319 -3.2963414 0.5094139 0
2.5064292 -3.2806458 0.65389615 0
2.5494208 -3.3405416 -0.22022973 0
2.5361791 -3.3243935 -0.072985962 0
2.5382166 -3.3379242 0.07319539 0
2.5267098 -3.3252006 0.21886899 0
2.5145719 -3.3116255 0.36378807 0
2.5119874 -3.3094213 0.51014513 0
2.4961555 -3.2909486 0.65420902 0
2.5479805 -3.361711 -0.22106709 0
2.5233521 -3.3316326 -0.072951064 0
2.5157058 -3.3323998 0.072881252 0
2.5198984 -3.3403776 0.21928766 0
2.504776 -3.3215365 0.36396238 0
2.505199 -3.3245111 0.51112008 0
2.4894061 -3.3059537 0.65546048 0
2.5266235 -3.3578174 -0.22022973 0
2.5177162 -3.3484116 -0.073125578 0
2.5052576 -3.342761 0.07291615 0
2.5070262 -3.3475549 0.21918301 0
2.5003307 -3.3398297 0.36500823 0
2.4876332 -3.3252876 0.50990134 0
2.4849477 -3.3241162 0.65733767 0
2.5124962 -3.363416 -0.22002037 0
2.5084052 -3.3603849 -0.07319539 0
2.5019298 -3.3627167 0.073160492 0
2.4923353 -3.351042 0.21886899 0
2.4922228 -3.3533344 0.36553118 0
2.4771943 -3.3355448 0.51014513 0
2.4739108 -3.3323386 0.65733767 0
2.4983616 -3.3689575 -0.21981104 0
2.5008204 -3.3735039 -0.073300108 0
2.4919534 -3.3726032 0.07319539 0
2.4818096 -3.3613286 0.21897365 0
2.4793193 -3.3604105 0.36535689 0
2.4684758 -3.3469357 0.51063257 0
2.4587476 -3.3361833 0.65639907 0
2.4930978 -3.3852646 -0.2203344 0
2.4842885 -3.3757703 -0.073160492 0
2.486079 -3.3893425 0.073369913 0
2.4759645 -3.3780255 0.21949703 0
2.4634516 -3.362185 0.36465961 0
2.4614689 -3.361939 0.51160759 0
2.4470875 -3.3447454 0.65639907 0
2.489517 -3.4052327 -0.22106709 0
2.4713099 -3.3828068 -0.073125578 0
2.4671705 -3.3883011 0.073160492 0
2.4712083 -3.3963377 0.22012506 0
2.4517007 -3.3707633 0.36465961 0
2.4520526 -3.3737223 0.51209503 0
2.4377191 -3.3564637 0.65702486 0
2.4776151 -3.4139023 -0.22106709 0
2.4641826 -3.3978879 -0.07326521 0
2.4576707 -3.4001338 0.073230296 0
2.4593379 -3.4049432 0.22012506 0
2.4504163 -3.3938389 0.36622843 0
2.4344537 -3.374212 0.51087636 0
2.432919 -3.3745668 0.65890205 0
2.458679 -3.4128067 -0.22043908 0
2.4593165 -3.4162059 -0.073474631 0
2.4492843 -3.4135664 0.073335014 0
2.4392912 -3.4021454 0.21939236 0
2.440876 -3.4056106 0.36657706 0
2.4249725 -3.3859169 0.5113638 0
2.4222744 -3.384645 0.65921491 0
2.4479125 -3.4229929 -0.22054374 0
2.4462142 -3.4231429 -0.073439725 0
2.4443147 -3.4318676 0.073544443 0
2.4274008 -3.4106395 0.21939236 0
2.4301281 -3.4157338 0.36675134 0
2.4188895 -3.4024506 0.51258254 0
2.4081566 -3.3898587 0.65858912 0
2.4405735 -3.4380314 -0.22096242 0
2.4296227 -3.425137 -0.073300108 0
2.4392464 -3.450176 0.073753871 0
2.4177852 -3.4223537 0.21960169 0
2.4147425 -3.4193132 0.36622843 0
2.4092872 -3.4141169 0.51306999 0
2.3963094 -3.3982439 0.65858912 0
2.4331594 -3.4530602 -0.22138111 0
2.4211059 -3.4385023 -0.073404826 0
2.4168499 -3.443938 0.073439725 0
2.4138513 -3.4422195 0.2203344 0
2.4016485 -3.42609 0.36605412 0
2.401911 -3.4290099 0.51404494 0
2.3889639 -3.4130616 0.6598407 0
2.418802 -3.4582593 -0.22117178 0
2.4159615 -3.4567671 -0.073614255 0
2.4059563 -3.4539938 0.073474631 0
2.4052439 -3.4555423 0.22064841 0
2.3930883 -3.4393587 0.36657706 0
2.3831275 -3.4275939 0.51258254 0
2.3860521 -3.4343581 0.66234362 0
2.4044373 -3.4633999 -0.22096242 0
2.4061601 -3.4684653 -0.073684059 0
2.3984344 -3.468951 0.073614255 0
2.3903649 -3.45857 0.2203344 0
2.3878615 -3.4575276 0.36762294 0
2.3745308 -3.4407938 0.51331371 0
2.3768935 -3.4455032 0.66296935 0
2.3945999 -3.4750614 -0.22117178 0
2.3991823 -3.4830122 -0.073823676 0
2.39484 -3.4884253 0.073858589 0
2.376018 -3.4635992 0.22012506 0
2.3769045 -3.467485 0.36779723 0
2.3698399 -3.4584737 0.51477611 0
2.3548081 -3.43911 0.66015351 0
2.3875742 -3.4895766 -0.22159046 0
2.3802383 -3.4814615 -0.073614255 0
2.3792706 -3.491806 0.073753871 0
2.3684096 -3.4784756 0.22054374 0
2.3631506 -3.4720538 0.3674486 0
2.3644512 -3.4765735 0.51623857 0
2.3450096 -3.4505765 0.66077924 0
2.3798668 -3.5044987 -0.22200914 0
2.3680713 -3.4897492 -0.073614255 0
2.365947 -3.4984334 0.073718965 0
2.3629632 -3.4966505 0.22117178 0
2.3577082 -3.4901879 0.36849448 0
2.3478589 -3.4782243 0.51526362 0
2.3351598 -3.4620166 0.66140497 0
2.3709683 -3.5177531 -0.22232316 0
2.3636947 -3.5096037 -0.073858589 0
2.3481491 -3.498369 0.073544443 0
2.352968 -3.5081947 0.22138111 0
2.3421819 -3.4934316 0.36797154 0
2.331284 -3.4798021 0.51428866 0
2.3296542 -3.479996 0.66328222 0
2.3564537 -3.5226879 -0.22211383 0
2.3514295 -3.5178332 -0.073858589 0
2.3536613 -3.5331724 0.074102923 0
2.339601 -3.5147245 0.22127645 0
2.3388038 -3.5148563 0.36936605 0
2.3257179 -3.4978371 0.51575112 0
2.3207722 -3.4930425 0.66422081 0
2.3463521 -3.5342197 -0.22232316 0
2.3391356 -3.5260198 -0.073858589 0
2.3435194 -3.5447028 0.074172728 0
2.3273182 -3.5228698 0.22127645 0
2.3309121 -3.5296488 0.37006328 0
2.3156803 -3.5092473 0.51623857 0
2.3031278 -3.4928765 0.66265643 0
2.3361988 -3.5457242 -0.22253251 0
2.3268132 -3.5341635 -0.073858589 0
2.3300347 -3.5511897 0.074137822 0
2.319387 -3.537653 0.22169513 0
2.3109322 -3.5260994 0.36884311 0
2.3099422 -3.5272737 0.51770103 0
2.2920029 -3.5025477 0.66296935 0
2.3369241 -3.5739164 -0.22378856 0
2.315556 -3.5439384 -0.073893487 0
2.3110778 -3.5492465 0.073928393 0
2.3124707 -3.5540984 0.2222185 0
2.3040409 -3.5424953 0.36971465 0
2.2997789 -3.5386443 0.51818854 0
2.2862179 -3.5204673 0.66484654 0
2.3179119 -3.572 -0.22316055 0
2.3064353 -3.5570328 -0.073998205 0
2.2975893 -3.5556128 0.073893487 0
2.3033006 -3.5671825 0.22253251 0
2.290581 -3.5488424 0.36954033 0
2.2852609 -3.543314 0.51770103 0
2.2803361 -3.5383885 0.66672373 0
2.303266 -3.5767105 -0.2229512 0
2.2983332 -3.5717883 -0.074137822 0
2.2937992 -3.5770779 0.074172728 0
2.2822144 -3.5617473 0.22169513 0
2.2835519 -3.5652051 0.37041187 0
2.2718086 -3.5495973 0.51745731 0
2.2700996 -3.5496552 0.66734952 0
2.2929182 -3.5880949 -0.22316055 0
2.2880037 -3.5831606 -0.074207634 0
2.2866664 -3.5934982 0.07434725 0
2.2740543 -3.5764339 0.22211383 0
2.2710934 -3.573154 0.37041187 0
2.271111 -3.5759385 0.52013838 0
2.2513442 -3.5475502 0.66547227 0
2.2744117 -3.5894363 -0.074172728 0
