# .PCD v0.7 - Point Cloud Data file format
VERSION 0.7
FIELDS x y z rgba
SIZE 4 4 4 4
TYPE F F F U
COUNT 1 1 1 1
WIDTH 627
HEIGHT 1
VIEWPOINT 0 0 0 1 0 0 0
POINTS 627
DATA ascii
3.3090794 -1.5199078 -0.063561663 0
3.2812657 -1.5133786 0.063072994 0
3.3166342 -1.5310953 0.19144495 0
3.3785515 -1.5611099 0.32561383 0
3.3983395 -1.570973 0.4596912 0
3.4457011 -1.5943273 0.60133415 0
3.4688196 -1.6057594 0.74301028 0
3.2547688 -1.5087423 -0.062619232 0
3.2868407 -1.5298861 0.063282423 0
3.3964334 -1.5845045 0.4601787 0
3.4275858 -1.6004949 0.59914404 0
3.4700253 -1.6217874 0.74453676 0
3.2404261 -1.5158579 -0.062444709 0
3.2812111 -1.5419228 0.063282423 0
3.3254733 -1.56414 0.19259633 0
3.3549511 -1.57872 0.32439366 0
3.4049699 -1.6037091 0.46212861 0
3.4091892 -1.6071507 0.59695399 0
3.4516292 -1.6286304 0.7418654 0
3.2330403 -1.5268706 -0.062409807 0
3.266504 -1.5496531 0.0631079 0
3.3233263 -1.5780314 0.19280569 0
3.3473427 -1.5901511 0.32421938 0
3.3883123 -1.6110637 0.46066615 0
3.4121943 -1.6238794 0.59851831 0
3.4459231 -1.640669 0.7418654 0
3.2238121 -1.5369889 -0.062339999 0
3.261075 -1.5610459 0.0631079 0
3.3123944 -1.5870334 0.19249167 0
3.345365 -1.6035483 0.32456797 0
3.3719294 -1.6177293 0.45920372 0
3.4171894 -1.640911 0.60039556 0
3.4419448 -1.6535375 0.74224705 0
3.2328436 -1.5551676 -0.062619232 0
3.2646096 -1.5767682 0.063282423 0
3.2906508 -1.5907626 0.19154961 0
3.3451281 -1.6178184 0.32509091 0
3.3626885 -1.6277598 0.45871624 0
3.4078853 -1.6511065 0.59976977 0
3.4432185 -1.6689675 0.74377352 0
3.2309935 -1.5681893 -0.062689044 0
3.2680738 -1.5925342 0.063456953 0
3.2922585 -1.6057417 0.19196831 0
3.3376698 -1.6286116 0.3249166 0
3.3712561 -1.6464571 0.46066615 0
3.3985517 -1.6612573 0.59914404 0
3.4444263 -1.6844262 0.74529999 0
3.2147238 -1.5741814 -0.062479615 0
3.2642894 -1.6048144 0.063491859 0
3.2904999 -1.6184132 0.19217765 0
3.3337522 -1.6411321 0.32509091 0
3.3654883 -1.6582149 0.46066615 0
3.3894804 -1.6707714 0.59851831 0
3.4350042 -1.694702 0.74453676 0
3.2059004 -1.5830623 -0.062409807 0
3.2392418 -1.6058601 0.0631079 0
3.2901981 -1.6325529 0.19249167 0
3.3280032 -1.6527592 0.32509091 0
3.3635263 -1.6711327 0.46115363 0
3.3907025 -1.6861107 0.59976977 0
3.4258502 -1.7043346 0.74377352 0
3.2075143 -1.5978099 -0.062549427 0
3.2443478 -1.6225241 0.063317336 0
3.28298 -1.6425607 0.19238698 0
3.3314118 -1.6682466 0.32596248 0
3.3434753 -1.6757476 0.45920372 0
3.3956876 -1.7026581 0.60164702 0
3.4163709 -1.7145215 0.74301028 0
3.2147069 -1.6147207 -0.062793761 0
3.2460916 -1.6368754 0.063456953 0
3.2647452 -1.6477113 0.19165429 0
3.3237898 -1.6789669 0.32578817 0
3.3343565 -1.6850351 0.45871624 0
3.3950119 -1.7171757 0.60258561 0
3.419425 -1.7302734 0.74491841 0
3.205483 -1.6241245 -0.06272395 0
3.2563994 -1.6563557 0.063771099 0
3.2735035 -1.6657749 0.19249167 0
3.3217545 -1.6917882 0.32613677 0
3.3443711 -1.7047776 0.46090987 0
3.3769805 -1.7221423 0.60039556 0
3.4186106 -1.7448763 0.74606317 0
3.1893952 -1.6292872 -0.062514521 0
3.2384331 -1.6607577 0.063526757 0
3.2747765 -1.6808395 0.19291034 0
3.301651 -1.6960896 0.32474229 0
3.347528 -1.7203956 0.46212861 0
3.3709486 -1.7339199 0.60039556 0
3.4162967 -1.7579999 0.74682647 0
3.1890211 -1.6431581 -0.062619232 0
3.2290642 -1.6702144 0.063456953 0
3.2745059 -1.6944435 0.19322437 0
3.301316 -1.7097778 0.32526523 0
3.3397396 -1.7311565 0.46188486 0
3.3686874 -1.7469076 0.60102129 0
3.3979416 -1.7635835 0.74415511 0
3.1888783 -1.6564896 -0.06272395 0
3.2199616 -1.679064 0.063387141 0
3.2756541 -1.7095597 0.19364306 0
3.2935617 -1.7203687 0.32509091 0
3.3304617 -1.7403833 0.46139738 0
3.3730712 -1.7641486 0.60289848 0
3.3938143 -1.7757519 0.74453676 0
3.1937048 -1.6731789 -0.062933378 0
3.2241077 -1.6970038 0.063596569 0
3.2584631 -1.7165393 0.19301502 0
3.3030975 -1.7407891 0.32665971 0
3.3184872 -1.75038 0.46066615 0
3.3697667 -1.7789319 0.60352427 0
3.3939149 -1.7924374 0.74606317 0
3.1819532 -1.6826249 -0.06282866 0
3.2322948 -1.7157481 0.063875809 0
3.2524514 -1.7279031 0.19301502 0
3.3005195 -1.7541784 0.32700834 0
3.3263779 -1.7694111 0.46261609 0
3.3460999 -1.7814006 0.60039556 0
3.3997672 -1.8107339 0.74873453 0
3.1725316 -1.6918399 -0.062758856 0
3.2139452 -1.7204144 0.063631475 0
3.2519858 -1.7415079 0.19332905 0
3.2855959 -1.7609828 0.32613677 0
3.3306768 -1.7866417 0.46407849 0
3.3471363 -1.7962232 0.60164702 0
3.3916962 -1.8216612 0.74835294 0
3.1633813 -1.7004576 -0.062689044 0
3.2099822 -1.7320123 0.063666381 0
3.2581885 -1.7594918 0.19406174 0
3.2724178 -1.7686516 0.32543954 0
3.3212414 -1.7957885 0.46359101 0
3.3460579 -1.8107166 0.60258561 0
3.3752778 -1.8272905 0.74606317 0
3.164458 -1.7153012 -0.06282866 0
3.2039168 -1.7432067 0.063666381 0
3.2502728 -1.7698992 0.19395708 0
3.2770326 -1.7852125 0.32648543 0
3.3010097 -1.7997687 0.4616411 0
3.351855 -1.8290087 0.60477573 0
3.3688788 -1.8390613 0.74606317 0
3.1689796 -1.7320913 -0.063038096 0
3.1995654 -1.7553418 0.063701279 0
3.237072 -1.7773889 0.19353838 0
3.2914207 -1.8087257 0.32857716 0
3.3086238 -1.8189311 0.46359101 0
3.3419886 -1.8387933 0.60415 0
3.3707142 -1.8561314 0.7479713 0
3.1629143 -1.7431425 -0.063038096 0
3.2018585 -1.771898 0.063875809 0
3.2360902 -1.7915796 0.19385241 0
3.278116 -1.8163415 0.32787988 0
3.3019347 -1.8310456 0.46359101 0
3.3251855 -1.844698 0.60227275 0
3.372797 -1.8726512 0.74987942 0
3.1480703 -1.749316 -0.062863566 0
3.1889794 -1.77861 0.063736185 0
3.2263288 -1.8009179 0.19364306 0
3.2647984 -1.8238863 0.32718265 0
3.3027761 -1.8458591 0.46456599 0
3.3256221 -1.8601512 0.60352427 0
3.3699951 -1.8857429 0.75064266 0
3.1436894 -1.7612716 -0.062898472 0
3.1810086 -1.7887505 0.063701279 0
3.2287257 -1.8170667 0.19416642 0
3.2604682 -1.8356804 0.32735696 0
3.2997713 -1.8593256 0.46505347 0
3.3294322 -1.8775704 0.60540146 0
3.3599722 -1.8955655 0.74987942 0
3.1444871 -1.7761682 -0.063038096 0
3.1747451 -1.7998435 0.063701279 0
3.2275743 -1.8312829 0.19448043 0
3.2471097 -1.843116 0.32665971 0
3.281179 -1.8639688 0.46334729 0
3.3331618 -1.8950386 0.60727865 0
3.3465087 -1.9033999 0.74835294 0
3.1452186 -1.791092 -0.063177712 0
3.1736517 -1.8138913 0.063805997 0
3.2180161 -1.839993 0.19427109 0
3.2544906 -1.8623559 0.32805422 0
3.2832656 -1.8803439 0.46456599 0
3.3302872 -1.9080454 0.60790437 0
3.346657 -1.9189763 0.74987942 0
3.1409962 -1.8025073 -0.063212618 0
3.1832147 -1.8333877 0.064120144 0
3.208113 -1.8492199 0.19406174 0
3.2462442 -1.8727093 0.32787988 0
3.2787311 -1.8922135 0.46480972 0
3.3167646 -1.9157069 0.60665292 0
3.3504744 -1.9359568 0.75216907 0
3.119107 -1.8044482 -0.062898472 0
3.183713 -1.8485044 0.06425976 0
3.2120001 -1.8664281 0.19468978 0
3.2331262 -1.8794587 0.32718265 0
3.2892644 -1.9136291 0.4672471 0
3.3066428 -1.9252847 0.60602719 0
3.3436964 -1.9476404 0.75216907 0
3.119699 -1.8193547 -0.063038096 0
3.1720636 -1.8565762 0.064155042 0
3.2158058 -1.8836852 0.1953178 0
3.235141 -1.8957696 0.32805422 0
3.2740028 -1.9200777 0.46602839 0
3.3016057 -1.9378153 0.60634005 0
3.3250263 -1.9523417 0.74949777 0
3.1219485 -1.8353002 -0.063212618 0
3.1603968 -1.8645889 0.064050332 0
3.2023315 -1.8908372 0.19489913 0
3.2370811 -1.9121175 0.32892576 0
3.2570279 -1.9254336 0.46456599 0
3.2982218 -1.95134 0.60696578 0
3.3198807 -1.9649361 0.74987942 0
3.1241248 -1.8512839 -0.063387141 0
3.1624622 -1.8807201 0.064224854 0
3.1888466 -1.897918 0.19448043 0
3.2334745 -1.9260079 0.32927439 0
3.257108 -1.9408555 0.46554092 0
3.2981768 -1.9668883 0.6082173 0
3.326143 -1.9851403 0.75293231 0
3.1210773 -1.8642287 -0.063456953 0
3.1606929 -1.8953838 0.064329572 0
3.1818688 -1.9095929 0.19448043 0
3.2267315 -1.9372834 0.32927439 0
3.2567785 -1.95687 0.46651587 0
3.2807882 -1.9728553 0.60634005 0
3.3292873 -2.002811 0.75522202 0
3.1107974 -1.8735921 -0.063387141 0
3.1574802 -1.9084738 0.064399377 0
3.1854374 -1.9268905 0.19510846 0
3.2114267 -1.9433773 0.32840282 0
3.2601159 -1.9743963 0.46797833 0
3.2772603 -1.9863434 0.60696578 0
3.3256333 -2.0164557 0.75598526 0
3.1008198 -1.8823642 -0.063317336 0
3.1422603 -1.914282 0.064224854 0
3.1892631 -1.9436796 0.1957365 0
3.2165303 -1.9618376 0.32962301 0
3.2532041 -1.9857643 0.46797833 0
3.2740271 -1.9992594 0.60759157 0
3.3051724 -2.0198622 0.75293231 0
3.1013844 -1.8968097 -0.063456953 0
3.1256695 -1.9184155 0.064015426 0
3.1858625 -1.9568909 0.19594584 0
3.2113597 -1.9740968 0.32979733 0
3.2432194 -1.9944618 0.46749085 0
3.2838514 -2.021029 0.61072022 0
3.3018 -2.0328701 0.75369561 0
3.1083624 -1.9160186 -0.063736185 0
3.1274571 -1.9345742 0.064189956 0
3.1722195 -1.9637948 0.19552715 0
3.20649 -1.9857844 0.32997164 0
3.2396121 -2.0078619 0.46797833 0
3.270062 -2.0283146 0.60946876 0
3.3030248 -2.0495586 0.75560367 0
3.1016552 -1.926857 -0.063736185 0
3.1308665 -1.9518268 0.064399377 0
3.1653454 -1.9748559 0.19552715 0
3.2062995 -2.0011847 0.33066887 0
3.2325838 -2.0191581 0.46797833 0
3.2562621 -2.0355287 0.6082173 0
3.3025088 -2.0652397 0.75713015 0
3.0915205 -1.9355499 -0.063666381 0
3.1223412 -1.9616797 0.064364478 0
3.1601231 -1.986956 0.19563182 0
3.187489 -2.0049388 0.3294487 0
3.2423155 -2.0410047 0.47041571 0
3.2524796 -2.0489886 0.60884303 0
3.2969406 -2.0778017 0.75751179 0
3.0762897 -1.940994 -0.063491859 0
3.1137853 -1.9714973 0.064329572 0
3.1616035 -2.00332 0.19615518 0
3.188885 -2.0213864 0.33032027 0
3.2368476 -2.0533733 0.47065943 0
3.2586489 -2.0687993 0.61134595 0
3.2846956 -2.0861399 0.75636691 0
3.0813076 -1.9592311 -0.063736185 0
3.1089163 -1.9828873 0.064364478 0
3.1586618 -2.0153911 0.19636452 0
3.1855228 -2.0340943 0.33066887 0
3.2132933 -2.0534067 0.46822205 0
3.2571266 -2.0822184 0.6122846 0
3.2645297 -2.0885568 0.75331396 0
3.0869257 -1.9764497 -0.06398052 0
3.1124184 -1.9996715 0.064573906 0
3.1448879 -2.022084 0.19594584 0
3.1867805 -2.0505924 0.33154044 0
3.2131429 -2.0683491 0.46919701 0
3.2514987 -2.094645 0.61259741 0
3.2691376 -2.1068151 0.75598526 0
3.0716064 -1.9817922 -0.063805997 0
3.1154904 -2.0170441 0.064783335 0
3.1411626 -2.0352213 0.19615518 0
3.1833065 -2.0633163 0.33188906 0
3.2142305 -2.0849535 0.47041571 0
3.23754 -2.1016796 0.61134595 0
3.2782285 -2.1289067 0.75980145 0
3.0579641 -1.9881423 -0.063666381 0
3.1134553 -2.0311849 0.064888045 0
3.1407287 -2.0505412 0.19657388 0
3.1690509 -2.0706108 0.33119181 0
3.2102563 -2.0983329 0.47090316 0
3.2367964 -2.1172934 0.61259741 0
3.2835445 -2.1495099 0.7628544 0
3.0543509 -2.0009961 -0.063736185 0
3.0926232 -2.0337925 0.064608812 0
3.136529 -2.0642345 0.19678321 0
3.1651323 -2.0838513 0.33154044 0
3.2058594 -2.1122696 0.47139066 0
3.2323127 -2.1313174 0.61322314 0
3.2547166 -2.1469054 0.75789338 0
3.0536709 -2.0165849 -0.063875809 0
3.0871723 -2.04568 0.064643718 0
3.1342978 -2.0784822 0.19709724 0
3.1594994 -2.0959883 0.33171475 0
3.1885438 -2.1168592 0.46992823 0
3.2330801 -2.1480532 0.61478752 0
3.2439325 -2.15608 0.75713015 0
3.0532722 -2.0316632 -0.064015426 0
3.0916541 -2.0642164 0.064888045 0
3.1203804 -2.0849717 0.19667853 0
3.1571331 -2.1103261 0.33223769 0
3.1811352 -2.1279764 0.46992823 0
3.2272036 -2.1604245 0.61510038 0
3.2494366 -2.1761293 0.7601831 0
3.0461619 -2.0423088 -0.064015426 0
3.0894074 -2.0783443 0.064992763 0
3.1163971 -2.0980821 0.19688788 0
3.154705 -2.1246724 0.3327606 0
3.1819179 -2.1446152 0.47114691 0
3.2098167 -2.1650486 0.61322314 0
3.2434483 -2.1885571 0.76056474 0
3.0323861 -2.0484519 -0.063875809 0
3.0854442 -2.0913599 0.065062575 0
3.1140134 -2.1123109 0.19720189 0
3.1439722 -2.1334338 0.332412 0
3.1891928 -2.1657462 0.47334057 0
3.2071409 -2.1795707 0.61416179 0
3.2422831 -2.2042806 0.76209116 0
3.0318298 -2.063525 -0.064015426 0
3.0731711 -2.0987341 0.064957857 0
3.1132169 -2.1276758 0.1976206 0
3.1365056 -2.1443956 0.332412 0
3.1832516 -2.1779861 0.47358429 0
3.2076631 -2.1963327 0.61572611 0
3.2345691 -2.215585 0.76209116 0
3.0328543 -2.0797501 -0.064189956 0
3.0608842 -2.1060479 0.064853139 0
3.1041257 -2.1373973 0.19751592 0
3.1421275 -2.1643724 0.33380648 0
3.1690922 -2.1845777 0.47260937 0
3.2016029 -2.208638 0.61603898 0
3.2235842 -2.224632 0.76132792 0
3.0305119 -2.0937343 -0.064294666 0
3.0699487 -2.1281121 0.065202191 0
3.0966458 -2.1482198 0.19751592 0
3.1427376 -2.1810071 0.33467805 0
3.1614473 -2.1956267 0.47260937 0
3.200362 -2.2243092 0.61729044 0
3.2286944 -2.2448368 0.76438087 0
3.023185 -2.1042998 -0.064294666 0
3.0674198 -2.1422503 0.065306902 0
3.089505 -2.1584768 0.19751592 0
3.1334727 -2.1908226 0.33450374 0
3.1651492 -2.2146151 0.47431552 0
3.1848769 -2.2292461 0.61572611 0
3.2240546 -2.2583461 0.76514411 0
3.0129151 -2.1120176 -0.064224854 0
3.0635703 -2.1547112 0.065376714 0
3.0933847 -2.177295 0.19824862 0
3.1225481 -2.1994522 0.33415511 0
3.1626561 -2.2285295 0.47504675 0
3.1770759 -2.24035 0.61572611 0
3.2197566 -2.2712886 0.76590741 0
3.0071578 -2.1236753 -0.06425976 0
3.0527668 -2.1630797 0.065306902 0
3.0910358 -2.1910059 0.19856264 0
3.1168625 -2.2109478 0.33432943 0
3.1597137 -2.2430027 0.47577798 0
3.185735 -2.2623107 0.61885482 0
3.2118089 -2.2825134 0.76590741 0
3.0180247 -2.1463842 -0.064643718 0
3.0358105 -2.1662221 0.065097481 0
3.0833688 -2.2017822 0.19856264 0
3.1172311 -2.2276063 0.335201 0
3.1490288 -2.2511592 0.47529048 0
3.1858516 -2.2791638 0.62041914 0
3.204222 -2.2931519 0.76590741 0
3.0088882 -2.1557415 -0.064608812 0
3.0412204 -2.1861434 0.065376714 0
3.0724218 -2.2101991 0.19835329 0
3.109827 -2.2379308 0.335201 0
3.1475947 -2.2667782 0.47626543 0
3.1778762 -2.2902706 0.62041914 0
3.2025681 -2.3089154 0.76743382 0
3.0094526 -2.1720829 -0.064783335 0
3.0465276 -2.2061286 0.065655954 0
3.064688 -2.2209108 0.19835329 0
3.1161196 -2.2598414 0.33676979 0
3.1348426 -2.2742546 0.47553423 0
3.16187 -2.2955468 0.61885482 0
3.2004371 -2.3252535 0.7689603 0
2.9905307 -2.1743429 -0.064539 0
3.03196 -2.2125649 0.065516338 0
3.0678182 -2.2403736 0.199086 0
3.1001682 -2.264828 0.33589822 0
3.1393063 -2.2951014 0.47748414 0
3.1598122 -2.3117862 0.62010628 0
3.1970539 -2.3398898 0.77010518 0
2.9889932 -2.1900167 -0.064678617 0
3.0258296 -2.2243195 0.065551244 0
3.0696318 -2.2581699 0.19971403 0
3.0890346 -2.2732739 0.33554959 0
3.1376693 -2.3107545 0.47845906 0
3.1580839 -2.3274894 0.62135774 0
3.1857061 -2.3487048 0.76934189 0
2.9781127 -2.1980617 -0.064608812 0
3.0132258 -2.231298 0.065446526 0
3.0621266 -2.2683368 0.19971403 0
3.0874827 -2.288789 0.33624685 0
3.1168299 -2.3122311 0.47650915 0
3.1630387 -2.347367 0.62386072 0
3.1696076 -2.3539581 0.76743382 0
2.9948819 -2.2258179 -0.06513238 0
3.0202377 -2.2520359 0.065760665 0
3.0449822 -2.2713137 0.199086 0
3.0910523 -2.3073575 0.33746704 0
3.1139159 -2.326118 0.47724038 0
3.1489077 -2.3531134 0.62260926 0
3.1727898 -2.3726866 0.77010518 0
2.9746764 -2.2261517 -0.064853139 0
3.0207489 -2.2680421 0.065935194 0
3.0422244 -2.284997 0.19940001 0
3.0881615 -2.3211865 0.33798996 0
3.1109445 -2.3400114 0.47797161 0
3.1410871 -2.3635423 0.62260926 0
3.1774507 -2.3926425 0.77315807 0
2.9608898 -2.2311902 -0.064713523 0
3.0243771 -2.2864888 0.066179529 0
3.0441883 -2.3023014 0.20002805 0
3.0756812 -2.3278074 0.33746704 0
3.1237392 -2.3658955 0.4811402 0
3.1363809 -2.3763313 0.62323499 0
3.1726282 -2.4055383 0.77392131 0
2.9598465 -2.2458315 -0.064853139 0
2.9996703 -2.2859638 0.065830477 0
3.0416789 -2.3188167 0.20044672 0
3.0698886 -2.3420169 0.33781564 0
3.1067426 -2.3718495 0.47992152 0
3.1397922 -2.3979485 0.62573791 0
3.1555686 -2.4117417 0.77201319 0
2.9575548 -2.2620397 -0.064992763 0
2.9920731 -2.2958984 0.065830477 0
3.0351503 -2.3306367 0.20055141 0
3.0711737 -2.3600028 0.33886153 0
3.0972867 -2.3809288 0.47967777 0
3.1329689 -2.4100986 0.62605083 0
3.156889 -2.4293766 0.7743029 0
2.9559774 -2.277231 -0.06513238 0
2.9966984 -2.3161116 0.066109717 0
3.0206773 -2.336329 0.20013271 0
3.0664821 -2.3726125 0.33921015 0
3.0889568 -2.391726 0.47967777 0
3.1260982 -2.4222298 0.62636369 0
3.1514931 -2.4427872 0.7750662 0
2.9622293 -2.2985685 -0.065446526 0
2.9949071 -2.3314714 0.066249333 0
3.0188057 -2.351769 0.20055141 0
3.0577655 -2.3838358 0.33921015 0
3.0962429 -2.4147015 0.48211515 0
3.1145093 -2.430696 0.62573791 0
3.1471608 -2.4579468 0.77621108 0
2.9400074 -2.297812 -0.06513238 0
2.9894886 -2.3449011 0.066319145 0
3.019592 -2.3702166 0.20117943 0
3.0462918 -2.3920338 0.33886153 0
3.0936148 -2.4309397 0.48309013 0
3.1086853 -2.4445372 0.62636369 0
3.1462767 -2.4749866 0.77811909 0
2.9268527 -2.3048604 -0.065027662 0
2.9797161 -2.3540823 0.066284239 0
3.0191338 -2.3869357 0.20170279 0
3.0363605 -2.4014168 0.33868721 0
3.0897801 -2.4454195 0.48382133 0
3.1094246 -2.4627326 0.62824088 0
3.1299243 -2.4798582 0.77621108 0
2.9407234 -2.3324604 -0.065516338 0
2.9714806 -2.3644693 0.066284239 0
3.0158899 -2.4006662 0.20201682 0
3.0451019 -2.4256566 0.34060463 0
3.0734642 -2.4500029 0.48260266 0
3.1089628 -2.479188 0.62980521 0
3.1197143 -2.4895437 0.77582937 0
2.9376602 -2.345943 -0.065621048 0
2.9698658 -2.3793116 0.066423863 0
3.0043752 -2.4086804 0.20180747 0
3.0366166 -2.4362707 0.34060463 0
3.069967 -2.4639089 0.48333386 0
3.1049101 -2.4937363 0.6307438 0
3.1190939 -2.5060234 0.7777375 0
2.9247789 -2.352423 -0.065516338 0
2.9739928 -2.3997092 0.066703096 0
2.9932628 -2.4161212 0.20159812 0
3.0455697 -2.460099 0.34252208 0
3.0675228 -2.4796019 0.48430881 0
3.0904796 -2.4990506 0.62949234 0
3.124063 -2.5280111 0.7811721 0
2.9200697 -2.3646259 -0.065586142 0
2.9660187 -2.4095583 0.066703096 0
2.9972086 -2.4366343 0.20243551 0
3.0292361 -2.4644279 0.34165049 0
3.0654418 -2.4947724 0.48528376 0
3.0817375 -2.5098231 0.62949234 0
3.1187062 -2.5408366 0.78193527 0
2.9133477 -2.3760684 -0.065621048 0
2.9529467 -2.4160984 0.066598386 0
2.9948664 -2.4521425 0.20285419 0
3.0225883 -2.4757223 0.34182483 0
3.05825 -2.5067163 0.48552752 0
3.085176 -2.530587 0.63199526 0
2.911217 -2.3913002 -0.065760665 0
2.9460378 -2.4276626 0.066633284 0
2.9909112 -2.4663935 0.2031682 0
3.024251 -2.4956608 0.343045 0
3.0494814 -2.5173762 0.48552752 0
3.0808928 -2.5451152 0.63293391 0
2.9105558 -2.4078212 -0.065935194 0
2.9448133 -2.4448309 0.066807814 0
2.9792106 -2.4742668 0.20295887 0
3.0293119 -2.5176637 0.34461379 0
3.0402341 -2.5285361 0.48552752 0
3.0750272 -2.5583811 0.63355964 0
2.9082787 -2.4230866 -0.066074811 0
2.9504986 -2.4661245 0.067121953 0
2.9644275 -2.4795253 0.20254017 0
3.0143936 -2.5231073 0.34391654 0
3.0409648 -2.5462506 0.48698995 0
3.0645638 -2.5678306 0.63324684 0
2.8936753 -2.4280818 -0.065935194 0
2.9464617 -2.4802723 0.067226671 0
2.9679744 -2.5001521 0.20337754 0
2.9999161 -2.5279541 0.34321931 0
3.0411637 -2.5645282 0.4884524 0
3.0586009 -2.5810602 0.63387251 0
2.8851821 -2.4381678 -0.065935194 0
2.9301593 -2.4840767 0.067052148 0
2.9729369 -2.5221257 0.2043196 0
2.995187 -2.5428007 0.34374225 0
3.0412714 -2.5828381 0.48991477 0
3.0555937 -2.596838 0.63512403 0
2.8873138 -2.4572964 -0.066179529 0
2.931679 -2.5038903 0.067296483 0
2.9610775 -2.5298929 0.20411025 0
2.9893215 -2.5558298 0.34409088 0
3.0212259 -2.5849338 0.48820862 0
3.0555148 -2.615195 0.63700122 0
2.8878284 -2.475168 -0.066388957 0
2.9263921 -2.5162055 0.067366287 0
2.9461727 -2.5350032 0.20369156 0
2.9939702 -2.577949 0.34565967 0
3.0141418 -2.5962341 0.4884524 0
3.0508564 -2.6297138 0.63793981 0
2.8791709 -2.4852333 -0.066388957 0
2.9221263 -2.5303328 0.067471005 0
2.9418342 -2.5491955 0.20400558 0
2.9914267 -2.5930831 0.34635693 0
3.0140576 -2.6145442 0.48991477 0
3.0341997 -2.6338727 0.63637549 0
2.8644414 -2.490021 -0.066249333 0
2.913276 -2.5405176 0.067471005 0
2.9434519 -2.5686414 0.20473827 0
2.9763532 -2.5982685 0.34565967 0
3.015378 -2.6341913 0.49162099 0
3.0339105 -2.6522489 0.63825274 0
2.8587413 -2.5026391 -0.066319145 0
2.9104002 -2.555949 0.067610621 0
2.9464695 -2.589448 0.20557566 0
2.9642725 -2.6060112 0.34531105 0
3.0046737 -2.6433892 0.4913772 0
3.0305643 -2.6680443 0.63950419 0
2.8574882 -2.5192144 -0.066493668 0
2.9014604 -2.5660927 0.067610621 0
2.9418995 -2.6036885 0.20588967 0
2.9656003 -2.6255875 0.34653121 0
2.9939425 -2.6525455 0.49113351 0
3.0301018 -2.6864693 0.64138144 0
2.8531632 -2.5331566 -0.066598386 0
2.8999522 -2.5828552 0.067785151 0
2.923847 -2.605968 0.20526163 0
2.9653401 -2.6438789 0.3475771 0
2.9861465 -2.6643012 0.4913772 0
3.0236523 -2.699661 0.64200711 0
2.8532476 -2.5510976 -0.066807814 0
2.8953843 -2.5969679 0.067889862 0
2.9162192 -2.6174927 0.20536631 0
2.959058 -2.6568758 0.34792572 0
2.9797816 -2.6773624 0.49186471 0
3.0083349 -2.7049165 0.64075565 0
2.8339229 -2.5516756 -0.06656348 0
2.8937213 -2.6137607 0.068064384 0
2.9223423 -2.6405389 0.20641303 0
2.9453323 -2.6631799 0.34740278 0
2.9792492 -2.6957388 0.49332717 0
3.0096002 -2.7241566 0.64294571 0
2.8328536 -2.5677741 -0.066738002 0
2.8835588 -2.6219969 0.068029478 0
2.9209571 -2.656935 0.20693639 0
2.9364848 -2.6729321 0.34740278 0
2.9864364 -2.7203076 0.49600828 0
3.0078506 -2.7407746 0.64451009 0
2.8302317 -2.5825455 -0.066877626 0
2.8704228 -2.6274941 0.067924768 0
2.9146104 -2.6698129 0.20714574 0
2.9393563 -2.6934237 0.34879729 0
2.9686205 -2.7221465 0.49454582 0
3.0040872 -2.7565994 0.64576155 0
2.8388693 -2.6086454 -0.067296483 0
2.8759367 -2.651051 0.068273813 0
2.8994014 -2.6745536 0.20672706 0
2.9431143 -2.7158277 0.35036606 0
2.9736843 -2.7459593 0.4969832 0
2.8312137 -2.6198976 -0.067331389 0
2.8695965 -2.6637948 0.068343624 0
2.8973644 -2.6914549 0.20725042 0
2.9292386 -2.7220163 0.34984317 0
2.8132732 -2.6215844 -0.067121953 0
2.8632021 -2.6765265 0.068413429 0
2.8908689 -2.7042811 0.20745975 0
2.8113961 -2.6382306 -0.067296483 0
2.8417268 -2.6760354 0.068134196 0
2.8108904 -2.6562686 -0.067505911 0
2.8088443 -2.6729572 -0.067680433 0
