# .PCD v0.7 - Point Cloud Data file format
VERSION 0.7
FIELDS x y z intensity
SIZE 4 4 4 4
TYPE F F F F
COUNT 1 1 1 1
WIDTH 1318
HEIGHT 1
VIEWPOINT 0 0 0 1 0 0 0
POINTS 1318
DATA ascii
-14.41647 -4.1692805 3.4646962 82
-5.9418755 -1.7172821 -0.10796059 1
-11.924731 -3.4441531 3.3258247 79
-1.6969715 -0.48788148 -0.47312123 1
-6.223248 -1.7880143 0.11302178 3
-1.9592226 -0.56253821 -0.47059759 4
-6.1049399 -1.7517182 0.33285671 22
-2.3268025 -0.66764003 -0.47053501 5
-5.9811935 -1.7150797 0.54437476 10
-2.8617163 -0.8200435 -0.47149354 7
-6.1812558 -1.7701135 0.78946966 11
-3.7711554 -1.0792249 -0.48162767 4
-19.176561 -5.4843059 3.1590378 61
-5.4252234 -1.5505357 -0.49365011 9
-16.760647 -4.7902141 3.3883865 55
-6.0302572 -1.7223167 -0.32866985 14
-14.387836 -4.1066298 3.4543483 81
-5.9439883 -1.6954336 -0.10789078 1
-11.906956 -3.3940334 3.3175428 79
-1.6764454 -0.47533435 -0.46690959 1
-6.2140603 -1.7619162 0.11274255 3
-1.9592994 -0.55516499 -0.47014773 3
-5.94383 -1.6830547 0.32375026 18
-2.3254559 -0.6580376 -0.46977177 100
-5.9912739 -1.6942316 0.54472339 6
-2.8723063 -0.81169796 -0.472745 7
-6.1262689 -1.7312497 0.78167003 7
-3.7653477 -1.063357 -0.480409 4
-19.144258 -5.4028521 3.1505907 63
-5.4459434 -1.535915 -0.49504462 7
-16.744078 -4.7191644 3.3815172 55
-6.0249944 -1.6969558 -0.32804179 14
-14.363398 -4.0427804 3.4449005 84
-5.9306207 -1.6692566 -0.10754173 1
-11.900132 -3.3472185 3.3123662 84
-1.6892568 -0.47260281 -0.47001541 2
-6.2127724 -1.7369763 0.11260293 3
-1.9631978 -0.54850394 -0.47059759 3
-5.9804463 -1.6708953 0.32542503 22
-2.318284 -0.647277 -0.46786368 100
-5.9472551 -1.6593845 0.54019129 6
-2.8694139 -0.80007505 -0.47180638 7
-5.973856 -1.6645607 0.76143968 10
-3.7652121 -1.0491421 -0.47992152 4
-19.096397 -5.3174419 3.1396401 61
-5.4416742 -1.514225 -0.49417305 6
-16.728294 -4.6517501 3.3750298 60
-6.0251079 -1.6743083 -0.32772776 12
-14.33354 -3.9831262 3.4345527 89
-5.8978763 -1.6378433 -0.10684364 1
-11.874514 -3.2953298 3.3020134 82
-1.6889526 -0.46648404 -0.46949777 3
-6.1953669 -1.7099798 0.11218407 3
-1.9762776 -0.54509962 -0.47329703 3
-6.0013571 -1.6553025 0.32626238 27
-2.3166323 -0.63854223 -0.46710047 100
-5.9565663 -1.6407127 0.54053992 2
-2.8720512 -0.79055524 -0.47180638 7
-5.946805 -1.6357911 0.75729614 13
-3.7744124 -1.0382298 -0.48065275 4
-19.070116 -5.2420478 3.1324439 61
-5.4389806 -1.4940603 -0.49347579 6
-16.694403 -4.5827384 3.3651078 60
-5.9978838 -1.6453367 -0.32594836 12
-14.324119 -3.9293859 3.4291539 89
-5.8917036 -1.615104 -0.1066342 1
-11.842524 -3.2441943 3.290108 77
-1.6867626 -0.45986438 -0.4684625 3
-6.1739922 -1.6820663 0.1116954 3
-1.9705532 -0.53649575 -0.47149745 4
-6.0533509 -1.646929 0.32877451 15
-2.3168426 -0.63034099 -0.46671882 100
-2.8651257 -0.77843702 -0.47024205 7
-5.9636912 -1.6191823 0.7587586 14
-3.7741821 -1.0240086 -0.48016527 4
-19.042545 -5.1630383 3.1249354 66
-5.4518547 -1.4771508 -0.49417305 6
-16.662134 -4.5145159 3.3555672 55
-5.9955955 -1.6233513 -0.32552966 12
-14.300125 -3.8691816 3.4201558 89
-5.8780012 -1.5893101 -0.10628515 1
-11.831395 -3.1967893 3.2838962 71
-1.6828399 -0.45217508 -0.46690959 2
-6.090991 -1.6366349 0.11008978 14
-1.9667677 -0.52809781 -0.47014773 5
-6.153585 -1.6511512 0.33390343 8
-2.3267229 -0.62387902 -0.46824533 100
-6.4413028 -1.7259425 0.58342052 7
-2.8679593 -0.76793128 -0.47024205 7
-5.9693069 -1.5983552 0.7587586 11
-3.7758155 -1.0103148 -0.47992152 4
-19.026098 -5.0873547 3.1193035 61
-5.4492784 -1.4560539 -0.49347579 6
-16.634943 -4.4417629 3.3467901 58
-5.9744887 -1.5941552 -0.32406428 13
-14.278434 -3.8072071 3.4116075 82
-5.8951063 -1.5718734 -0.10649458 1
-11.818216 -3.1490011 3.2771668 79
-1.7012147 -0.45075116 -0.47156835 3
-6.0795512 -1.6096931 0.10977564 26
-1.9611542 -0.51889187 -0.46834809 5
-6.4048209 -1.693423 0.34719676 26
-2.3288863 -0.61575329 -0.46824533 100
-6.5262666 -1.7243146 0.59056729 11
-2.882082 -0.76094109 -0.47211927 6
-5.9924002 -1.5810236 0.76095223 6
-3.7718153 -0.99444449 -0.47894657 4
-18.987312 -5.0024881 3.1099176 58
-5.4719195 -1.4406356 -0.49504462 5
-16.612375 -4.3736715 3.3391573 60
-5.9626327 -1.5687184 -0.32312223 13
-14.248289 -3.7459457 3.4012599 86
-5.8892241 -1.5472059 -0.10628515 1
-11.784833 -3.0938938 3.2647436 59
-1.7028553 -0.44451284 -0.47156835 3
-6.1102862 -1.5950273 0.1102294 32
-1.976153 -0.5154866 -0.47149745 4
-6.2348189 -1.625211 0.33767161 11
-2.3292277 -0.60671848 -0.46786368 100
-5.9560285 -1.5503194 0.53844815 17
-2.8905871 -0.75186431 -0.4730579 7
-6.2130532 -1.6160637 0.78825098 13
-3.7791064 -0.98227108 -0.47943404 4
-18.949213 -4.921773 3.1008444 58
-5.4518447 -1.4150205 -0.49277857 6
-16.590286 -4.3029008 3.3315253 60
-5.9586763 -1.5443468 -0.32259887 12
-14.224193 -3.6839261 3.392262 91
-5.8597441 -1.5176162 -0.10565687 1
-11.328002 -2.9317315 3.135334 27
-1.6969128 -0.43664074 -0.46949777 3
-6.1238384 -1.5746131 0.11036902 27
-1.9780293 -0.50823963 -0.47149745 3
-6.4051676 -1.6445692 0.34656873 13
-2.327528 -0.59760821 -0.46710047 100
-6.0000014 -1.5394225 0.54193443 25
-2.8797996 -0.73833555 -0.47086781 7
-6.3381591 -1.6238277 0.80336279 15
-3.7826812 -0.96841329 -0.47943404 4
-18.926933 -4.84201 3.094274 61
-5.4644713 -1.3979563 -0.49347579 6
-16.56336 -4.234262 3.3231297 58
-5.9543548 -1.5210673 -0.32207552 13
-14.21053 -3.6275036 3.3859634 91
-5.83814 -1.4892076 -0.10516821 1
-11.319952 -2.885421 3.1301577 27
-1.6815734 -0.42644081 -0.46483904 3
-6.1273594 -1.5527359 0.11033412 21
-1.9816803 -0.50181067 -0.47194731 3
-6.0933266 -1.5418487 0.32940254 26
-2.3295999 -0.58947939 -0.46710047 100
-5.9589796 -1.5067471 0.5377509 10
-2.8785288 -0.72731143 -0.47024205 7
-6.3322411 -1.598776 0.80190039 12
-3.7898879 -0.95617443 -0.47992152 4
-18.899664 -4.764811 3.0870781 60
-5.4693174 -1.3788744 -0.49347579 7
-16.534252 -4.1653914 3.3143525 55
-5.9499435 -1.4978353 -0.32155213 12
-14.18342 -3.5678937 3.3765154 60
-5.8588171 -1.4727209 -0.10544744 1
-11.337449 -2.8477714 3.1322281 29
-1.7036682 -0.42571971 -0.47053304 3
-1.9645121 -0.49017245 -0.46744829 3
-6.0928583 -1.51912 0.32908851 11
-2.3411679 -0.58371866 -0.46900854 100
-5.9835353 -1.4907551 0.53949404 20
-2.8868005 -0.71869063 -0.47118065 7
-6.3185196 -1.5718702 0.79946297 18
-3.7912762 -0.94246048 -0.47967777 4
-11.680988 -2.9015727 1.9063107 30
-5.4740977 -1.359773 -0.49347579 7
-11.661255 -2.8945103 2.3355021 29
-5.9260583 -1.4698447 -0.31998208 13
-11.689536 -2.8971989 2.780395 30
-5.8600407 -1.4512992 -0.10537763 1
-11.351071 -2.8091071 3.1332636 28
-1.7088956 -0.42069417 -0.47156835 3
-6.1283402 -1.5075341 0.11015959 3
-1.9718885 -0.48470706 -0.46879801 3
-6.111701 -1.5011787 0.32982123 22
-2.3355649 -0.57367015 -0.46748206 100
-6.1086707 -1.4993042 0.55030131 20
-2.889292 -0.70860869 -0.47118065 7
-6.3143272 -1.5474421 0.79824424 16
-3.7791176 -0.92544413 -0.47772786 4
-11.662263 -2.8537374 1.9016175 30
-5.4942937 -1.344445 -0.49487031 6
-11.665565 -2.8523879 2.3343573 43
-5.9039903 -1.4425145 -0.31851667 14
-11.659822 -2.8466706 2.7709472 31
-5.8534145 -1.4279912 -0.10516821 1
-11.375823 -2.7731271 3.1374047 28
-1.7139633 -0.41623512 -0.47260359 3
-6.1252732 -1.4863875 0.11001997 3
-1.9734014 -0.47851017 -0.46879801 3
-6.3823166 -1.5464042 0.34416127 17
-2.3335395 -0.56540525 -0.46671882 100
-6.1869359 -1.4979197 0.55692518 6
-2.8915036 -0.69952875 -0.47118065 7
-6.2824965 -1.5187347 0.7936132 7
-3.7935841 -0.9163627 -0.47919029 5
-11.630845 -2.8073542 1.8950473 26
-5.4851632 -1.3229476 -0.49365011 7
-11.642024 -2.8078997 2.3278699 34
-5.9201431 -1.4267657 -0.3191447 18
-11.640288 -2.8031847 2.7641985 30
-5.8267651 -1.4021095 -0.10460973 1
-11.367575 -2.7333105 3.132746 26
-1.6948091 -0.40501118 -0.46690959 2
-6.1109748 -1.4603492 0.10967092 3
-1.9940143 -0.47614482 -0.47329703 4
-6.2031169 -1.4800785 0.33421743 8
-2.3355961 -0.55684853 -0.46671882 100
-6.3183641 -1.5052475 0.56825542 10
-2.8940482 -0.68892545 -0.47118065 7
-6.1429257 -1.4623176 0.77533287 9
-3.7871037 -0.90081906 -0.47797161 5
-11.615591 -2.7607994 1.89098 24
-5.4858713 -1.3028718 -0.49330151 7
-11.625495 -2.7588668 2.3225272 34
-5.9272761 -1.4055183 -0.31924936 14
-11.639108 -2.7578034 2.7614992 39
-5.8277316 -1.3808395 -0.10453992 1
-11.367646 -2.6913903 3.1301577 28
-1.6924515 -0.39820775 -0.46587428 2
-6.0968194 -1.4333663 0.10932188 3
-1.9824665 -0.46571356 -0.47014773 5
-6.2276888 -1.4629853 0.33526415 18
-2.3413482 -0.54958957 -0.46748206 100
-6.2944837 -1.4763569 0.56564075 13
-2.8983588 -0.67927051 -0.47149354 7
-6.1173186 -1.4325522 0.771433 20
-3.7923131 -0.88738388 -0.47821537 6
-11.600153 -2.7143826 1.8869127 26
-5.4942656 -1.2846229 -0.49365011 7
-11.604465 -2.7111225 2.3164213 35
-5.9088063 -1.379371 -0.31799328 14
-11.629684 -2.7127342 2.7570002 39
-5.8130417 -1.3559471 -0.10419086 1
-11.380734 -2.65257 3.1311929 29
-1.7051232 -0.39491323 -0.4689801 2
-6.066473 -1.4050189 0.10869358 3
-1.9764055 -0.45737934 -0.46834809 5
-6.1802187 -1.4290885 0.33243802 12
-2.3451653 -0.54185593 -0.46786368 100
-6.3151293 -1.4579629 0.56703526 16
-2.8928962 -0.66787791 -0.47024205 7
-6.1336417 -1.4149356 0.77289546 10
-3.7681532 -0.86856169 -0.474803 7
-11.584532 -2.6681128 1.8828454 29
-5.500658 -1.2658833 -0.49382445 7
-11.580867 -2.6651406 2.3099339 37
-5.8938832 -1.3552929 -0.31694657 14
-11.610128 -2.6676078 2.7502515 39
-5.7943516 -1.3302779 -0.10377201 1
-11.397457 -2.6145525 3.1332636 29
-1.7158409 -0.39140487 -0.47156835 3
-6.0596423 -1.3811665 0.10848416 3
-1.9855905 -0.45220855 -0.47014773 5
-6.1871166 -1.4079498 0.33254269 6
-2.3488638 -0.53451109 -0.46824533 6
-6.2966156 -1.4317119 0.56494349 7
-2.8990626 -0.65865093 -0.47086781 6
-6.1830678 -1.4036241 0.77850145 7
-3.732444 -0.84662062 -0.46992823 7
-11.56873 -2.6219826 1.8787781 30
-5.5167022 -1.2493149 -0.49487031 7
-11.567122 -2.6194956 2.3053544 38
-5.8810458 -1.3307453 -0.31600451 16
-11.577552 -2.6176097 2.7403536 35
-5.7950592 -1.3091623 -0.1037022 3
-11.414051 -2.5764556 3.135334 28
-1.7172641 -0.38511288 -0.47156835 3
-6.0722318 -1.3617561 0.10862378 3
-1.9890584 -0.44570079 -0.47059759 6
-6.3518114 -1.4221277 0.34112579 7
-2.33548 -0.52246958 -0.46519238 100
-6.3465424 -1.4186202 0.56895268 12
-2.9130244 -0.65060437 -0.472745 6
-6.1801801 -1.3803015 0.77752644 7
-3.7315018 -0.83272201 -0.46944076 7
-11.545036 -2.5742755 1.8734595 34
-5.5249186 -1.2309167 -0.4952189 7
-11.565148 -2.5745227 2.3030648 36
-5.874187 -1.3065795 -0.31537652 14
-11.560435 -2.5692391 2.734055 35
-5.811306 -1.2915287 -0.10391163 1
-11.422975 -2.5365973 3.135334 29
-1.6997328 -0.37495458 -0.46639192 3
-6.0576544 -1.3351883 0.10827474 3
-1.996388 -0.4396649 -0.47194731 6
-6.2009344 -1.3644983 0.33275205 18
-2.3449588 -0.51600164 -0.46671882 6
-6.3748064 -1.4015934 0.57104445 22
-2.9037015 -0.63788885 -0.47086781 6
-6.2278538 -1.3670037 0.78288871 14
-3.7733085 -0.82754564 -0.47431552 5
-11.52545 -2.5256007 1.8687663 32
-5.5175047 -1.2090647 -0.49417305 9
-11.543378 -2.5274181 2.2969587 38
-5.872858 -1.2847861 -0.31506249 16
-11.554104 -2.5255406 2.7304559 35
-5.8003716 -1.266807 -0.10363239 1
-11.452957 -2.4992433 3.1410282 46
-1.7029194 -0.36942908 -0.46690959 2
-6.0505514 -1.3114932 0.1080653 3
-1.9921968 -0.43145603 -0.47059759 5
-6.4242921 -1.390156 0.3444753 6
-2.3505833 -0.50864398 -0.46748206 6
-6.3893976 -1.3814362 0.57191598 18
-2.9097722 -0.62858331 -0.47149354 6
-6.2733355 -1.3540525 0.7880072 9
-3.8014009 -0.81980866 -0.47748414 4
-11.512955 -2.4807765 1.8653249 30
-5.5041628 -1.1860204 -0.49260426 9
-11.521421 -2.4805 2.290853 36
-5.8597341 -1.2604977 -0.31412044 14
-11.539987 -2.4802794 2.7250571 37
-5.7812963 -1.2415152 -0.10321353 1
-11.508833 -2.4693818 3.153969 63
-1.7117558 -0.36509433 -0.4689801 2
-6.0629163 -1.2920302 0.10820492 3
-1.9822546 -0.42206478 -0.46789822 5
-6.6225057 -1.4088663 0.35483781 13
-2.3581054 -0.50166136 -0.46862692 100
-6.741076 -1.4328593 0.60294342 11
-2.9100163 -0.61801267 -0.47118065 6
-6.3479314 -1.3469799 0.79678184 11
-3.7537491 -0.79582977 -0.47114691 4
-11.502217 -2.4364827 1.8621961 31
-5.5219131 -1.1696913 -0.49382445 9
-11.493517 -2.4325409 2.2836022 31
-5.838695 -1.2346638 -0.3127597 15
-11.529507 -2.4359565 2.7205582 39
-5.7855954 -1.2213255 -0.10321353 1
-11.509822 -2.4275982 3.1518984 30
-1.7224737 -0.36109841 -0.47156835 3
-6.0262876 -1.2622511 0.10747192 3
-1.9741787 -0.41314685 -0.46564871 5
-6.0819445 -1.2716914 0.32563433 7
-2.355999 -0.4926227 -0.46786368 100
-6.3130732 -1.3188705 0.5642463 25
-2.9198906 -0.60946548 -0.47243217 5
-6.3720274 -1.3288641 0.79921919 7
-3.6146393 -0.7531631 -0.453354 7
-11.487445 -2.3914859 1.8584416 31
-5.5376654 -1.1528455 -0.49487031 9
-11.488483 -2.3896072 2.2809308 33
-5.8312368 -1.2118384 -0.31213167 14
-11.49787 -2.3873763 2.7111101 39
-5.7663274 -1.1962481 -0.10279468 1
-11.487959 -2.3811357 3.1436164 34
-1.7142628 -0.35313511 -0.4689801 2
-6.0463262 -1.2444324 0.10775116 3
-1.9966056 -0.4105708 -0.47059759 5
-6.0922151 -1.2516609 0.32594836 5
-2.3480885 -0.48242068 -0.46595559 100
-6.2649422 -1.2860087 0.55953985 6
-2.9239357 -0.59966558 -0.472745 6
-6.3980188 -1.3109982 0.80190039 14
-3.6716995 -0.75168884 -0.4601787 6
-11.472501 -2.3466194 1.8546873 28
-5.5299444 -1.1311113 -0.49382445 9
-11.47752 -2.345562 2.2771149 33
-5.8354311 -1.191476 -0.31213167 15
-11.48895 -2.3437178 2.7070611 39
-5.7508731 -1.1721202 -0.10244562 1
-11.479163 -2.3375509 3.1389575 31
-1.7135917 -0.34676588 -0.4684625 3
-6.0349531 -1.2201489 0.10747192 3
-1.9961166 -0.40321296 -0.47014773 5
-6.1357031 -1.2382896 0.32804179 10
-2.3459096 -0.47344458 -0.46519238 100
-6.2967362 -1.2696452 0.56198025 17
-2.9240742 -0.58906597 -0.47243217 6
-6.369473 -1.2819982 0.79775679 4
-3.8280456 -0.76978415 -0.47943404 4
-11.445761 -2.2995572 1.8490556 26
-5.5260458 -1.1102327 -0.4931272 9
-11.462539 -2.3008471 2.2725353 34
-5.8219299 -1.1675632 -0.31118962 12
-11.460756 -2.2963278 2.6985128 38
-5.727479 -1.1465434 -0.10195696 1
-11.458838 -2.2917809 3.1311929 29
-1.7147917 -0.34078217 -0.4684625 3
-6.0234833 -1.1959612 0.10719268 3
-1.997512 -0.39624271 -0.47014773 5
-6.2494845 -1.2396985 0.33390343 10
-2.3533249 -0.46639779 -0.46633717 100
-6.4887567 -1.2848088 0.57871413 8
-2.9106102 -0.57578856 -0.46992919 6
-11.444993 -2.2620192 1.4324524 7
-3.8403144 -0.75901002 -0.48065275 3
-11.435883 -2.2581449 1.8462398 28
-5.5259776 -1.090165 -0.49277857 9
-11.428124 -2.2524686 2.2641397 35
-5.8298898 -1.1480068 -0.31139898 18
-11.454924 -2.2556739 2.6953635 36
-5.7312493 -1.1275438 -0.10195696 1
-11.436046 -2.2478104 3.1229107 29
-1.7253926 -0.33694509 -0.47105068 2
-6.0038648 -1.1713848 0.10677383 3
-1.9930767 -0.38849795 -0.46879801 5
-6.1947503 -1.2075039 0.33076328 10
-2.3510048 -0.45784074 -0.46557397 100
-6.5848999 -1.2811693 0.58690673 11
-2.9086254 -0.56537956 -0.46930346 7
-6.3838978 -1.239748 0.79848802 10
-3.8408616 -0.74589229 -0.480409 4
-11.429733 -2.2175779 1.8440496 26
-5.5334749 -1.0725924 -0.4931272 9
-11.416257 -2.2108262 2.2603235 35
-5.8160167 -1.1252518 -0.31045693 16
-11.435556 -2.2124901 2.689065 39
-5.7428102 -1.11005 -0.10209658 1
-11.430161 -2.2073104 3.1192875 27
-1.7265003 -0.33122158 -0.47105068 2
-5.9802203 -1.1461986 0.10628515 3
-1.9943541 -0.38188645 -0.46879801 6
-6.2420845 -1.1941286 0.33306605 25
-2.3582947 -0.45114854 -0.46671882 100
-6.4482102 -1.2323962 0.57435632 17
-2.9182458 -0.55721295 -0.47055492 6
-11.391497 -2.1730442 1.4239216 8
-3.8219914 -0.7283935 -0.47772786 4
-11.41994 -2.1743391 1.8412338 31
-5.5548 -1.056621 -0.49469596 9
-11.404238 -2.169287 2.2565072 35
-5.7824349 -1.0988768 -0.30846813 12
-11.414491 -2.1671093 2.6823163 42
-5.7466502 -1.0899968 -0.10209658 1
-11.411221 -2.162365 3.1120403 30
-1.7296015 -0.32524884 -0.47156835 3
-5.9959764 -1.127534 0.10649458 3
-2.0014207 -0.37600189 -0.47014773 5
-6.2187333 -1.1671759 0.33160067 11
-2.3444955 -0.43960792 -0.46366587 100
-6.6191425 -1.2399343 0.58917278 12
-2.9260931 -0.54760402 -0.47149354 6
-11.395109 -2.132539 1.423434 21
-3.8108521 -0.71249306 -0.47602168 4
-11.382799 -2.1261206 1.8340379 24
-5.5545378 -1.0364949 -0.49434736 9
-11.392813 -2.1238759 2.252691 34
-5.7785702 -1.0762116 -0.30804947 13
-11.399366 -2.1209834 2.6769176 42
-5.7622156 -1.0721266 -0.10230601 1
-11.392109 -2.1175733 3.1047933 33
-1.7155278 -0.3164058 -0.46742722 3
-5.9764695 -1.1012018 0.10607573 3
-2.0047016 -0.369017 -0.47059759 5
-6.1068783 -1.1241283 0.32542503 11
-2.3537395 -0.43284118 -0.46519238 100
-6.8409452 -1.2567837 0.6085214 15
-2.9357584 -0.53881305 -0.472745 6
-11.379418 -2.0864606 1.4205091 14
-3.8232009 -0.70030999 -0.47724038 4
-11.376551 -2.0838852 1.8318479 13
-5.5424433 -1.0142304 -0.49295285 9
-11.376982 -2.0798576 2.2481117 33
-5.7744322 -1.0546 -0.30763078 12
-11.383696 -2.0769789 2.6715188 42
-5.7580538 -1.0505688 -0.10216638 1
-11.365223 -2.0715592 3.0954759 30
-1.7185227 -0.31075966 -0.46794486 3
-5.9682822 -1.0792418 0.1058663 3
-2.0039968 -0.36202067 -0.47014773 6
-6.1677647 -1.113091 0.32846051 8
-2.357168 -0.42497125 -0.46557397 100
-6.6923447 -1.2053497 0.59492511 11
-2.9161441 -0.52522302 -0.46930346 5
-7.3791976 -1.3277266 0.92060113 6
-3.827456 -0.68797904 -0.47748414 4
-7.5185275 -1.3500886 1.2098643 9
-5.5459499 -0.99487591 -0.49295285 9
-11.345169 -2.0351853 2.2404792 33
-5.7700343 -1.0340346 -0.30721208 12
-11.367501 -2.035099 2.6661198 41
-5.710506 -1.0213096 -0.10125886 1
-11.345759 -2.027117 3.0882289 30
-1.723348 -0.30573401 -0.4689801 2
-5.9326329 -1.0514226 0.10516821 3
-1.9918158 -0.35264498 -0.46699843 5
-6.5256243 -1.1541675 0.34730142 15
-2.3740304 -0.4198876 -0.46862692 100
-6.5491548 -1.1571506 0.58185172 31
-2.925741 -0.51641393 -0.47055492 6
-7.29386 -1.2861053 0.90938914 7
-3.8298342 -0.67461437 -0.47748414 4
-7.3597736 -1.295079 1.1835834 6
-5.5533137 -0.97620064 -0.49330151 9
-11.332867 -1.9921713 2.2366631 34
-5.7381992 -1.0076703 -0.30532798 11
-11.364941 -1.9937202 2.6638706 41
-5.7534299 -1.0082735 -0.10195696 1
-11.337543 -1.9848379 3.0840878 30
-1.7282639 -0.30007648 -0.47001541 1
-5.9441481 -1.0320756 0.10530782 3
-1.9872744 -0.34469095 -0.46564871 5
-6.7756057 -1.1740047 0.36038542 17
-2.3620117 -0.40883958 -0.46595559 100
-2.9237208 -0.50501454 -0.46992919 5
-7.3041735 -1.2616504 0.91012037 6
-3.8243408 -0.65989143 -0.47650915 3
-7.3350492 -1.2643454 1.1788902 7
-5.5625777 -0.95782548 -0.49382445 9
-11.326549 -1.9482938 2.2339919 37
-5.7339807 -0.98527747 -0.30490932 11
-11.331837 -1.9451312 2.6544223 41
-5.6701956 -0.97329986 -0.10042115 1
-11.338691 -1.9442707 3.082535 25
-1.7331097 -0.29468992 -0.47105068 2
-5.9439473 -1.0096124 0.10523801 3
-2.0038946 -0.34001285 -0.46924794 5
-6.7934465 -1.1526848 0.36111811 22
-2.3672957 -0.40124881 -0.46671882 100
-6.1958127 -1.0490559 0.5497784 16
-2.9429953 -0.49777058 -0.472745 4
-11.315446 -1.911831 1.4090534 7
-3.8189044 -0.64454848 -0.47553423 4
-7.388114 -1.246954 1.186712 9
-5.5442753 -0.93475878 -0.49190697 9
-11.325538 -1.9074378 2.2324655 37
-5.7314763 -0.96426332 -0.30459529 12
-11.319339 -1.9023339 2.6499236 45
-5.6893353 -0.95615256 -0.10070039 1
-11.318737 -1.9001987 3.0752881 21
-1.7150716 -0.28546613 -0.46587428 1
-5.9354277 -0.98792583 0.10502858 3
-2.0069337 -0.33368537 -0.4696978 4
-6.6535988 -1.1050773 0.35347709 23
-2.3609352 -0.39169708 -0.46519238 100
-6.2131963 -1.0297022 0.55099863 6
-2.934886 -0.48639354 -0.47118065 5
-7.4185586 -1.2281365 0.92328221 9
-3.8386469 -0.63479573 -0.47772786 4
-11.286452 -1.8644133 1.8118242 11
-5.5376759 -0.91377789 -0.49103546 9
-11.294996 -1.8637995 2.2252147 36
-5.7267599 -0.9439522 -0.3041766 12
-11.302511 -1.8609874 2.6445246 37
-5.6531749 -0.92979509 -0.1000023 1
-11.290986 -1.8550422 3.0659707 26
-1.7198222 -0.28039926 -0.46690959 2
-5.9191027 -0.96398681 0.10467953 3
-2.0119331 -0.32730407 -0.47059759 4
-6.2984419 -1.0246394 0.33442679 7
-2.3719101 -0.38544074 -0.46710047 100
-6.0848107 -0.98770404 0.53931969 17
-2.9248664 -0.47424957 -0.46930346 5
-7.2307639 -1.1711283 0.89939582 9
-3.8427992 -0.62170947 -0.47797161 4
-11.278923 -1.824767 1.8096341 18
-5.5387092 -0.8950913 -0.49086115 9
-11.268483 -1.8190421 2.2187271 33
-5.7260761 -0.92332023 -0.30396727 12
-11.289701 -1.8184239 2.6400256 30
-5.6167417 -0.90468454 -0.099304192 1
-11.268467 -1.8129863 3.0582061 30
-1.7246059 -0.27500221 -0.46794486 2
-5.8906713 -0.93931466 0.10412105 3
-1.9976115 -0.31817815 -0.46699843 4
-6.0416174 -0.9612233 0.32061011 10
-2.3771191 -0.37777454 -0.46786368 100
-6.0449309 -0.95958585 0.53548485 21
-2.934227 -0.46578574 -0.47055492 5
-7.2306867 -1.1465234 0.89890838 6
-3.8369973 -0.60772061 -0.47699666 4
-11.267663 -1.7826066 1.8068182 30
-5.5417995 -0.87575322 -0.49086115 9
-11.28221 -1.7828925 2.2202537 19
-5.7054329 -0.90058976 -0.30271122 11
-11.318767 -1.7846174 2.6454244 13
-5.6317177 -0.88693947 -0.09951362 1
-11.25755 -1.7709386 3.0535471 32
-1.7313288 -0.26957139 -0.46949777 3
-5.8981862 -0.91730374 0.10419086 3
-2.0065212 -0.3117016 -0.46879801 4
-6.0016809 -0.93232679 0.31830731 1
-2.3920677 -0.37116712 -0.47053501 6
-6.0582523 -0.93894935 0.53635645 25
-2.9438021 -0.45572448 -0.47180638 5
-11.24687 -1.7390999 1.397354 9
-3.8236077 -0.59055901 -0.47504675 4
-7.5277944 -1.1626734 1.2064227 9
-5.5646634 -0.85847205 -0.49260426 10
-11.337482 -1.7470338 2.229794 63
-5.7068748 -0.87837201 -0.30260652 12
-11.337092 -1.74292 2.6481237 49
-5.6151657 -0.86325353 -0.099164575 1
-11.256328 -1.7284956 3.0514767 28
-1.7418087 -0.26497895 -0.47208595 3
-5.8201408 -0.88541007 0.10275977 4
-2.0152502 -0.30621696 -0.47059759 3
-6.0068731 -0.91167229 0.31841198 12
-2.37782 -0.36046088 -0.46748206 6
-6.0477028 -0.91570824 0.53513628 26
-2.9374847 -0.44477698 -0.47055492 5
-11.223135 -1.6973414 1.393698 9
-3.8333964 -0.57906204 -0.47602168 4
-7.4810219 -1.1287268 1.1982881 17
-5.5558047 -0.83726221 -0.49155837 13
-11.364568 -1.7126453 2.2339919 68
-5.7176561 -0.86063147 -0.30302522 14
-11.383278 -1.7113988 2.6575716 57
-5.6102347 -0.84246105 -0.099024951 1
-11.233636 -1.6848918 3.0437119 30
-1.7254803 -0.2566435 -0.46742722 3
-5.8647337 -0.87125778 0.10349277 4
-2.0143793 -0.29889497 -0.47014773 3
-6.0870705 -0.90211797 0.32249418 7
-2.3712342 -0.3514224 -0.46595559 6
-5.9777827 -0.88485366 0.52868676 23
-2.9390194 -0.43452114 -0.47055492 6
-7.0382481 -1.039319 0.87355953 6
-3.8334305 -0.56538773 -0.47577798 4
-7.4614644 -1.0991532 1.1945337 18
-5.5526376 -0.81796259 -0.49103546 13
-11.39767 -1.6769658 2.2393346 15
-5.7285299 -0.84182924 -0.30344391 13
-5.5775275 -0.81765014 -0.098396674 1
-11.216512 -1.64231 3.0375006 30
-1.7340128 -0.2517294 -0.46949777 3
-5.7885795 -0.83930433 0.10209658 27
-2.0250535 -0.29325804 -0.47239724 3
-5.9537902 -0.86113858 0.31527182 12
-2.3724465 -0.34314361 -0.46595559 6
-5.9946384 -0.86597723 0.52990693 8
-2.9229221 -0.42172056 -0.46773914 6
-7.0261154 -1.0124778 0.87160963 9
-3.8393104 -0.55256951 -0.47626543 4
-7.4945855 -1.0773169 1.1992267 10
-5.555459 -0.7985751 -0.49103546 9
-13.663546 -1.9616433 2.6831563 40
-5.7057319 -0.81814367 -0.30208316 11
-12.820522 -1.8360487 2.9900494 19
-5.6159797 -0.80327237 -0.099024951 1
-11.201138 -1.6001443 3.0318065 27
-1.734881 -0.24567458 -0.46949777 3
-5.8152332 -0.8224535 0.10251543 6
-2.0183463 -0.28509721 -0.47059759 3
-5.9013853 -0.83253711 0.31234103 17
-2.3755736 -0.3351337 -0.46633717 100
-6.3626113 -0.89647198 0.56215453 10
-2.9400251 -0.41371706 -0.47024205 6
-7.0099483 -0.98518455 0.86917222 23
-3.8294206 -0.53750879 -0.474803 4
-11.185829 -1.5680853 1.7889848 21
-5.5641317 -0.78000772 -0.49155837 9
-13.74808 -1.9248281 2.6984208 36
-5.6689925 -0.7926901 -0.29998973 11
-11.319515 -1.5807809 2.6386759 11
-5.5870609 -0.7792455 -0.098466478 1
-11.189434 -1.5586361 3.0271475 25
-1.735728 -0.23961715 -0.46949777 3
-5.865612 -0.80870432 0.10335316 3
-2.0096767 -0.27672094 -0.46834809 3
-5.9873586 -0.82336026 0.31673726 20
-2.3728395 -0.32630444 -0.46557397 100
-6.4111009 -0.88049173 0.56616372 26
-2.9473226 -0.40425715 -0.47118065 6
-6.9956441 -0.95828438 0.86697859 19
-3.8293071 -0.52386916 -0.47455928 5
-11.171661 -1.5263554 1.785856 32
-5.5707684 -0.76111972 -0.49190697 9
-11.313454 -1.5437169 2.2194905 83
-5.6638093 -0.77181798 -0.29957107 12
-5.5976729 -0.76081538 -0.098606095 1
-11.169922 -1.5161901 3.0204184 25
-1.7288954 -0.23252681 -0.46742722 3
-5.8604717 -0.78716093 0.10321353 3
-2.0164247 -0.27048138 -0.4696978 5
-5.8536053 -0.7841574 0.30951488 28
-2.3642344 -0.31671625 -0.46366587 100
-6.3213196 -0.84569162 0.55797106 15
-2.9467578 -0.39370492 -0.47086781 6
-6.9615612 -0.92887068 0.86234754 8
-3.8389831 -0.51154786 -0.47553423 5
-11.141676 -1.4826592 1.7802243 34
-5.5674667 -0.74088103 -0.49138409 9
-11.328504 -1.5055089 2.2213984 15
-5.6644883 -0.75177991 -0.29946637 12
-5.5626292 -0.73628563 -0.097942911 4
-11.159824 -1.4751648 3.0162773 31
-1.7277811 -0.22623996 -0.46690959 4
-5.8552523 -0.76566064 0.10307391 3
-2.0289507 -0.26495507 -0.47239724 5
-5.8483844 -0.7626878 0.30909619 17
-2.3692191 -0.30896986 -0.46442911 100
-5.8698211 -0.76444012 0.51787943 9
-2.9441962 -0.38290682 -0.47024205 7
-6.9273582 -0.89970833 0.8577165 14
-3.8505883 -0.49942073 -0.47675291 5
-11.123277 -1.4407134 1.7764701 34
-5.5601397 -0.72016257 -0.49051252 9
-11.31422 -1.4634401 2.2175822 4
-5.6611362 -0.73123491 -0.29915234 12
-11.323852 -1.4606645 2.6359763 4
-5.5790482 -0.71865201 -0.098187245 3
-11.134249 -1.4322568 3.0079951 31
-1.7343093 -0.22093986 -0.4684625 4
-5.8380523 -0.74269354 0.10272487 3
-2.0298631 -0.25787154 -0.47239724 5
-5.9322481 -0.75257415 0.31338775 17
-2.3741786 -0.30119196 -0.46519238 100
-5.5720119 -0.70588458 0.49138409 11
-2.9435551 -0.37238002 -0.46992919 7
-6.9304571 -0.87552011 0.8577165 8
-3.8542778 -0.48622501 -0.47699666 5
-11.124316 -1.4013855 1.7758442 34
-5.5566888 -0.7000038 -0.48998958 9
-11.290041 -1.4202584 2.211858 5
-5.6418557 -0.70873088 -0.29800096 13
-11.301811 -1.4177347 2.6296778 4
-5.5577126 -0.69619042 -0.097768381 1
-11.116178 -1.3905046 3.0017834 32
-1.7254839 -0.21369697 -0.46587428 2
-5.8287015 -0.72083896 0.10251543 3
-2.0094762 -0.24815708 -0.46744829 5
-5.5978575 -0.69030535 0.2955935 31
-2.3791125 -0.29338261 -0.46595559 100
-5.4775467 -0.67449993 0.48284283 11
-2.9350343 -0.36089736 -0.46836486 7
-7.0103126 -0.86075771 0.86722231 12
-3.8539808 -0.47252733 -0.47675291 5
-11.105611 -1.3596649 1.7720897 30
-5.551188 -0.67963445 -0.48929232 9
-11.26375 -1.377028 2.2057521 5
-5.6244693 -0.68661374 -0.29695424 13
-11.275741 -1.3744996 2.6224794 6
-5.5759888 -0.67871892 -0.098047614 1
-11.105621 -1.3498311 2.9976423 32
-1.7453995 -0.20998044 -0.47105068 1
-5.815299 -0.69858044 0.1022362 3
-2.0122652 -0.24137275 -0.46789822 4
-5.6675391 -0.67982566 0.29915234 12
-2.3840206 -0.28554362 -0.46671882 6
-5.4818459 -0.65561205 0.48301712 11
-2.9245074 -0.34924376 -0.46648762 8
-11.087597 -1.3221176 1.3710303 27
-3.8418088 -0.45742854 -0.47504675 5
-11.094367 -1.3209612 1.7695868 34
-5.5653977 -0.66166288 -0.49033821 9
-11.276286 -1.33863 2.2072787 5
-5.6169147 -0.66580081 -0.29643089 14
-11.253376 -1.3319243 2.6161807 4
-5.5504074 -0.65693378 -0.097558953 1
-11.090852 -1.3107283 2.9924657 33
-1.7307715 -0.20209414 -0.46690959 2
-5.809639 -0.67836452 0.10209658 3
-2.020797 -0.23560159 -0.4696978 3
-5.8424735 -0.68013144 0.3082588 25
-2.3811026 -0.27676669 -0.46595559 6
-5.3712921 -0.62338036 0.47308138 8
-2.9256492 -0.33954442 -0.46648762 8
-3.8393607 -0.44422966 -0.47455928 5
-11.069476 -1.278823 1.7648939 33
-5.5637145 -0.64177656 -0.48998958 9
-11.247507 -1.2974042 2.2007911 5
-5.6230602 -0.64762765 -0.29664022 13
-11.238372 -1.2923728 2.6116817 4
-5.5367742 -0.63573158 -0.097279713 1
-11.080006 -1.2702456 2.9883249 31
-1.7352711 -0.19678888 -0.46794486 2
-5.8099837 -0.65785575 0.10206167 4
-2.0254798 -0.22898403 -0.47059759 4
-5.6145921 -0.63374704 0.29611689 27
-2.3761549 -0.26820844 -0.46481073 6
-5.4743023 -0.61694431 0.48197123 12
-2.9032609 -0.32667932 -0.46273321 10
-11.072666 -1.2439563 1.3681054 7
-3.848779 -0.43171009 -0.47553423 5
-11.056205 -1.2381994 1.762078 31
-5.563941 -0.6221301 -0.48981526 9
-11.228555 -1.2555168 2.1962116 4
-5.6173472 -0.62710905 -0.29622155 12
-11.238941 -1.2527037 2.6107819 4
-5.5429339 -0.61684293 -0.097349517 1
-11.057491 -1.2285718 2.9810779 31
-1.7244587 -0.18916395 -0.46483904 2
-5.792367 -0.63539189 0.10171262 4
-2.0204554 -0.22127587 -0.46924794 5
-5.6108136 -0.61349314 0.29580286 37
-2.3829768 -0.26013729 -0.46595559 6
-5.3774939 -0.58608234 0.47325566 6
-2.8808734 -0.31347191 -0.4589788 10
-6.5301266 -0.71055228 0.80653143 2
-3.8482885 -0.41805819 -0.47529048 5
-11.044748 -1.197894 1.759575 30
-5.5720215 -0.60334784 -0.49033821 9
-11.195994 -1.2103416 2.1889608 5
-5.6057081 -0.60501593 -0.29548883 14
-11.227956 -1.2098347 2.6071827 4
-5.5371003 -0.59663367 -0.097209901 1
-11.038664 -1.1874866 2.9748662 31
-1.7443192 -0.18518232 -0.47001541 2
-5.7767606 -0.61225921 0.10139848 3
-2.0154393 -0.21325436 -0.46789822 5
-5.6089487 -0.59348494 0.2955935 28
-2.3897276 -0.25243565 -0.46710047 7
-5.3121395 -0.56020325 0.46732911 9
-2.870163 -0.30217353 -0.45710155 10
-6.5386095 -0.68723577 0.8072626 6
-3.8418982 -0.40312204 -0.47431552 6
-11.037074 -1.1580963 1.7576978 30
-5.5681486 -0.58327264 -0.48981526 7
-11.178673 -1.1690092 2.1847632 5
-5.5958667 -0.5842002 -0.29486081 17
-11.224359 -1.1698235 2.6053832 6
-5.5311942 -0.57647133 -0.097070284 1
-11.027369 -1.1473502 2.9707251 31
-1.7411114 -0.17869784 -0.4689801 2
-5.7906947 -0.59432423 0.10160792 3
-2.0200124 -0.20696692 -0.46879801 5
-5.5394583 -0.56658494 0.29182532 23
-2.3886411 -0.24389291 -0.46671882 7
-5.3120799 -0.5414561 0.46715477 8
-2.8672187 -0.29225332 -0.45647582 11
-6.4184089 -0.65309 0.7921508 10
-3.8451891 -0.39058009 -0.47455928 6
-11.021398 -1.1175722 1.7545692 30
-5.5860085 -0.5654363 -0.49120975 7
-11.186395 -1.1323279 2.1855264 5
-5.601748 -0.56604183 -0.29507017 16
-11.201032 -1.1298627 2.5990846 6
-5.5212345 -0.5559594 -0.096860856 1
-11.019774 -1.1076909 2.9676192 31
-1.7532289 -0.17406826 -0.47208595 1
-5.7927341 -0.57410854 0.10160792 3
-2.016844 -0.19953072 -0.46789822 3
-5.5891042 -0.55195582 0.29433745 11
-2.379668 -0.23500575 -0.46481073 7
-5.6469526 -0.55667496 0.4964391 11
-2.856426 -0.2810823 -0.45459861 9
-6.3179193 -0.62059051 0.7794764 15
-3.8406022 -0.37657517 -0.47382805 6
-10.995742 -1.0762043 1.7498761 32
-5.5838876 -0.54652095 -0.49086115 9
-11.174648 -1.0917457 2.1824734 4
-5.5977259 -0.54590291 -0.29475614 14
-11.177753 -1.0881104 2.5927858 4
-5.4952769 -0.53397554 -0.096372187 1
-11.008191 -1.0677257 2.9634783 32
-1.7461336 -0.16721104 -0.47001541 1
-5.7728057 -0.55179143 0.10122395 3
-2.0272279 -0.1934143 -0.47014773 3
-5.8057294 -0.55289346 0.30564201 27
-2.3824284 -0.22688435 -0.46519238 6
-5.480269 -0.5209341 0.48162264 5
-2.8672225 -0.27204195 -0.45616296 9
-6.4524555 -0.61107403 0.79580688 10
-3.8537507 -0.36428741 -0.47529048 6
-10.975831 -1.0355884 1.7461218 35
-5.583777 -0.5268389 -0.4906868 11
-11.158844 -1.0508913 2.1786571 5
-5.5956197 -0.52598715 -0.29454678 14
-11.169842 -1.0479937 2.5900865 6
-5.5409093 -0.51889199 -0.097140096 1
-10.981075 -1.0264164 2.9551959 32
-1.7236223 -0.15898556 -0.46380374 2
-5.7547836 -0.52980381 0.10087491 3
-2.02595 -0.18615888 -0.4696978 3
-5.664422 -0.51949102 0.29810563 23
-2.3851607 -0.21874598 -0.46557397 6
-5.3471355 -0.48945123 0.46976945 11
-2.8956957 -0.26454854 -0.46054313 6
-6.3537278 -0.57935363 0.78337622 11
-3.8648837 -0.35173166 -0.47650915 6
-10.967576 -0.99619687 1.7442445 33
-5.5578914 -0.50385273 -0.48824647 9
-11.142893 -1.0101631 2.1748412 5
-5.5815091 -0.50501031 -0.29370943 14
-11.173432 -1.008997 2.5900865 6
-5.5148034 -0.49703559 -0.096651427 1
-10.965351 -0.98634803 2.9500196 32
-1.7511339 -0.15505247 -0.47105068 2
-5.7326951 -0.50759602 0.10045605 3
-2.0071757 -0.17737041 -0.46519879 3
-5.6522741 -0.49848691 0.29737294 13
-2.3898578 -0.21034609 -0.46633717 7
-5.2695041 -0.46287599 0.46279699 11
-2.9300988 -0.2568661 -0.46586189 6
-6.3596663 -0.55751801 0.78386366 11
-3.8542228 -0.3372004 -0.47504675 6
-10.963114 -0.95722181 1.742993 32
-5.5715256 -0.48548654 -0.48929232 9
-11.115226 -0.96659124 2.168735 5
-5.5594449 -0.48247868 -0.29245335 15
-11.138226 -0.96467435 2.5810885 6
-5.5045519 -0.47674561 -0.096442007 1
-10.957179 -0.94706732 2.9469137 33
-1.7516645 -0.14893889 -0.47105068 2
-5.6229348 -0.47711322 0.098501377 29
-2.0155795 -0.17066973 -0.46699843 3
-5.4907889 -0.46493402 0.28878984 15
-2.3925335 -0.20216846 -0.46671882 6
-5.3246918 -0.44899914 0.4675034 16
-2.948693 -0.24812654 -0.4686777 6
-6.3735361 -0.53520143 0.78532612 20
-3.849498 -0.32257524 -0.47431552 6
-10.956547 -0.91812247 1.7414287 6
-5.5791426 -0.46653193 -0.48981526 9
-5.5571146 -0.46273807 -0.29224399 15
-11.032771 -0.91675168 2.5558939 63
-5.494226 -0.45653453 -0.096232571 1
-10.948867 -0.90785837 2.9438078 33
-1.7483228 -0.14250959 -0.47001541 2
-5.6224933 -0.45830163 0.098466478 32
-2.0219615 -0.16445972 -0.46834809 3
-6.1313972 -0.49762917 0.32238951 10
-2.3873544 -0.19334024 -0.46557397 6
-5.3262262 -0.43041086 0.4675034 11
-2.9573755 -0.23898469 -0.46992919 5
-6.3752756 -0.51406282 0.78532612 19
-3.8485677 -0.30964872 -0.47407177 5
-6.7577505 -0.54252762 1.0737664 18
-5.5588908 -0.44530535 -0.48789781 9
-11.025655 -0.88323075 2.1500359 83
-5.5426917 -0.44303417 -0.29140663 14
-11.014381 -0.87845594 2.5509448 53
-5.4838252 -0.43640265 -0.096023142 1
-10.932711 -0.86810476 2.9386315 33
-1.7333779 -0.13550659 -0.46587428 1
-5.6838679 -0.44333893 0.09951362 35
-2.0302947 -0.15800503 -0.47014773 3
-5.7765818 -0.44955492 0.30365324 22
-2.3938544 -0.18587829 -0.46671882 6
-5.3037868 -0.41089913 0.46541166 16
-2.9562221 -0.22850704 -0.46961632 4
-6.3908854 -0.49287415 0.78703225 15
-3.8516045 -0.29636499 -0.47431552 5
-6.7260299 -0.51754016 1.0684476 16
-5.548418 -0.42595372 -0.48685199 6
-5.5362387 -0.42307499 -0.29098797 14
-5.4772668 -0.41760692 -0.095883526 1
-10.904709 -0.82950091 2.9303493 33
-1.7338405 -0.12945551 -0.46587428 2
-5.6075354 -0.41868117 0.098152332 35
-2.0230339 -0.15069282 -0.46834809 3
-5.764174 -0.42835194 0.30292055 17
-2.3846993 -0.17679521 -0.46481073 6
-5.261476 -0.38914976 0.46157682 12
-2.9490838 -0.21812038 -0.46836486 4
-6.3093367 -0.46554306 0.77679521 10
-3.8545461 -0.28373659 -0.47455928 5
-6.7790174 -0.49782005 1.0765822 14
-5.549871 -0.40658337 -0.48685199 9
-5.5396028 -0.40485919 -0.2910926 16
-11.051203 -0.80573285 2.5581434 1
-5.4667244 -0.39761463 -0.095674098 1
-10.890197 -0.79017276 2.9256907 30
-1.7342818 -0.12340244 -0.46587428 1
-5.5950694 -0.3971332 0.097907998 27
-2.0216289 -0.14313889 -0.46789822 3
-5.7577357 -0.40666074 0.30250186 17
-2.397052 -0.16930039 -0.46710047 6
-5.2826772 -0.37218019 0.46331993 11
-2.9419813 -0.2067553 -0.46711335 4
-6.4258547 -0.45046797 0.79093212 10
-3.8654613 -0.27029938 -0.47577798 5
-6.869473 -0.47915557 1.0906612 20
-5.5413184 -0.3865149 -0.48598042 9
-11.02255 -0.76690823 2.1477461 18
-5.5251098 -0.38344651 -0.29025525 17
-11.026865 -0.76333851 2.5518448 21
-5.4880948 -0.37895283 -0.096023142 1
-10.879529 -0.74932349 2.9220672 31
-1.7578313 -0.11891251 -0.47208595 2
-5.5804601 -0.37652326 0.097628765 11
-2.0123944 -0.13542739 -0.46564871 5
-6.1038709 -0.40969849 0.32061011 10
-2.391752 -0.16053702 -0.46595559 6
-5.4429789 -0.36438453 0.47726485 20
-2.9545109 -0.19727485 -0.46899059 4
-6.5085969 -0.43344122 0.80092543 7
-3.8426125 -0.25522593 -0.47285309 6
-6.7922611 -0.44995227 1.0781465 20
-5.5386572 -0.36690748 -0.48563176 9
-11.001651 -0.72687155 2.1431668 16
-5.5184426 -0.36363244 -0.28983656 17
-11.035295 -0.72522855 2.5531945 19
-5.4534664 -0.35743916 -0.09539485 1
-10.874367 -0.7108379 2.9199965 32
-1.7582358 -0.11277534 -0.47208595 3
-5.5178809 -0.35295784 0.096511811 32
-2.0284131 -0.12939441 -0.46924794 7
-5.5969896 -0.35605526 0.29391876 20
-2.3883793 -0.15193793 -0.46519238 6
-5.5416493 -0.351565 0.48580611 12
-2.961096 -0.18733457 -0.46992919 5
-6.5219574 -0.4114691 0.80238777 7
-3.8474426 -0.24206126 -0.47334057 6
-6.7326746 -0.42240393 1.0684476 16
-5.5279741 -0.34682176 -0.48458594 9
-11.037432 -0.69054794 2.1496544 11
-5.5176849 -0.34424409 -0.28973189 14
-10.954126 -0.68149769 2.5338488 4
-5.4506898 -0.33815306 -0.095325045 1
-10.861358 -0.67192304 2.9158556 33
-1.7354789 -0.1052345 -0.46587428 4
-2.0307977 -0.12242988 -0.4696978 7
-5.5124707 -0.33136389 0.28941786 6
-2.3849754 -0.14336489 -0.46442911 6
-5.3379941 -0.31994084 0.467852 11
-2.9617319 -0.17699647 -0.46992919 5
-6.0438123 -0.36012805 0.74340308 14
-3.8621352 -0.22945367 -0.47504675 6
-6.7498832 -0.39983419 1.0709505 7
-5.5092621 -0.32634509 -0.48284283 10
-5.5128717 -0.32462928 -0.28941786 18
-10.857224 -0.6374312 2.5109036 7
-5.4318738 -0.31795719 -0.094976 1
-10.834707 -0.6323145 2.9080908 34
-1.7474079 -0.099837035 -0.4689801 3
-5.6899099 -0.3240931 0.099478714 3
-2.0312128 -0.11534076 -0.4696978 7
-5.3460398 -0.30357051 0.28062543 10
-2.3991823 -0.13581556 -0.46710047 6
-5.3510137 -0.30197918 0.46889788 11
-2.9386647 -0.16532618 -0.46617478 7
-6.0212488 -0.33769491 0.74047816 20
-3.8728223 -0.21652395 -0.47626543 6
-6.8576756 -0.38340279 1.0878454 17
-5.5004206 -0.30655897 -0.48197123 10
-10.92829 -0.60716128 2.1275203 2
-5.5139713 -0.30538234 -0.28941786 18
-10.865219 -0.5998531 2.5122533 3
-5.432898 -0.29994246 -0.094976 1
-10.819385 -0.59542865 2.9034321 38
-1.7496748 -0.093840249 -0.46949777 3
-5.6789718 -0.30458009 0.099269286 3
-2.0276923 -0.10839625 -0.46879801 3
-5.3370948 -0.284376 0.28010207 7
-2.3996418 -0.12743995 -0.46710047 6
-5.4455466 -0.28824854 0.47709054 22
-2.947087 -0.15599784 -0.46742624 6
-6.0084591 -0.31699356 0.73877203 15
-3.8675721 -0.20336807 -0.47553423 6
-5.661562 -0.2967104 0.89793396 5
-5.497478 -0.28714907 -0.48162264 11
-10.912599 -0.56999636 2.1240859 7
-5.5009918 -0.28636995 -0.28868517 21
-10.851581 -0.56301123 2.5086541 1
-5.4339123 -0.28097615 -0.094976 1
-10.817538 -0.55745661 2.9023969 35
-1.7538353 -0.08823166 -0.47053304 3
-5.6720119 -0.28435564 0.099129669 3
-2.0066488 -0.10024799 -0.46384907 3
-5.571445 -0.27736303 0.29234868 2
-2.3902473 -0.11899359 -0.46519238 7
-5.4842811 -0.27206427 0.48040244 9
-2.9555054 -0.14609967 -0.4686777 5
-5.8271213 -0.28703299 0.71634805 18
-3.8504143 -0.18899053 -0.47334057 6
-5.5796962 -0.27289304 0.8847934 9
-5.5004368 -0.26805437 -0.48179695 10
-10.885106 -0.53046697 2.1183615 9
-5.493978 -0.26677853 -0.28826648 14
-10.834015 -0.52418667 2.5041552 3
-5.4188805 -0.26123604 -0.094696753 1
-10.802052 -0.518861 2.897738 34
-1.7425684 -0.081262961 -0.46742722 3
-5.6649804 -0.26418078 0.098990053 3
-2.0147729 -0.093604565 -0.46564871 3
-5.5304813 -0.25597534 0.29015055 10
-2.3926284 -0.11032247 -0.46557397 7
-5.644465 -0.25927529 0.49434736 27
-2.9520745 -0.13508628 -0.46805197 5
-5.7547164 -0.26333457 0.70732975 17
-3.8530333 -0.1756392 -0.47358429 6
-6.7350206 -0.30583572 1.0678217 2
-5.4854164 -0.2481322 -0.48040244 12
-10.869328 -0.48977199 2.1149271 26
-5.474967 -0.24574463 -0.28721976 13
-10.812501 -0.4834272 2.4987564 3
-5.4197593 -0.24231757 -0.094696753 1
-10.790287 -0.48054969 2.8941145 31
-1.7467015 -0.075346231 -0.4684625 3
-5.6499271 -0.24273041 0.098710813 3
-2.0287313 -0.086802527 -0.46879801 3
-5.5113869 -0.23581353 0.28910384 25
-2.3812301 -0.10146841 -0.46328428 7
-6.0175772 -0.25536892 0.52694362 12
-2.9466074 -0.12452979 -0.46711335 6
-5.8369598 -0.24566162 0.71732301 16
-3.8576176 -0.16168305 -0.47407177 5
-5.6110702 -0.23517491 0.88948649 28
-5.4384732 -0.22698882 -0.47621897 14
-10.861163 -0.45142004 2.113019 51
-5.4618225 -0.22605494 -0.28648707 13
-10.837488 -0.44664681 2.5041552 1
-5.4165764 -0.22323407 -0.094626948 1
-10.759086 -0.44153473 2.8853149 30
-1.7373021 -0.068866417 -0.46587428 3
-5.6307197 -0.22320095 0.09836176 3
-2.0251136 -0.079921246 -0.46789822 3
-5.5640655 -0.21861231 0.29182532 20
-2.3776462 -0.093002774 -0.46252102 100
-5.6959095 -0.22180267 0.49870515 12
-2.9430561 -0.11460466 -0.46648762 6
-5.7345943 -0.22230539 0.70464855 15
-3.8660674 -0.14919589 -0.47504675 5
-5.6059351 -0.2153582 0.8885479 21
-5.4352503 -0.20785119 -0.47587034 15
-10.839058 -0.41449994 2.1084394 71
-5.442584 -0.20718169 -0.28544036 14
-10.827227 -0.41026282 2.5014558 1
-5.377357 -0.20281781 -0.093928859 1
-10.770214 -0.40434051 2.8879032 16
-1.7471739 -0.063455455 -0.4684625 4
-5.6234713 -0.20325565 0.098222144 3
-2.0136952 -0.072430953 -0.46519879 3
-5.6126981 -0.20090464 0.29433745 17
-2.4014854 -0.085960366 -0.46710047 6
-5.7065692 -0.20326753 0.49957672 19
-2.9414644 -0.10426003 -0.46617478 6
-5.6659007 -0.1998388 0.69611776 36
-3.8685482 -0.1357694 -0.47529048 4
-5.5967817 -0.19544366 0.88698351 22
-5.4299369 -0.18961732 -0.47534743 16
-10.814932 -0.37577805 2.1034784 69
-5.4253092 -0.18756104 -0.2844983 13
-10.78185 -0.37085819 2.490658 1
-5.3980179 -0.18473117 -0.094277903 3
-10.759974 -0.36634564 2.8847973 9
-1.755108 -0.057609752 -0.47053304 5
-5.6121545 -0.18323314 0.098012716 3
-2.0178311 -0.065528326 -0.46609858 3
-5.4616528 -0.17641099 0.28638238 7
-2.3860731 -0.07706999 -0.46404752 6
-5.7251668 -0.18392228 0.50114554 27
-2.9457591 -0.094118543 -0.46680051 6
-5.739975 -0.18239245 0.70513606 17
-3.8491578 -0.1216368 -0.47285309 4
-5.6388927 -0.17721026 0.89355379 11
-5.4225998 -0.17041294 -0.47465014 23
-7.1015506 -0.22193579 1.3810756 13
-5.4219379 -0.16849652 -0.28428894 13
-10.868783 -0.33586839 2.5104539 1
-5.3826394 -0.16539596 -0.093998663 3
-10.774705 -0.32919678 2.8884208 8
-1.7591605 -0.051596157 -0.47156835 6
-5.6127596 -0.1636418 0.098012716 3
-2.0297353 -0.058823042 -0.46879801 3
-5.4602389 -0.15728752 0.28627771 10
-2.392215 -0.0689101 -0.46519238 6
-5.6819592 -0.16268195 0.49731067 20
-2.9519935 -0.084003843 -0.46773914 7
-5.7842312 -0.16358955 0.71049833 12
-3.8574963 -0.1084239 -0.47382805 4
-5.5802388 -0.15587094 0.88416773 23
-5.4291363 -0.15165025 -0.47517309 22
-7.0551825 -0.19583781 1.3719168 21
-5.42449 -0.14962432 -0.28439364 14
-7.1199718 -0.19514914 1.6443923 22
-5.3991761 -0.14704011 -0.094277903 1
-10.789307 -0.29194951 2.8920441 8
-1.7554674 -0.045355804 -0.47053304 7
-5.5433311 -0.142253 0.096791051 11
-2.0318761 -0.051787179 -0.46924794 3
-5.4707379 -0.13847934 0.28680107 20
-2.386553 -0.060410179 -0.46404752 7
-5.6745257 -0.14264679 0.49661341 13
-2.9542434 -0.073748164 -0.46805197 6
-5.499002 -0.13631386 0.67539996 8
-3.8518977 -0.094811417 -0.47309685 4
-5.5906224 -0.13663247 0.88573205 7
-5.4017472 -0.13201645 -0.47273275 19
-7.0401211 -0.17082655 1.3688638 21
-5.4309692 -0.13083385 -0.28470761 12
-7.0796976 -0.16931598 1.6349442 26
-5.3516769 -0.12705334 -0.093440183 1
-7.1188288 -0.16776565 1.9080141 9
-1.7517524 -0.039141025 -0.46949777 7
-5.529799 -0.12259188 0.09654671 14
-2.0300963 -0.044651866 -0.46879801 3
-5.5211072 -0.12047114 0.28941786 31
-2.3887119 -0.052121945 -0.46442911 7
-5.4917316 -0.11887128 0.48057678 5
-2.944608 -0.063224077 -0.46648762 6
-5.457767 -0.11623021 0.67028147 11
-3.8740363 -0.081826203 -0.47577798 4
-5.5614414 -0.11649471 0.88103902 11
-5.432055 -0.11378447 -0.47534743 27
-6.9994559 -0.14539616 1.3608499 21
-5.4194117 -0.11162849 -0.28407961 14
-7.0568657 -0.14412282 1.6295455 26
-5.3680825 -0.10869674 -0.093719423 1
-7.0826735 -0.1421784 1.8981789 19
-1.7576728 -0.033135217 -0.47105068 7
-5.4962039 -0.10265487 0.09595333 24
-2.0185494 -0.03734839 -0.46609858 4
-5.453599 -0.099953607 0.28585902 18
-2.3888793 -0.0437834 -0.46442911 7
-6.0299697 -0.10946606 0.52764088 15
-2.9388857 -0.052837778 -0.46554902 5
-5.7300539 -0.10201942 0.70367366 11
-3.8584201 -0.068023682 -0.47382805 4
-5.4284348 -0.094753958 -0.4749988 25
-6.9802909 -0.1206232 1.3570337 25
-5.3997989 -0.092368789 -0.28303289 15
-7.0514803 -0.1193914 1.6281958 32
-5.3804255 -0.090158835 -0.093928859 1
-7.0657425 -0.11716424 1.8935202 14
-1.7674358 -0.027148316 -0.47363886 7
-5.4945302 -0.083438396 0.095918424 14
-2.0225644 -0.030360553 -0.46699843 4
-5.1623468 -0.076591656 0.27057692 22
-2.3693871 -0.035153642 -0.46061292 10
-5.9665651 -0.087481998 0.5220629 8
-2.9410276 -0.042607367 -0.46586189 6
-5.7363296 -0.082103617 0.70440483 12
-3.8407698 -0.054301277 -0.47163439 4
-5.4267406 -0.075776644 -0.47482449 28
-6.9728169 -0.096148238 1.3555073 24
-5.3940969 -0.073437691 -0.28271887 16
-7.0109344 -0.094226263 1.6187478 26
-5.3447161 -0.070899509 -0.093300566 1
-7.0467916 -0.092248097 1.8883438 13
-1.7578611 -0.020863961 -0.47105068 8
-2.0187609 -0.023255832 -0.46609858 4
-5.1466055 -0.058389831 0.26973954 20
-2.3596799 -0.026771298 -0.45870483 14
-5.2934484 -0.059130609 0.46314558 9
-2.9549851 -0.032493666 -0.46805197 7
-5.6750469 -0.061413527 0.69684899 11
-3.8409359 -0.040894046 -0.47163439 4
-6.5144353 -0.06822148 1.0318419 9
-5.4209948 -0.056770578 -0.47430155 24
-6.9750729 -0.071829669 1.3558888 27
-5.4023089 -0.054689046 -0.28313756 16
-7.0053744 -0.069694601 1.6173981 29
-5.3329329 -0.052125119 -0.093091138 1
-7.0180941 -0.067371279 1.8805792 15
-1.7424692 -0.014598231 -0.46690959 8
-5.5789633 -0.045766264 0.09738443 3
-2.0383165 -0.016365299 -0.47059759 4
-5.4064054 -0.04340712 0.28334689 21
-2.3558326 -0.018502848 -0.45794162 14
-5.1840448 -0.039811008 0.4535585 39
-2.9550805 -0.022178564 -0.46805197 6
-5.2623382 -0.03857537 0.6461513 11
-3.8370802 -0.02812757 -0.47114691 4
-6.6114168 -0.047310837 1.0471724 22
-5.4092054 -0.037765112 -0.47325566 27
-6.9713545 -0.047453091 1.3551255 27
-5.4104557 -0.035883971 -0.28355622 16
-7.0016694 -0.046437439 1.6164982 29
-5.325078 -0.0343896 -0.092951514 1
-7.0086198 -0.044037107 1.8779911 17
-1.7367125 -0.0087905135 -0.46535668 7
-5.4711013 -0.026737574 0.095499568 8
-2.036411 -0.0095966468 -0.47014773 7
-5.5343437 -0.026080757 0.29004589 36
-2.3480279 -0.010655358 -0.45641515 7
-5.1662169 -0.022541437 0.45198968 9
-2.9353843 -0.012296182 -0.46492329 4
-5.2922139 -0.0212452 0.64980739 17
-3.8490632 -0.01545178 -0.47260937 4
-6.6115375 -0.025386073 1.0471724 17
-5.3953547 -0.019776005 -0.4720355 28
-6.9596944 -0.024293602 1.3528358 31
-5.4105453 -0.017941847 -0.28355622 17
-7.0076313 -0.023237927 1.617848 39
-5.3291626 -0.016743178 -0.093021333 1
-7.0009995 -0.02077225 1.8759204 24
-1.7483231 -0.0030514826 -0.4684625 6
-5.4331665 -0.0085360054 0.094836384 26
-2.0364318 -0.0028435329 -0.47014773 7
-5.5324035 -0.0067595369 0.28994122 22
-2.3676836 -0.0024790766 -0.46023133 7
-5.3336239 -0.0055845566 0.46663183 19
-2.9354091 -0.0025619168 -0.46492329 4
-5.2366719 -0.0036564576 0.64298266 8
-3.8471086 -0.0020138838 -0.47236562 4
-6.7459116 -0.002355644 1.0684476 21
-5.3933983 -0.00094208319 -0.47186115 31
-6.9538469 6.0792462e-07 1.351691 27
-5.398591 0.0009413599 -0.2829282 18
-7.0037723 0.0012212576 1.6169481 29
-5.3411865 0.0018635071 -0.093230762 1
-7.0087571 0.0036701686 1.8779911 20
-1.7657093 0.0033898726 -0.47312123 8
-5.4171634 0.011345486 0.094557136 43
-2.0208385 0.0045845634 -0.4665485 7
-5.2367978 0.012795622 0.2744498 16
-2.3814194 0.0062343879 -0.46290264 6
-5.3495479 0.014004739 0.46802634 27
-2.9452753 0.008223841 -0.46648762 4
-5.1929789 0.015407449 0.63762045 7
-3.8391497 0.012060693 -0.47139066 4
-6.9236574 0.022960672 1.0966057 27
-5.3814116 0.018784083 -0.47081533 29
-6.9714694 0.025550952 1.3551255 24
-5.3805766 0.02066054 -0.28198618 17
-6.9920282 0.026848253 1.6142488 32
-5.3371444 0.02142396 -0.09316095 1
-7.0183558 0.029397432 1.8805792 21
-1.7579576 0.0098179504 -0.47105068 7
-5.4010882 0.031108262 0.094277903 27
-2.0247056 0.012014921 -0.46744829 6
-5.330585 0.032562871 0.27936935 15
-2.3676381 0.014876379 -0.46023133 7
-5.6263971 0.035351861 0.49225563 16
-2.9570775 0.01909605 -0.46836486 4
-5.1948724 0.03445382 0.63786417 6
-3.8331244 0.02609133 -0.47065943 4
-6.8563657 0.04786659 1.0859681 27
-5.3912678 0.038579196 -0.47168687 29
-6.932065 0.050814796 1.3474932 24
-5.3744731 0.040335041 -0.28167215 16
-6.9879861 0.052444343 1.613349 29
-5.2890391 0.040618237 -0.092323236 1
-7.0104737 0.055060226 1.8785087 22
-1.7463192 0.016154353 -0.46794486 4
-2.0499804 0.019678975 -0.47329703 7
-5.2884898 0.051690388 0.27717125 17
