# .PCD v0.7 - Point Cloud Data file format
VERSION 0.7
FIELDS x y z rgba
SIZE 4 4 4 4
TYPE F F F U
COUNT 1 1 1 1
WIDTH 687
HEIGHT 1
VIEWPOINT 0 0 0 1 0 0 0
POINTS 687
DATA ascii
4.1015401 -0.17262258 0.50405163 0
4.124825 -0.17504498 0.65389615 0
4.0762639 -0.18367627 0.21384473 0
4.1080914 -0.18582886 0.35977891 0
4.0949631 -0.18666737 0.5033204 0
4.118269 -0.1891703 0.65295756 0
4.0520949 -0.18754812 -0.21258868 0
4.054975 -0.18909992 -0.070856772 0
4.0606647 -0.19575809 0.070961483 0
4.0856075 -0.19767527 0.2143681 0
4.0815473 -0.1989069 0.35751286 0
4.1180792 -0.20212814 0.50624532 0
4.0998621 -0.20195127 0.65014172 0
4.0554056 -0.20189004 -0.21279801 0
4.0563231 -0.20264545 -0.070891678 0
4.0619907 -0.2093256 0.070996389 0
4.0848927 -0.21193549 0.2143681 0
4.0927658 -0.21377651 0.35855874 0
4.1054921 -0.21515974 0.50478286 0
4.0971594 -0.21615715 0.64982885 0
4.0347691 -0.21427792 -0.2117513 0
4.0356226 -0.21573594 -0.070542626 0
4.0492554 -0.222844 0.07078696 0
4.0821333 -0.22608267 0.21426344 0
4.0721416 -0.22624218 0.35681561 0
4.0789499 -0.2280487 0.50161427 0
4.104269 -0.23090145 0.65108031 0
4.0100679 -0.22700602 -0.21049525 0
4.040834 -0.23016272 -0.070647344 0
4.0624266 -0.23779513 0.071031295 0
4.0554004 -0.23880433 0.21290269 0
4.0852494 -0.2412775 0.3580358 0
4.0662398 -0.24157915 0.50015181 0
4.0955505 -0.24475524 0.64982885 0
4.0052638 -0.2407627 -0.21028589 0
4.0240374 -0.24330097 -0.070368104 0
4.0615716 -0.2519742 0.071031295 0
4.0525484 -0.25283447 0.21279801 0
4.0704632 -0.25466534 0.35681561 0
4.0713153 -0.25614542 0.50088304 0
4.0788994 -0.25805205 0.64732587 0
4.0043988 -0.25474221 -0.21028589 0
4.0091949 -0.25645244 -0.070123769 0
4.0427089 -0.26497313 0.070717148 0
4.051641 -0.26697901 0.21279801 0
4.0516562 -0.26769021 0.35524681 0
4.0703964 -0.27035543 0.50088304 0
4.0720611 -0.27189368 0.64638728 0
4.0074706 -0.26898611 -0.21049525 0
4.0042849 -0.27017638 -0.070053965 0
4.0257998 -0.27798119 0.070437916 0
4.0587039 -0.28096497 0.21321672 0
4.042747 -0.28127834 0.35454956 0
4.0615067 -0.2840082 0.49990809 0
4.0731082 -0.28553382 0.64670014 0
4.0025229 -0.28269178 -0.21028589 0
4.0033669 -0.28345352 -0.070053965 0
4.014883 -0.29060787 0.070263386 0
4.051722 -0.29469609 0.21290269 0
4.0596242 -0.29669547 0.35611835 0
4.0546036 -0.29703999 0.49917686 0
4.0740566 -0.2998949 0.64701301 0
3.9816451 -0.29448986 -0.20923917 0
3.9943762 -0.29683343 -0.069914341 0
4.0058684 -0.30401534 0.070123769 0
4.03479 -0.30691853 0.21206531 0
4.0466986 -0.30924517 0.3550725 0
4.0396872 -0.31012774 0.49747071 0
4.0631919 -0.31264558 0.64544868 0
3.980593 -0.30838659 -0.20923917 0
4.0033383 -0.3108516 -0.070088863 0
4.0187922 -0.31840315 0.070368104 0
4.0157762 -0.3195748 0.21112327 0
4.0356641 -0.32257512 0.35420093 0
4.0425935 -0.32383913 0.49795815 0
4.0463233 -0.32555947 0.64294571 0
3.9795485 -0.321585 -0.20923917 0
3.9783108 -0.3228828 -0.069670007 0
4.0116196 -0.3326349 0.070263386 0
4.018558 -0.33462265 0.2113326 0
4.0245862 -0.33583194 0.35332939 0
4.0453362 -0.33898535 0.49844566 0
4.0372295 -0.33972526 0.64169425 0
3.9823239 -0.336505 -0.20944853 0
3.9751081 -0.33729282 -0.069635101 0
4.0024657 -0.3459473 0.070123769 0
4.0173655 -0.34864801 0.2113326 0
4.0094948 -0.34867001 0.35210916 0
4.0263295 -0.35155007 0.496252 0
4.0419226 -0.35433322 0.6426329 0
3.9751561 -0.34987846 -0.2091345 0
3.9758985 -0.3513425 -0.069670007 0
3.9892836 -0.35884148 0.069914341 0
4.0161242 -0.36266911 0.2113326 0
4.016191 -0.36338183 0.35280645 0
4.0151935 -0.36470464 0.49503332 0
4.0386944 -0.36826071 0.64232004 0
3.950043 -0.36156756 -0.20787844 0
3.9726567 -0.36503589 -0.069635101 0
3.9899976 -0.37295058 0.069949247 0
3.9949486 -0.37482005 0.21028589 0
4.0168815 -0.37758514 0.35298076 0
4.0059905 -0.37797219 0.49405837 0
4.0334506 -0.38198361 0.64169425 0
3.9547217 -0.37592056 -0.20819245 0
3.9733489 -0.37909073 -0.069670007 0
3.9846907 -0.3864899 0.069879435 0
3.9916961 -0.38787261 0.21018122 0
4.0016584 -0.39025071 0.35176057 0
4.0026712 -0.39176002 0.49381462 0
4.0164337 -0.39381477 0.63919127 0
3.9573607 -0.39011467 -0.2084018 0
3.96013 -0.39108559 -0.069460578 0
3.9774179 -0.39910254 0.069774717 0
3.9923048 -0.40200394 0.21028589 0
3.9883773 -0.40301484 0.35071471 0
4.0112247 -0.40603077 0.49503332 0
4.0170002 -0.40803197 0.63950419 0
3.9560452 -0.40323561 -0.2084018 0
3.954762 -0.40449965 -0.069390766 0
3.9620779 -0.41153768 0.06953039 0
3.9849176 -0.41531613 0.20997187 0
3.989001 -0.41644549 0.350889 0
4.0038605 -0.41940969 0.49430209 0
4.0057287 -0.42101905 0.63793981 0
3.9426961 -0.41578558 -0.20777377 0
3.9533257 -0.41830194 -0.069390766 0
3.9546523 -0.42472482 0.069425672 0
3.9814579 -0.42900962 0.20986721 0
3.9973521 -0.43213382 0.35176057 0
3.9885573 -0.43188733 0.49259594 0
4.0042348 -0.43499905 0.63793981 0
3.925262 -0.42849955 -0.20693639 0
3.9518414 -0.43209904 -0.069390766 0
3.9630063 -0.44032058 0.069600195 0
3.9600861 -0.44069585 0.20882049 0
3.9799781 -0.44431609 0.35036606 0
3.9849741 -0.44628221 0.49235216 0
3.9987659 -0.44853345 0.63731414 0
3.9197731 -0.44175133 -0.20672706 0
3.9324257 -0.44387233 -0.069076627 0
3.9615245 -0.45345998 0.069600195 0
3.9566188 -0.45359808 0.20871581 0
3.9844215 -0.45819461 0.350889 0
3.987417 -0.4599494 0.49283966 0
3.9776332 -0.45952433 0.63418543 0
3.9222543 -0.45520779 -0.20693639 0
3.922987 -0.45598677 -0.068937011 0
3.9599988 -0.4665944 0.069600195 0
3.9550111 -0.46740648 0.20871581 0
3.9650729 -0.46929732 0.34932023 0
3.9858699 -0.47316962 0.49283966 0
3.9701202 -0.47270542 0.63324684 0
3.9207234 -0.46821198 -0.20693639 0
3.9193857 -0.46943992 -0.068902098 0
3.9325392 -0.4772824 0.069146432 0
3.9593034 -0.48193318 0.20902982 0
3.9593706 -0.48334399 0.34897158 0
3.9802525 -0.48659819 0.49235216 0
3.9723673 -0.48704162 0.63387251 0
3.9150162 -0.48209083 -0.20672706 0
3.913754 -0.48262879 -0.068832293 0
3.9327478 -0.49194089 0.069181338 0
3.9575102 -0.49644148 0.20902982 0
3.9576595 -0.49716181 0.34897158 0
3.9548085 -0.49820602 0.48942733 0
3.9764349 -0.5023405 0.6348111 0
3.8954771 -0.49349472 -0.20578501 0
3.927829 -0.4989863 -0.069111533 0
3.9349735 -0.50617605 0.06925115 0
3.9379258 -0.50795317 0.20808777 0
3.9558997 -0.51097357 0.34897158 0
3.9530454 -0.51200783 0.48942733 0
3.9668217 -0.51520014 0.63355964 0
3.8937306 -0.50708944 -0.20578501 0
3.9022686 -0.50958675 -0.068692669 0
3.9252532 -0.5188604 0.069111533 0
3.9262288 -0.52038383 0.20756441 0
3.9422414 -0.52320641 0.34792572 0
3.9551692 -0.52632713 0.48991477 0
3.9532509 -0.52747625 0.63168246 0
3.8859978 -0.51988345 -0.20547098 0
3.8885746 -0.52160996 -0.068483248 0
3.9253991 -0.53282785 0.069146432 0
3.9323046 -0.5351631 0.20798311 0
3.9384172 -0.53669518 0.34775141 0
3.9572415 -0.54066747 0.49040228 0
3.9494286 -0.54100442 0.63136959 0
3.8881168 -0.53398848 -0.20568034 0
3.8926733 -0.5359987 -0.068587959 0
3.9017293 -0.54349208 0.068762481 0
3.9364429 -0.54902792 0.20829713 0
3.9266536 -0.54905999 0.34687987 0
3.9435349 -0.55282402 0.48893982 0
3.9476128 -0.55409819 0.63136959 0
3.8862293 -0.54755729 -0.20568034 0
3.8908741 -0.54890436 -0.068587959 0
3.8979259 -0.55614519 0.068727575 0
3.928669 -0.56123126 0.20798311 0
3.9267836 -0.56236064 0.34705415 0
3.9318554 -0.5644877 0.48772117 0
3.9457536 -0.56718582 0.63136959 0
3.8685777 -0.55815983 -0.20484295 0
3.8929908 -0.56237572 -0.068657771 0
3.9019964 -0.5699352 0.068832293 0
3.906924 -0.57204789 0.20693639 0
3.9268684 -0.57566822 0.34722847 0
3.926034 -0.57694584 0.48723367 0
3.9417953 -0.58066779 0.63105673 0
3.8587027 -0.57049179 -0.20442426 0
3.8910041 -0.57596141 -0.068657771 0
3.9018583 -0.5845291 0.068867192 0
3.9008508 -0.58577049 0.20672706 0
3.9207916 -0.58946466 0.34687987 0
3.923893 -0.5913316 0.48723367 0
3.9162021 -0.59157079 0.62730229 0
3.8605351 -0.58522952 -0.20463361 0
3.8690963 -0.58721823 -0.068308719 0
3.8957369 -0.59821922 0.068797387 0
3.9065738 -0.6012792 0.20714574 0
3.90679 -0.60201055 0.34583399 0
3.9295464 -0.60692143 0.48820862 0
3.9140077 -0.60592043 0.62730229 0
3.9286849 -0.60889465 0.77277648 0
3.8604426 -0.59900802 -0.20473827 0
3.8708699 -0.60200977 -0.06837853 0
3.8778214 -0.60933095 0.068518147 0
3.8965595 -0.61366916 0.20672706 0
3.8987606 -0.61471319 0.34531105 0
3.9156396 -0.61877531 0.48674619 0
3.9138196 -0.61988813 0.62761515 0
3.891633 -0.61707044 0.76590741 0
3.8464925 -0.61060101 -0.20411025 0
3.8529463 -0.61300433 -0.06809929 0
3.8756707 -0.62286341 0.068518147 0
3.8943934 -0.62726694 0.20672706 0
3.906426 -0.62990451 0.34618258 0
3.8977785 -0.62990612 0.48479629 0
3.9116318 -0.63354611 0.62761515 0
3.8894556 -0.630651 0.76590741 0
3.8285663 -0.62146407 -0.20327288 0
3.8586779 -0.62773424 -0.068238907 0
3.8734729 -0.63638824 0.068518147 0
3.872473 -0.63761222 0.20568034 0
3.9002717 -0.64288855 0.34583399 0
3.895556 -0.64350814 0.48479629 0
3.9074478 -0.64687383 0.62730229 0
3.891104 -0.64486575 0.76667058 0
3.8263738 -0.6348244 -0.20327288 0
3.8505454 -0.64021575 -0.068134196 0
3.8734269 -0.64888442 0.068553053 0
3.8724203 -0.65010548 0.20578501 0
3.892338 -0.6541478 0.34531105 0
3.8935151 -0.65574312 0.48479629 0
3.8937092 -0.65717363 0.62542504 0
3.8968019 -0.65839517 0.768197 0
3.8263297 -0.64717513 -0.20337754 0
3.8327427 -0.64963609 -0.067854956 0
3.8612828 -0.66071481 0.06837853 0
3.8760331 -0.66463143 0.20609902 0
3.8722422 -0.66537291 0.34374225 0
3.8912024 -0.66933012 0.48479629 0
3.8797119 -0.66874796 0.62354785 0
3.8866243 -0.67133659 0.76667058 0
3.8259003 -0.66153532 -0.20348223 0
3.8225698 -0.6616466 -0.067715339 0
3.8470166 -0.67279577 0.068169102 0
3.8696365 -0.67814386 0.20588967 0
3.8640087 -0.67785269 0.34321931 0
3.8887231 -0.68358749 0.48479629 0
3.87918 -0.68330598 0.62386072 0
3.8726566 -0.68285382 0.76438087 0
3.819634 -0.67419189 -0.20327288 0
3.8260267 -0.67669743 -0.06782005 0
3.8446445 -0.68622023 0.068169102 0
3.8633137 -0.69094396 0.20568034 0
3.8596575 -0.69098526 0.343045 0
3.8726358 -0.69470394 0.48309013 0
3.8845482 -0.69824058 0.62511224 0
3.8741138 -0.69706309 0.76514411 0
3.8054636 -0.68539661 -0.20264484 0
3.8295448 -0.69111407 -0.067924768 0
3.842226 -0.69963634 0.068169102 0
3.8471243 -0.70191592 0.20494762 0
3.8709421 -0.70695949 0.34426519 0
3.8565187 -0.70571649 0.48138395 0
3.874315 -0.71037084 0.62386072 0
3.8755193 -0.71129084 0.76590741 0
3.799119 -0.69795424 -0.20243551 0
3.8172758 -0.70266736 -0.067750245 0
3.8436923 -0.71377403 0.068238907 0
3.8407238 -0.71460986 0.20473827 0
3.8566985 -0.71827859 0.34321931 0
3.855983 -0.71953803 0.48162767 0
3.8601613 -0.72171223 0.62198347 0
3.8730128 -0.72481459 0.76590741 0
3.8005857 -0.71194685 -0.20264484 0
3.8010421 -0.71340585 -0.067505911 0
3.8333185 -0.72569895 0.06809929 0
3.8401682 -0.72838432 0.20484295 0
3.8482955 -0.7306217 0.34269637 0
3.8592982 -0.73410642 0.4823589 0
3.8498569 -0.73370314 0.62073201 0
3.8588881 -0.73612231 0.76361769 0
3.7980773 -0.72520906 -0.20264484 0
3.7965646 -0.72629386 -0.067471005 0
3.8189807 -0.73680234 0.067889862 0
3.8493681 -0.74405879 0.20547098 0
3.8339849 -0.74177951 0.34165049 0
3.8567121 -0.74757344 0.4823589 0
3.8472722 -0.74713713 0.62073201 0
3.8466587 -0.74771476 0.76170951 0
3.7994437 -0.73922533 -0.20285419 0
3.7979317 -0.74030709 -0.06754081 0
3.8085372 -0.74858588 0.067750245 0
3.8351214 -0.75450647 0.20484295 0
3.8313723 -0.75515813 0.34165049 0
3.8404469 -0.75833946 0.48065275 0
3.852525 -0.76142305 0.62198347 0
3.8305447 -0.75846827 0.75903821 0
3.7772489 -0.74860054 -0.20180747 0
3.7934945 -0.75250828 -0.067505911 0
3.8099556 -0.76199573 0.06782005 0
3.8148391 -0.76435751 0.2039009 0
3.8365266 -0.77009594 0.34234774 0
3.8223412 -0.76794255 0.47870281 0
3.8401611 -0.77291745 0.62041914 0
3.8241594 -0.77039117 0.75827497 0
3.7786613 -0.76191169 -0.20201682 0
3.7967248 -0.76693326 -0.067610621 0
3.8170695 -0.77728534 0.067994572 0
3.8160617 -0.77846754 0.20411025 0
3.8261433 -0.78121972 0.34165049 0
3.8235271 -0.78207594 0.47919029 0
3.8258286 -0.78393817 0.61854196 0
3.8329861 -0.786102 0.76056474 0
3.7603269 -0.77188426 -0.20117943 0
3.7744374 -0.77615386 -0.067261577 0
3.7986689 -0.78735793 0.067715339 0
3.8054991 -0.79015923 0.20369156 0
3.8136392 -0.79254371 0.34077895 0
3.8285477 -0.79703617 0.48016527 0
3.8172674 -0.79607821 0.61760336 0
3.8186877 -0.79706991 0.75827497 0
3.7615199 -0.78582245 -0.20138879 0
3.763876 -0.78768593 -0.067121953 0
3.7900271 -0.79937482 0.067610621 0
3.8027177 -0.80343801 0.20369156 0
3.8011031 -0.80378997 0.33990738 0
3.8257422 -0.81039548 0.48016527 0
3.8202624 -0.81062818 0.61854196 0
3.8082004 -0.80876333 0.7567485 0
3.758754 -0.79894787 -0.20138879 0
3.7650154 -0.80165237 -0.067191765 0
3.7774379 -0.81050211 0.067436099 0
3.7959847 -0.81586778 0.20348223 0
3.8041177 -0.81831044 0.34043032 0
3.8073657 -0.8203997 0.47821537 0
3.8212714 -0.82479197 0.61916769 0
3.7938402 -0.81956422 0.75445884 0
3.740325 -0.80868685 -0.20055141 0
3.7641487 -0.81521314 -0.067226671 0
3.7843542 -0.82581449 0.067610621 0
3.7717943 -0.82376343 0.20233083 0
3.7992918 -0.83115852 0.34025604 0
3.8025396 -0.83325994 0.47797161 0
3.8069382 -0.83492023 0.61729044 0
3.8024611 -0.83532959 0.7567485 0
3.7335777 -0.82088023 -0.20034206 0
3.7614248 -0.82769108 -0.067226671 0
3.7815948 -0.83835936 0.067610621 0
3.7844939 -0.84038818 0.2031682 0
3.7963676 -0.84441555 0.34025604 0
3.8055685 -0.84715909 0.47870281 0
3.7924323 -0.84562439 0.61541325 0
3.8035028 -0.84878963 0.75751179 0
3.7269368 -0.83238608 -0.20013271 0
3.7468035 -0.8381964 -0.067017242 0
3.7825472 -0.8524338 0.067680433 0
3.7758415 -0.85161513 0.20285419 0
3.7760556 -0.85304862 0.33868721 0
3.8064604 -0.86131406 0.47919029 0
3.7915339 -0.85863215 0.61572611 0
3.7986021 -0.86162686 0.75713015 0
3.7395902 -0.84892768 -0.20097008 0
3.7381532 -0.84928757 -0.066912524 0
3.7602067 -0.8605116 0.067331389 0
3.7670052 -0.86345142 0.20254017 0
3.7808228 -0.86800772 0.33938447 0
3.7958443 -0.87215388 0.47821537 0
3.7865887 -0.87141889 0.61541325 0
3.7785056 -0.87025303 0.75369561 0
3.7289693 -0.8595295 -0.20055141 0
3.7332177 -0.86188114 -0.066877626 0
3.7591274 -0.87408477 0.067366287 0
3.77953 -0.88021958 0.20337754 0
3.7818041 -0.88144511 0.33973309 0
3.777312 -0.88178831 0.47626543 0
3.7989118 -0.88822913 0.61791623 0
3.7677982 -0.881648 0.75216907 0
3.7123337 -0.86935294 -0.1998187 0
3.7379739 -0.87673378 -0.067017242 0
3.7443769 -0.88444316 0.067156859 0
3.7608855 -0.88972878 0.20254017 0
3.7824254 -0.8962189 0.34008169 0
3.7664847 -0.89313614 0.47529048 0
3.7842567 -0.89874572 0.61603898 0
3.7740912 -0.89772332 0.7540772 0
3.7091224 -0.88295352 -0.1998187 0
3.7271097 -0.88792276 -0.066877626 0
3.746943 -0.89956146 0.067261577 0
3.7498317 -0.90163934 0.20212148 0
3.7753999 -0.90848428 0.33973309 0
3.7670457 -0.90786523 0.47577798 0
3.7617347 -0.90797478 0.61291033 0
3.77666 -0.91227484 0.75522202 0
3.7137833 -0.89777267 -0.20023739 0
3.7102253 -0.89828342 -0.066633284 0
3.7437799 -0.91263515 0.067261577 0
3.7505422 -0.91567063 0.20233083 0
3.756722 -0.91787422 0.33833858 0
3.7812076 -0.9252556 0.47797161 0
3.7547054 -0.92015976 0.6122846 0
3.769639 -0.92451704 0.75445884 0
3.7145061 -0.91168278 -0.20044672 0
3.7012417 -0.90979707 -0.066528574 0
3.730866 -0.92329597 0.067087047 0
3.7570159 -0.93115932 0.20285419 0
3.7476938 -0.92954308 0.33781564 0
3.768322 -0.93605602 0.47675291 0
3.7648892 -0.93659866 0.61447465 0
3.7435277 -0.9319784 0.74987942 0
3.7074251 -0.92367762 -0.20023739 0
3.7058039 -0.92464775 -0.06666819 0
3.7198627 -0.93436491 0.06694743 0
3.7401843 -0.94085741 0.20212148 0
3.7521546 -0.94456494 0.3385129 0
3.7457829 -0.94435143 0.47431552 0
3.7520204 -0.94731706 0.61291033 0
3.7440586 -0.94600195 0.75064266 0
3.6848152 -0.93171734 -0.19919068 0
3.7180619 -0.94150484 -0.06694743 0
3.7165785 -0.94734395 0.06694743 0
3.7312381 -0.95177418 0.20180747 0
3.7584867 -0.96012235 0.33938447 0
3.7424638 -0.95742083 0.47431552 0
3.7526858 -0.96073389 0.61353606 0
3.750242 -0.96150327 0.75255072 0
3.6815405 -0.944574 -0.19919068 0
3.6974874 -0.94935334 -0.066633284 0
3.7211609 -0.9616648 0.067087047 0
3.7259593 -0.96429235 0.20170279 0
3.7454689 -0.97073668 0.3385129 0
3.7488761 -0.97231799 0.47553423 0
3.7397494 -0.97134429 0.61197168 0
3.7470331 -0.97393417 0.75255072 0
3.6822536 -0.9577828 -0.19940001 0
3.6806052 -0.95872581 -0.066388957 0
3.7100441 -0.97261977 0.06694743 0
3.7245026 -0.97779983 0.20180747 0
3.7152512 -0.97606409 0.33607253 0
3.7396996 -0.98388278 0.474803 0
3.7267854 -0.98187625 0.61040735 0
3.7417123 -0.9865073 0.75216907 0
3.6866126 -0.97266853 -0.1998187 0
3.6733696 -0.97054607 -0.066319145 0
3.6988962 -0.98350888 0.066807814 0
3.7307165 -0.99336416 0.20233083 0
3.7118213 -0.98902684 0.33607253 0
3.7362425 -0.99693078 0.474803 0
3.7271519 -0.9958989 0.61103308 0
3.7211764 -0.99499816 0.74873453 0
3.6793361 -0.98449874 -0.19960935 0
3.6776855 -0.98543286 -0.066458762 0
3.6799948 -0.99224967 0.066528574 0
3.7119756 -1.0015678 0.20149344 0
3.706423 -1.0014578 0.33589822 0
3.7174103 -1.005819 0.47285309 0
3.731456 -1.0103183 0.6122846 0
3.7195752 -1.0084952 0.74911612 0
3.6643119 -0.99419808 -0.19898133 0
3.682117 -0.99971896 -0.066598386 0
3.701761 -1.0112984 0.066982336 0
3.6872656 -1.0087217 0.20034206 0
3.7144344 -1.017548 0.3369441 0
3.7102256 -1.0170912 0.47236562 0
3.7279067 -1.0233374 0.6122846 0
3.7181034 -1.0213442 0.74949777 0
3.6532915 -1.0042264 -0.19856264 0
3.6631808 -1.0083202 -0.066319145 0
3.6866453 -1.0210115 0.066772908 0
3.6856465 -1.0221202 0.20044672 0
3.7052801 -1.0282614 0.33642116 0
3.7104781 -1.031099 0.47285309 0
3.7052813 -1.0310483 0.60915589 0
3.7145157 -1.0343165 0.74949777 0
3.6516881 -1.0175089 -0.19866732 0
3.6577127 -1.0205636 -0.066284239 0
3.6907599 -1.0360358 0.066912524 0
3.6916702 -1.0376817 0.20097008 0
3.6901608 -1.0379523 0.33537531 0
3.706856 -1.0440447 0.47285309 0
3.6978567 -1.0429034 0.6085301 0
3.707104 -1.0462099 0.74873453 0
3.6577244 -1.0329634 -0.19919068 0
3.6541278 -1.0333252 -0.066284239 0
3.6794276 -1.0467241 0.066772908 0
3.6862879 -1.0493711 0.20086543 0
3.6884308 -1.0513732 0.33554959 0
3.7070069 -1.0580674 0.47334057 0
3.7019758 -1.0573304 0.60978162 0
3.6939914 -1.0564446 0.74682647 0
3.6502559 -1.0446259 -0.19898133 0
3.6526036 -1.0459875 -0.066319145 0
3.6586423 -1.0539379 0.066458762 0
3.6787641 -1.0611253 0.20065607 0
3.6809101 -1.063136 0.335201 0
3.6882215 -1.0659453 0.47139066 0
3.6982625 -1.0702462 0.60978162 0
3.6866961 -1.0675963 0.74606317 0
3.6352615 -1.0533897 -0.19835329 0
3.6546917 -1.0604029 -0.066423863 0
3.6664588 -1.0700641 0.06666819 0
3.6635354 -1.0705987 0.20002805 0
3.6888385 -1.0786917 0.33624685 0
3.6806676 -1.0776973 0.47090316 0
3.6982954 -1.0842605 0.61040735 0
3.6867149 -1.0815642 0.74682647 0
3.6238968 -1.0638222 -0.1979346 0
3.6432936 -1.0708978 -0.066284239 0
3.6722896 -1.0856905 0.06684272 0
3.6616912 -1.0839472 0.20013271 0
3.68486 -1.0922049 0.33624685 0
3.6921086 -1.0950545 0.47285309 0
3.6793389 -1.0926645 0.60790437 0
3.6827259 -1.0950694 0.74682647 0
3.6276307 -1.0793757 -0.19835329 0
3.6299505 -1.0807557 -0.066109717 0
3.6529613 -1.0945511 0.06656348 0
3.6557808 -1.0967866 0.20002805 0
3.6733918 -1.1027693 0.33554959 0
3.6804662 -1.1062937 0.47187814 0
3.671526 -1.1050041 0.60727865 0
3.6826406 -1.10905 0.74758971 0
3.6238408 -1.0920321 -0.19835329 0
3.6202216 -1.0923198 -0.066004999 0
3.6414642 -1.1049731 0.066423863 0
3.6710398 -1.1153473 0.20107476 0
3.6599891 -1.1126875 0.33467805 0
3.6765821 -1.1191342 0.47187814 0
3.6714258 -1.118965 0.60790437 0
3.6637239 -1.1173165 0.74453676 0
3.620007 -1.1046748 -0.19835329 0
3.622124 -1.1067032 -0.066109717 0
3.6337619 -1.1165026 0.066354051 0
3.6635032 -1.1263409 0.20086543 0
3.6598911 -1.1266288 0.33502665 0
3.6536829 -1.1261139 0.46944076 0
3.6752458 -1.1334624 0.60915589 0
3.652298 -1.1277815 0.74301028 0
3.6008627 -1.1125875 -0.19751592 0
3.6222553 -1.1198899 -0.066179529 0
3.6338584 -1.1297339 0.066423863 0
3.6406765 -1.1325505 0.1998187 0
3.6675484 -1.1423141 0.33607253 0
3.6499286 -1.138224 0.46944076 0
3.6601524 -1.1421132 0.60727865 0
3.6597817 -1.1433997 0.74529999 0
3.5971537 -1.1245222 -0.19751592 0
3.6147044 -1.1307014 -0.066109717 0
3.6358149 -1.1435779 0.066528574 0
3.6367009 -1.1452519 0.1998187 0
3.66184 -1.1538711 0.33589822 0
3.651813 -1.1521131 0.47017199 0
3.6486087 -1.1525024 0.60602719 0
3.659512 -1.1573516 0.74606317 0
3.5951107 -1.1376745 -0.1976206 0
3.5992973 -1.1396904 -0.065900289 0
3.6335044 -1.1575032 0.06656348 0
3.6362848 -1.1597873 0.20002805 0
3.6424019 -1.1624386 0.33450374 0
3.6456749 -1.1648856 0.46992823 0
3.6405973 -1.1646638 0.60540146 0
3.6515062 -1.169559 0.74529999 0
3.5966225 -1.1526722 -0.1979346 0
3.5912876 -1.1516535 -0.065830477 0
3.6121094 -1.1652873 0.066249333 0
3.6379163 -1.1743137 0.20034206 0
3.6362209 -1.1751682 0.33432943 0
3.6432698 -1.178851 0.47017199 0
3.6402681 -1.1785817 0.60602719 0
3.6324606 -1.1774549 0.74224705 0
3.5887773 -1.1639873 -0.19772527 0
3.5891476 -1.1647998 -0.065865383 0
3.6044233 -1.1760186 0.066179529 0
3.6243021 -1.1839045 0.1998187 0
3.6264155 -1.1859958 0.33380648 0
3.6280205 -1.1872218 0.46870953 0
3.6380093 -1.1918964 0.60634005 0
3.6304016 -1.1901058 0.74262863 0
3.5773067 -1.1733917 -0.19730657 0
3.5869596 -1.177945 -0.065900289 0
3.6002963 -1.1885933 0.066179529 0
3.6222529 -1.196543 0.19992337 0
3.6357038 -1.202394 0.33502665 0
3.6200852 -1.1986308 0.46822205 0
3.6302867 -1.2027116 0.60571432 0
3.6336789 -1.2052431 0.74415511 0
3.5712934 -1.1852427 -0.19720189 0
3.5868297 -1.1910938 -0.0659701 0
3.605819 -1.2036915 0.066354051 0
3.6142657 -1.2079136 0.19971403 0
3.6201482 -1.2112845 0.3339808 0
3.6273849 -1.2144101 0.46968448 0
3.6204474 -1.213493 0.60477573 0
3.6296623 -1.2172862 0.74415511 0
3.5711303 -1.1983497 -0.19741124 0
3.5769629 -1.2016965 -0.065865383 0
3.5921226 -1.2130719 0.066179529 0
3.6083479 -1.2192528 0.19960935 0
3.6066749 -1.2200905 0.33310926 0
3.626884 -1.228338 0.47017199 0
3.6107907 -1.2235901 0.60383707 0
3.6216724 -1.2286873 0.74339187 0
3.5725992 -1.212734 -0.19772527 0
3.5653846 -1.2109791 -0.065725766 0
3.5937572 -1.2269154 0.066284239 0
3.6078498 -1.2331328 0.1998187 0
3.6023941 -1.2326727 0.33310926 0
3.6246688 -1.2410016 0.47041571 0
3.6083665 -1.2368273 0.60415 0
3.6027217 -1.2355952 0.74033892 0
3.5704474 -1.2252227 -0.19782993 0
3.5687006 -1.2260159 -0.065865383 0
3.5738997 -1.2354785 0.066004999 0
3.5974262 -1.2450173 0.19950469 0
3.5997343 -1.2465198 0.33328354 0
3.6048725 -1.2497084 0.46846578 0
3.6185203 -1.2558547 0.60665292 0
3.596096 -1.2487755 0.73995733 0
3.5543966 -1.2349902 -0.19720189 0
3.567744 -1.2410238 -0.065935194 0
3.5771165 -1.250586 0.066144623 0
3.5798621 -1.2529485 0.19877198 0
3.5991223 -1.2603946 0.33363217 0
3.5929949 -1.259657 0.46749085 0
3.6029308 -1.264553 0.60477573 0
3.5991247 -1.2639227 0.74148381 0
3.5387583 -1.2434171 -0.19657388 0
3.5615041 -1.2528063 -0.065900289 0
3.5840411 -1.267064 0.066354051 0
3.5775707 -1.265479 0.19887665 0
3.5965788 -1.2736154 0.33380648 0
3.5941892 -1.2741812 0.46822205 0
3.5856857 -1.2718711 0.60258561 0
3.5983911 -1.2777921 0.74224705 0
3.5419245 -1.2584368 -0.19699256 0
3.5497932 -1.2619305 -0.065760665 0
3.568521 -1.2749056 0.066144623 0
3.5731316 -1.2779593 0.19887665 0
3.5827324 -1.2828038 0.33293492 0
3.5918126 -1.2867624 0.46846578 0
3.5830832 -1.2850466 0.60289848 0
3.5959821 -1.2903808 0.74262863 0
3.543371 -1.2722002 -0.19730657 0
3.5453665 -1.2743139 -0.065760665 0
3.5490029 -1.2819195 0.065865383 0
3.5763874 -1.2925165 0.19929534 0
3.5728381 -1.292644 0.332412 0
3.5817001 -1.2972645 0.46773461 0
3.5862312 -1.2996137 0.60415 0
3.5370312 -1.2838796 -0.19720189 0
3.5430009 -1.2867464 -0.065795571 0
3.5522463 -1.2964236 0.066004999 0
3.5793579 -1.3077343 0.19971403 0
3.5739176 -1.3071609 0.33293492 0
3.5661933 -1.3050414 0.46627215 0
3.5215034 -1.2914757 -0.19657388 0
3.5384879 -1.2991061 -0.065795571 0
3.5476995 -1.3088154 0.066004999 0
3.5485413 -1.3105334 0.19824862 0
3.5132284 -1.3023716 -0.19636452 0
3.5339315 -1.3114496 -0.065795571 0
3.5431089 -1.3211912 0.066004999 0
3.5159121 -1.3180438 -0.19678321 0
3.512481 -1.317457 -0.065481432 0
3.522496 -1.3345544 -0.19741124 0
