# .PCD v0.7 - Point Cloud Data file format
VERSION 0.7
FIELDS x y z intensity
SIZE 4 4 4 4
TYPE F F F F
COUNT 1 1 1 1
WIDTH 1370
HEIGHT 1
VIEWPOINT 0 0 0 1 0 0 0
POINTS 1370
DATA ascii
-0.66919029 1.1646981 -0.2127509 27
-6.4578171 11.244107 1.5921013 22
-0.64538777 1.124179 -0.15916139 45
-6.456717 11.251283 2.0546105 27
-0.63566315 1.1076877 -0.11173366 58
-6.4630084 11.266801 2.5247848 27
-0.65471208 1.1418048 -0.068978801 71
-6.4626842 11.275352 3.0003972 30
-0.64815289 1.1312807 -0.022757938 73
-6.46806 11.293867 3.4873281 22
-0.58344114 1.0216376 -0.31524161 42
-0.65728033 1.1514006 0.023141891 93
-0.6094299 1.0680108 -0.28388825 26
-0.65706766 1.1519617 0.06950216 100
-0.67798007 1.1886251 -0.26598775 31
-0.6858573 1.2029229 0.12114649 12
-0.66316468 1.1635944 -0.21212517 28
-6.4440732 11.311427 1.5984384 22
-0.6463716 1.1350499 -0.16038008 41
-6.4369497 11.308086 2.060868 22
-0.63080734 1.1081682 -0.11155935 51
-6.4411144 11.320009 2.5316539 27
-0.64973527 1.1423471 -0.068874128 73
-6.4435153 11.333418 3.0098453 30
-0.64518785 1.1352751 -0.022792844 88
-6.4381423 11.333172 3.4925044 23
-0.57987118 1.0236681 -0.31524161 42
-0.64734501 1.1432474 0.022932461 90
-0.60185874 1.0633477 -0.28208864 34
-0.65992671 1.1664166 0.070234857 100
-0.68446088 1.2097807 -0.27018553 28
-6.4173532 11.347256 1.14052 9
-0.65812647 1.1641827 -0.2118123 27
-6.421154 11.363231 1.602582 21
-0.64826304 1.1476698 -0.1618425 39
-6.4149175 11.36145 2.0664995 23
-0.62889409 1.1138334 -0.11190797 49
-6.4160376 11.368069 2.5373781 28
-0.64672482 1.1463478 -0.068978801 60
-6.4297576 11.401673 3.0219924 27
-0.64416713 1.142746 -0.022897556 95
-6.4175072 11.389239 3.502857 23
-0.58007973 1.0324227 -0.31731215 41
-0.64432991 1.1472436 0.022967368 78
-0.58860326 1.0484495 -0.27758962 33
-0.65585136 1.168713 0.070234857 100
-0.69080263 1.2309954 -0.27438337 24
-6.4011011 11.41129 1.1447035 16
-0.65212667 1.1630267 -0.21118654 25
-6.3979526 11.415013 1.6067256 23
-0.63940197 1.1412666 -0.1606238 30
-6.4003172 11.428583 2.0746341 22
-0.62694961 1.1194985 -0.1122566 51
-6.392622 11.419518 2.5438657 26
-0.63296664 1.1311687 -0.067932077 63
-6.4060936 11.452959 3.0296407 27
-0.64310217 1.1502237 -0.023002272 92
-6.3984489 11.44867 3.5142453 21
-0.57929385 1.0395036 -0.31886509 39
-0.64421415 1.1564734 0.023106987 65
-0.5849396 1.0504979 -0.27758962 37
-0.64496815 1.1587794 0.06950216 100
-0.67886275 1.2196759 -0.27133042 17
-6.3844795 11.475348 1.1488869 22
-0.65094298 1.1704752 -0.21212517 17
-6.3734965 11.465038 1.6106254 19
-0.62095141 1.1174636 -0.15696773 40
-6.3776469 11.48194 2.0802658 22
-0.61916792 1.1147134 -0.11155935 68
-6.3717785 11.476092 2.5514979 26
-0.62707555 1.1298788 -0.06772273 63
-6.3802538 11.500814 3.0363894 31
-0.63229442 1.14022 -0.022757938 75
-6.3827949 11.514868 3.5277038 21
-0.57472694 1.0398288 -0.31834742 37
-0.6411401 1.1604655 0.023141891 63
-0.58880603 1.0661802 -0.28118882 42
-0.63705862 1.1540295 0.069083467 73
-0.62621218 1.1343813 -0.25186789 8
-6.3626699 11.530711 1.1521989 23
-0.6220479 1.1277678 -0.20399056 28
-6.3574009 11.530674 1.6167189 17
-0.61417222 1.1144087 -0.15623651 54
-6.3518291 11.530084 2.0849588 28
-0.61719596 1.1203579 -0.11190797 80
-6.3572521 11.544696 2.5618017 23
-0.62698036 1.1390594 -0.068141423 66
-6.3607392 11.560576 3.0462873 30
-0.62638342 1.1389158 -0.022688128 75
-6.3630385 11.574319 3.5390918 21
-0.56645095 1.0333583 -0.31575924 34
-0.63708508 1.1626966 0.023141891 70
-0.58508104 1.068229 -0.28118882 41
-0.64090395 1.1701493 0.069920845 86
-0.59113646 1.0797321 -0.2392745 16
-6.3395958 11.584312 1.1553365 24
-0.6152637 1.1247332 -0.20305197 37
-6.3399673 11.594599 1.6225686 17
-0.61333019 1.1216646 -0.15696773 58
-6.3315558 11.584019 2.0909033 25
-0.60563952 1.1085178 -0.11051348 80
-6.3329091 11.59611 2.5682893 26
-0.63161308 1.1570188 -0.069083467 73
-6.3410397 11.615817 3.0552852 54
-0.61877197 1.1339651 -0.02254851 73
-6.3283191 11.602142 3.5411625 23
-0.56302083 1.0352312 -0.31575924 29
-0.62558538 1.1507477 0.022862652 83
-0.57874382 1.0650268 -0.27983913 40
-0.63797337 1.1740233 0.070025519 95
-0.58567822 1.0782362 -0.23851125 28
-6.3078027 11.617526 1.1565567 24
-0.60116535 1.1076697 -0.1996104 38
-6.3204169 11.650455 1.6274434 20
-0.6115005 1.1271819 -0.15745521 58
-6.2959347 11.610161 2.0918419 31
-0.60290939 1.1122719 -0.11068779 82
-6.2672987 11.566986 2.5572224 32
-0.62396836 1.152082 -0.068664782 79
-6.2625804 11.563096 3.0359395 51
-0.61691195 1.1395279 -0.022618318 73
-6.247519 11.544908 3.5173512 44
-0.56784111 1.0523938 -0.32041797 26
-0.61986774 1.1492959 0.022792844 87
-0.56781089 1.0532172 -0.2762399 38
-0.6367141 1.1815176 0.070339531 92
-0.58209968 1.0801724 -0.23851125 32
-6.2371197 11.578739 1.1506301 51
-0.5956161 1.1061785 -0.19898467 47
-6.2253017 11.566469 1.612819 56
-0.605681 1.1258135 -0.15696773 60
-6.2226257 11.571173 2.0808916 69
-0.60016149 1.1160196 -0.11086211 80
-6.20753 11.547933 2.5484452 52
-0.61636281 1.1471075 -0.068246089 84
-6.2138839 11.569434 3.0318904 63
-0.6138767 1.1434363 -0.022653224 69
-6.2044377 11.561539 3.5157981 42
-0.56872094 1.0628865 -0.32300618 20
-0.61773801 1.1549792 0.022862652 83
-0.56688708 1.0603487 -0.27758962 37
-0.62505484 1.169641 0.06950216 87
-0.57647467 1.0787348 -0.23774803 37
-6.1910286 11.589898 1.1495842 77
-0.59454215 1.1134785 -0.19992328 56
-6.1811471 11.581125 1.6118441 51
-0.59707576 1.1191636 -0.15574904 62
-6.1803346 11.589339 2.0802658 54
-0.600012 1.1251402 -0.11155935 78
-6.1810322 11.59552 2.5541694 41
-0.61329436 1.1510146 -0.06835077 91
-6.2201777 11.678775 3.0548353 25
-0.61082095 1.1473374 -0.022688128 77
-6.2684126 11.779247 3.5753264 32
-0.56500751 1.064865 -0.32300618 12
-0.62119848 1.1712613 0.023141891 83
-0.56683367 1.0692079 -0.27938923 36
-0.62096846 1.1718156 0.06950216 80
-0.57086742 1.077271 -0.23698479 40
-6.2008977 11.706511 1.1589971 27
-0.59065205 1.1155469 -0.19992328 52
-6.2465444 11.802644 1.6396303 20
-0.59316576 1.1212409 -0.15574904 65
-6.2488093 11.816898 2.1171842 23
-0.59794384 1.1307502 -0.11190797 80
-6.2552023 11.833985 2.6018715 24
-0.61020613 1.1549141 -0.068455435 86
-6.2540016 11.841716 3.0917273 28
-0.60494542 1.1459255 -0.022618318 77
-6.2326694 11.811306 3.5784321 48
-0.56848276 1.0805084 -0.32714728 7
-0.61710596 1.1734228 0.023141891 83
-0.56853873 1.0815295 -0.28208864 36
-0.61873204 1.1775123 0.069711499 73
-0.5634504 1.0723056 -0.23545831 42
-6.2276244 11.856851 1.1717217 25
-0.58491814 1.1141038 -0.19929753 52
-6.2339001 11.87887 1.6471862 18
-0.59017009 1.1250626 -0.15599278 70
-6.223114 11.868382 2.122503 27
-0.59029198 1.1257725 -0.11121072 78
-6.230258 11.88705 2.6087408 24
-0.60987812 1.1641139 -0.068874128 87
-6.2325144 11.901456 3.1016252 30
-0.59908664 1.1444871 -0.02254851 84
-6.1609478 11.774794 3.5608325 47
-0.73537111 1.4096297 -0.42601615 5
-0.60191131 1.1542923 0.022723034 87
-0.56566048 1.0852356 -0.28253853 36
-0.62497884 1.1990397 0.070862897 56
-0.56514698 1.0847123 -0.23774803 41
-6.2027659 11.910324 1.1748594 24
-0.57737684 1.1091303 -0.19804606 51
-6.2143917 11.94282 1.653036 19
-0.59356749 1.1412045 -0.15794268 68
-6.2083364 11.936269 2.1309505 24
-0.58268267 1.120755 -0.11051348 78
-6.2050242 11.940081 2.6156096 25
-0.60581118 1.1662357 -0.068874128 81
-6.2169776 11.973293 3.1146722 34
-0.59897435 1.1535662 -0.022688128 84
-6.1005111 11.754006 3.5484095 50
-0.76861066 1.4859717 -0.44827461 6
-0.60359263 1.1669387 0.022932461 87
-0.55668885 1.076719 -0.27983913 31
-0.62262321 1.2047627 0.071072236 35
-0.56315953 1.0901668 -0.23851125 40
-6.1940646 11.995633 1.1811346 24
-0.57188332 1.1075283 -0.19742033 51
-6.1874967 11.988059 1.6564482 19
-0.58431917 1.1325816 -0.15648025 68
-6.1892648 12.001761 2.1387722 23
-0.58515686 1.1351789 -0.11173366 82
-6.1824832 11.99375 2.6228604 23
-0.59645182 1.1575854 -0.068246089 79
-6.1977568 12.03369 3.12502 33
-0.59952015 1.1645398 -0.022862652 92
-6.0382328 11.734002 3.5359859 49
-0.76896942 1.4988256 -0.45138043 6
-0.6049903 1.1797149 0.023141891 83
-0.55025983 1.0734533 -0.27848941 29
-0.61477119 1.1998185 0.070653543 13
-0.55954099 1.0920285 -0.23851125 38
-6.1660557 12.039163 1.1834006 23
-0.57161427 1.1165514 -0.1986718 51
-6.1618919 12.04139 1.6608355 18
-0.57855392 1.13108 -0.15599278 66
-6.1653204 12.058468 2.1450298 27
-0.58572447 1.146085 -0.11260521 80
-6.1638112 12.060708 2.6327827 21
-0.59240717 1.1596605 -0.068246089 71
-6.1707826 12.084756 3.1326683 31
-0.59545177 1.1666253 -0.022862652 92
-5.9779191 11.717152 3.5245979 52
-0.76259553 1.4999115 -0.4508628 6
-0.60358775 1.1871669 0.023246605 75
-0.55268991 1.0875283 -0.28163874 26
-6.1410737 12.089018 0.71061772 24
-0.55109018 1.0853195 -0.23660316 35
-6.1498446 12.116756 1.1888043 25
-0.56930566 1.1221621 -0.19929753 50
-6.1440744 12.110624 1.6674166 16
-0.57280618 1.1295518 -0.15550528 68
-6.1419492 12.116915 2.1515999 24
-0.5826211 1.1498998 -0.11277953 71
-6.1452866 12.134013 2.6438496 24
-0.59266347 1.1707335 -0.068769448 66
-6.1466875 12.147284 3.1430163 27
-0.58866751 1.1633438 -0.022757938 84
-5.9143085 11.693127 3.5111394 53
-0.75387681 1.4956642 -0.44879225 6
-0.60013205 1.1911575 0.023281511 67
-0.55395901 1.0999898 -0.28433815 24
-6.1338696 12.179951 0.71469992 35
-0.5490641 1.0907438 -0.23736641 35
-6.1137776 12.150609 1.1900245 25
-0.56716001 1.1276722 -0.19992328 48
-6.1219335 12.177402 1.67351 16
-0.57401055 1.1422861 -0.15696773 64
-6.1182384 12.175348 2.1581702 23
-0.5732376 1.1412442 -0.11173366 71
-6.1222754 12.193988 2.652245 24
-0.59215629 1.1799356 -0.06918814 60
-6.1295848 12.219181 3.1560633 27
-0.58101624 1.158242 -0.022618318 77
-5.8474813 11.661892 3.4956102 49
-0.74692464 1.4948303 -0.44775698 7
-0.58902836 1.1788301 0.023002272 52
-0.55466217 1.1105375 -0.28658766 17
-6.1082687 12.235238 0.71668863 35
-0.54788339 1.0979236 -0.23851125 34
-6.0988979 12.227145 1.1954281 29
-0.56165421 1.1260113 -0.19929753 47
-6.102778 12.240272 1.6793597 16
-0.57730311 1.1583965 -0.15891764 62
-6.1003661 12.246137 2.1669304 20
-0.57102627 1.1468054 -0.11208228 67
-6.0940528 12.23883 2.6575878 24
-0.59358007 1.192621 -0.069816172 55
-6.1107335 12.283058 3.167311 27
-0.58320206 1.172797 -0.022862652 69
-5.7861032 11.640712 3.4831867 52
-0.74367863 1.5007612 -0.44879225 7
-0.58757228 1.1862551 0.023106987 35
-0.54818857 1.1072274 -0.28523794 9
-6.0850086 12.295869 0.71899146 33
-0.55120546 1.1138111 -0.2415642 30
-6.0742154 12.279449 1.1985657 27
-0.55772048 1.1279647 -0.19929753 43
-6.0767221 12.295315 1.6839907 16
-0.57325572 1.1604047 -0.15891764 58
-6.0750709 12.302782 2.1731877 18
-0.57427758 1.1629843 -0.11347678 64
-6.0695448 12.296996 2.6656017 21
-0.58764571 1.1911035 -0.069606826 47
-6.0850549 12.339271 3.1763089 28
-0.58264148 1.1819999 -0.023002272 66
-5.7266469 11.622716 3.4717989 32
-0.73928744 1.5050815 -0.44930989 7
-5.7126608 11.635276 0.226253 8
-0.55118841 1.1231298 -0.28883713 5
-6.0578866 12.34931 0.72087556 30
-0.54731447 1.1157284 -0.2415642 24
-6.0620179 12.363188 1.2046666 24
-0.55464882 1.1316787 -0.1996104 41
-6.0503621 12.350321 1.6886218 16
-0.56309086 1.1499189 -0.15721147 52
-6.0564084 12.373591 2.1819482 20
-0.57371837 1.1721398 -0.11417402 58
-6.0524697 12.371013 2.6770504 17
-0.58611691 1.1985301 -0.069920845 41
-6.0564966 12.390197 3.1839571 19
-0.58290154 1.19301 -0.023176797 59
-5.6919727 11.654788 3.4754221 26
-0.73656654 1.5128636 -0.4508628 7
-5.6947646 11.701895 0.22716053 24
-0.83709276 1.7208664 -0.44180387 6
-6.0330853 12.408099 0.72307366 30
-0.54169977 1.1141007 -0.24080098 20
-6.0388532 12.42549 1.2086759 25
-0.55760008 1.1478225 -0.20211335 38
-6.0332298 12.424934 1.6959339 18
-0.55820638 1.1500918 -0.15696773 48
-6.0252471 12.41954 2.1863284 21
-0.56768 1.1706492 -0.1138254 49
-6.0298114 12.434459 2.6862092 18
-0.58454281 1.2059605 -0.070234857 23
-6.0327497 12.451601 3.1943049 24
-0.57437533 1.1860387 -0.023002272 39
-5.6546249 11.68154 3.4774928 26
-0.72849846 1.5103333 -0.44930989 7
-0.83954418 1.7413316 -0.44630289 6
-6.0140109 12.479463 0.72600448 33
-0.54528046 1.1319976 -0.24423553 17
-6.0122886 12.487032 1.2125107 25
-0.55510288 1.1534183 -0.20273907 32
-6.0156446 12.499582 1.7032461 18
-0.56193352 1.1681329 -0.15916139 43
-6.0006928 12.479661 2.1932113 23
-0.55927449 1.1636449 -0.11295383 47
-6.0062966 12.502487 2.6961312 21
-3.2784081 6.8272662 -0.39691594 5
-6.0089989 12.519305 3.2060025 25
-0.57975036 1.207867 -0.023386225 12
-5.6104736 11.694239 3.4754221 25
-0.72155589 1.5093811 -0.44827461 7
-5.63416 11.791061 0.22810295 34
-0.83483553 1.7479141 -0.44720268 6
-5.996233 12.554449 0.72914463 31
-0.54301763 1.1374373 -0.24499875 12
-5.9763899 12.524125 1.2140795 24
-0.55362433 1.1606979 -0.2036777 27
-5.9885821 12.56097 1.7086083 21
-0.56021047 1.1755606 -0.15989259 32
-5.981741 12.552244 2.2022848 24
-0.56120652 1.1781815 -0.11417402 42
-5.9786501 12.557057 2.703382 19
-3.252841 6.8350606 -0.39670658 6
-5.9886975 12.589479 3.2185996 21
-5.980361 12.571955 -0.24300732 26
-5.5737638 11.722477 3.4780104 24
-0.71876365 1.5171282 -0.44982749 6
-5.6207099 11.863896 0.2291501 38
-0.82236272 1.7365829 -0.44360349 6
-5.9686108 12.6096 0.73113334 27
-0.54324174 1.1481991 -0.24690685 6
-5.9607406 12.604348 1.2198317 22
-5.9613199 12.611268 1.7127519 18
-0.56139708 1.1881812 -0.16135503 24
-6.0121198 12.730234 2.2298172 45
-0.56049281 1.1873401 -0.11487127 34
-5.9922929 12.69399 2.7285688 5
-3.2250419 6.8349729 -0.39607856 6
-5.9668694 12.65157 3.2293973 24
-5.9492335 12.619884 -0.24353088 26
-5.5377541 11.752346 3.4811163 25
-0.71619302 1.524749 -0.45138043 6
-5.6005116 11.928695 0.23002271 25
-0.81877905 1.7447355 -0.44495317 6
-5.9386392 12.654639 0.73259878 31
-0.95546901 2.0369296 -0.43733424 96
-5.942596 12.674556 1.2247125 22
-1.1559681 2.4666083 -0.43144631 4
-5.9324222 12.664356 1.7171392 18
-0.55219573 1.1793466 -0.15989259 5
-5.9874649 12.787668 2.2363873 41
-0.55993026 1.1964107 -0.11556852 15
-5.9620905 12.745058 2.7350562 1
-3.202857 6.8498068 -0.39628792 6
-5.9391699 12.707631 3.2383955 25
-5.9293613 12.686645 -0.24443841 26
-5.5036597 11.781145 3.4842222 26
-0.71412677 1.5342455 -0.45345098 6
-5.9220853 12.723137 0.24496198 26
-0.81381208 1.7492074 -0.4454031 6
-5.9171715 12.724187 0.73542494 33
-0.94338727 2.0295708 -0.43504456 92
-5.9167824 12.734976 1.2285473 21
-1.1494473 2.4740109 -0.43207204 4
-5.9138007 12.734373 1.7239639 18
-1.4567907 3.1383867 -0.42483655 4
-5.9527645 12.829995 2.2401419 40
-2.0075767 4.3289094 -0.41747603 6
-5.9412656 12.811068 2.7449784 1
-3.1818027 6.8640151 -0.39649725 5
-5.9183006 12.773228 3.250093 25
-5.8968086 12.732668 -0.24492706 26
-5.456007 11.786263 3.4800811 29
-0.70013201 1.5173098 -0.44775698 6
-5.9010906 12.794575 0.24593931 27
-0.81014836 1.7573469 -0.44675279 6
-5.8952904 12.79374 0.73825109 33
-0.93665212 2.0326877 -0.43504456 100
-5.8936925 12.796147 1.2325565 23
-1.1424571 2.4815962 -0.43269777 4
-5.8958707 12.812644 1.7317636 18
-1.4491454 3.1506662 -0.42581153 4
-5.929399 12.89736 2.2482765 41
-1.9882948 4.326838 -0.41660443 7
-5.9293036 12.903085 2.7602429 1
-3.1569879 6.8732653 -0.39639258 5
-5.8964462 12.843396 3.2626901 25
-5.8765168 12.80588 -0.24593931 26
-5.4156337 11.806992 3.4805987 25
-0.69697529 1.5251367 -0.44930989 6
-5.8696942 12.844194 0.24649779 24
-0.80238932 1.7566191 -0.44585299 6
-5.8688483 12.85421 0.74055386 31
-0.93082535 2.0396793 -0.43580776 93
-5.865767 12.859357 1.2365657 21
-1.1292559 2.4767807 -0.43113342 5
-5.8725181 12.880109 1.7381008 16
-1.4430772 3.1665442 -0.42727396 4
-5.9072676 12.968314 2.2570367 40
-1.9715266 4.3301258 -0.4162558 7
-5.8933535 12.949748 2.7655857 1
-3.1301224 6.8811531 -0.39618322 5
-5.8719144 12.914594 3.2752874 25
-5.8541241 12.875465 -0.24688175 27
-5.3751888 11.827581 3.4811163 29
-0.69005328 1.5240409 -0.44827461 6
-5.8423629 12.909347 0.24733551 21
-0.79273331 1.7524459 -0.44405338 6
-5.8461652 12.923752 0.74338001 30
-0.925318 2.0464938 -0.436571 100
-5.8372569 12.916064 1.2400519 21
-1.1181643 2.4753065 -0.43019485 4
-5.8375268 12.928684 1.7417568 17
-1.4281958 3.1645741 -0.42629901 4
-5.8871565 13.044671 2.2667358 40
-1.9580392 4.3406134 -0.41660443 8
-5.8545723 12.984556 2.7686386 2
-3.0970581 6.8720074 -0.39503184 5
-5.8492117 12.984761 3.2878847 25
-5.833786 12.950518 -0.24792889 26
-5.329114 11.835703 3.4780104 35
-0.68947285 1.5370163 -0.45138043 6
-5.8257084 12.987037 0.24845247 32
-0.78532344 1.7515087 -0.44315359 6
-5.8181667 12.982356 0.74557811 30
-0.92137849 2.0568781 -0.43809745 100
-5.8206353 13.000005 1.2461528 23
-1.1123719 2.4844093 -0.43113342 5
-5.8140793 12.991457 1.7476066 16
-1.4160718 3.1656692 -0.42581153 4
-5.8617463 13.110223 2.2745574 40
-1.9477522 4.3583364 -0.41765031 8
-5.8979897 13.197482 2.8098533 2
-3.0726218 6.8785939 -0.39482248 4
-5.8228073 13.041452 3.2973325 27
-5.8064704 13.010979 -0.2486968 26
-5.2885509 11.855998 3.478528 8
-0.68751174 1.546355 -0.45345098 6
-5.8022685 13.05663 0.24939489 45
-0.78395063 1.7649251 -0.44585299 5
-5.7946992 13.051873 0.74840426 33
-0.90817988 2.0455675 -0.43504456 100
-5.7993107 13.068408 1.2508591 22
-1.1036923 2.4882774 -0.43113342 6
-5.7960534 13.073374 1.7558937 19
-1.4034053 3.1669631 -0.42532405 4
-5.8335438 13.170341 2.2814405 40
-1.929255 4.3556623 -0.41677874 8
-5.8566575 13.22876 2.8121431 9
-3.0502102 6.8929291 -0.39503184 3
-5.7961636 13.104473 3.30813 26
-5.7780013 13.069575 -0.24942979 26
-5.2377658 11.853181 3.4723163 1
-0.67588079 1.5346014 -0.44930989 6
-5.7759957 13.120728 0.25023261 24
-0.78092408 1.774786 -0.44765261 5
-5.7740331 13.128695 0.75164908 33
-0.90103441 2.0487249 -0.43504456 100
-5.7688947 13.123224 1.2541711 25
-1.0973831 2.4975405 -0.43207204 6
-5.7743325 13.14805 1.7632058 17
-1.3947362 3.177295 -0.42605525 4
-5.8065801 13.234039 2.2889495 31
-1.9092351 4.3514242 -0.41573292 8
-5.8538151 13.348009 2.833132 3
-3.0269306 6.9053645 -0.39513651 3
-5.7738433 13.178176 3.3216274 26
-5.7540059 13.13912 -0.25037223 27
-5.7711458 13.184537 3.8564038 16
-0.66742951 1.5298688 -0.44723931 7
-5.7461438 13.177472 0.2509307 24
-0.77238864 1.7721416 -0.44630289 6
-5.7497039 13.198209 0.75447518 30
-0.89466107 2.0536575 -0.43542615 100
-5.7429333 13.188952 1.2585289 25
-1.0862939 2.4959221 -0.43113342 5
-5.7442355 13.204534 1.7680806 18
-1.3844275 3.1839652 -0.42629901 4
-5.7855477 13.3122 2.2989612 12
-1.8972117 4.3653708 -0.41643015 10
-5.8189158 13.395372 2.8388562 1
-2.9996276 6.9085593 -0.39471781 3
-5.7487574 13.246514 3.3337746 26
-5.7287931 13.206824 -0.25127974 26
-5.7381549 13.234732 3.8652039 17
-0.66821599 1.5463762 -0.45138043 7
-5.7207289 13.245179 0.25183821 26
-0.76542604 1.7730377 -0.44585299 5
-5.7233839 13.264043 0.757092 30
-0.89059877 2.0639784 -0.43695265 100
-5.7244787 13.272948 1.2646297 26
-1.0728836 2.4888144 -0.42925623 5
-5.7161784 13.266435 1.7736866 18
-1.3748761 3.1924243 -0.42678648 4
-5.7796612 13.426663 2.3152304 3
-1.8827506 4.373796 -0.41660443 8
-5.7953959 13.469707 2.8503048 1
-2.9715505 6.9098139 -0.39419448 3
-5.7248034 13.318419 3.3468218 26
-5.7055464 13.280025 -0.25229198 26
-5.719367 13.318584 3.8838387 19
-0.66053331 1.5433713 -0.44982749 7
-5.7011967 13.327579 0.253025 26
-0.75769955 1.7721151 -0.44495317 5
-5.6998072 13.337203 0.76012754 33
-0.88415968 2.0688801 -0.43733424 96
-5.6992416 13.342323 1.2693362 25
-1.0688426 2.5034449 -0.43113342 5
-5.6885304 13.330127 1.7795362 18
-1.3621656 3.1935525 -0.42629901 4
-5.7683902 13.530346 2.3296225 2
-1.8690335 4.3840079 -0.41695309 8
-5.7606592 13.518751 2.8564107 3
-2.9434974 6.9109573 -0.3936711 3
-5.6950679 13.37777 3.3567197 24
-5.6802979 13.34954 -0.25323442 26
-5.6962767 13.393579 3.8998857 18
-0.65589619 1.5474463 -0.45034516 7
-5.6741438 13.39343 0.25389761 22
-0.75302923 1.7783382 -0.44585299 5
-5.6719027 13.40116 0.76263964 28
-0.87234169 2.0611057 -0.43504456 92
-5.669713 13.402503 1.2731711 22
-1.0600981 2.5071604 -0.43113342 5
-5.6690154 13.413899 1.7880672 17
-1.3479207 3.1909733 -0.42532405 4
-5.7126765 13.530378 2.3261807 41
-1.8498451 4.3813272 -0.41608149 8
-2.9209096 6.92487 -0.39388046 3
-5.6665077 13.440663 3.3675172 26
-5.6491985 13.406141 -0.25393254 26
-5.6667395 13.454329 3.9117911 15
-0.6445086 1.535476 -0.44620407 7
-5.650569 13.468472 0.25494474 28
-0.7483238 1.7845503 -0.44675279 6
-5.6451583 13.468771 0.76536107 30
-0.86514121 2.0641384 -0.43504456 92
-5.6436834 13.471828 1.2778774 25
-1.0513393 2.5108457 -0.43113342 5
-5.6451449 13.488543 1.7953793 19
-1.3413708 3.2066464 -0.42678648 4
-5.699698 13.632251 2.34026 5
-1.8299277 4.376729 -0.41503564 8
-2.9036458 6.951611 -0.39482248 4
-5.6435776 13.517908 3.3819141 24
-5.6239262 13.477453 -0.25490984 26
-5.6368408 13.515038 3.923697 17
-0.63988668 1.5395002 -0.44672167 6
-5.6173272 13.521358 0.25557303 22
-0.73835373 1.7781526 -0.44450328 6
-5.6203156 13.541889 0.76839662 30
-0.8601889 2.0725853 -0.43618938 75
-5.6157055 13.537456 1.2822353 23
-1.0410557 2.5108507 -0.43050769 5
-5.6147494 13.548511 1.8007416 17
-1.3332072 3.2186458 -0.42776144 3
-5.6959071 13.757921 2.3584063 2
-1.8108292 4.3738856 -0.4141641 8
-5.7013545 13.777882 2.8983889 4
-2.8747838 6.9506302 -0.39419448 4
-5.6201839 13.595155 3.396311 26
-5.6028137 13.559838 -0.2560966 26
-5.6139679 13.593554 3.940779 18
-0.63745022 1.5488702 -0.44879225 6
-5.5951948 13.601912 0.25672489 24
-0.73066068 1.7771144 -0.44360349 6
-5.5973067 13.620539 0.77174604 29
-0.854442 2.0792072 -0.43695265 76
-5.5903659 13.610423 1.2872903 23
-1.0300348 2.5089869 -0.42956907 6
-5.587018 13.615774 1.8070788 17
-1.3174435 3.2122602 -0.42629901 4
-5.6763225 13.847173 2.3702953 3
-1.7947848 4.3804936 -0.4141641 8
-5.6710858 13.841301 2.9075477 4
-2.8444469 6.9458365 -0.39335707 4
-5.5948429 13.668794 3.4098082 24
-5.5766439 13.631136 -0.25707394 28
-5.5913396 13.673866 3.9583786 15
-0.63468337 1.5583529 -0.4508628 6
-5.5680494 13.671362 0.25766733 22
-0.72665662 1.785069 -0.44495317 5
-5.5640259 13.675145 0.77373481 27
-0.84829408 2.0859623 -0.43771586 77
-5.5592022 13.676964 1.291648 20
-1.0238054 2.5200663 -0.43082058 6
-5.557384 13.679334 1.8129284 17
-1.3009953 3.2039645 -0.42459282 3
-5.6472626 13.914494 2.3784299 3
-1.7839776 4.397809 -0.41520998 8
-5.6380239 13.905657 2.9167063 4
-2.8174715 6.9525132 -0.39314777 5
-5.562993 13.734365 3.4210558 27
-5.5545559 13.713534 -0.2582607 25
-5.5624261 13.739856 3.9718373 15
-0.62779528 1.5569754 -0.44982749 6
-5.5425739 13.752884 0.25881919 26
-0.71865332 1.7841049 -0.44405338 5
-5.5401397 13.753766 0.77708435 35
-0.8351422 2.0743408 -0.43466291 91
-5.534481 13.753587 1.2970518 18
-1.0150031 2.5236244 -0.43082058 6
-5.5360885 13.771441 1.8224343 18
-1.283322 3.1939759 -0.42264292 4
-5.6229577 13.99461 2.3887546 3
-1.7656443 4.3966146 -0.41451269 8
-5.6230936 14.009063 2.9342608 4
-2.7909527 6.9567456 -0.39283374 5
-5.537497 13.809772 3.4350026 27
-5.5200453 13.766251 -0.25888899 21
-5.5359945 13.812984 3.9873664 17
-0.61805916 1.5483923 -0.44672167 6
-5.5169492 13.821334 0.25976163 24
-0.71417683 1.7900984 -0.44495317 5
-5.514286 13.828679 0.7802245 30
-0.82571524 2.0717723 -0.43351805 90
-5.5100355 13.83205 1.3026297 20
-1.005897 2.5251412 -0.43050769 6
-5.5094781 13.837677 1.8287715 16
-1.277862 3.2111249 -0.42434907 7
-5.5937877 14.063711 2.397202 3
-1.7473434 4.3953447 -0.41381544 10
-5.5940094 14.071419 2.9434197 4
-2.7745068 6.982666 -0.39377576 4
-5.5118146 13.878771 3.4475999 26
-5.4926186 13.837476 -0.25986633 16
-5.5034142 13.871731 3.9987545 17
-0.6150521 1.5558231 -0.44827461 6
-5.4863095 13.885142 0.26059934 24
-0.71078742 1.7998303 -0.44675279 6
-5.4879827 13.903576 0.78336465 27
-0.82172406 2.0818036 -0.43504456 100
-5.4809561 13.892873 1.3066388 21
-0.99490315 2.523124 -0.42956907 6
-5.482254 13.910382 1.83584 16
-1.2695545 3.222954 -0.42532405 4
-5.5439415 14.081312 2.3968892 27
-1.7305695 4.3955531 -0.41329253 10
-5.5427036 14.085378 2.9422748 30
-2.745728 6.9811578 -0.39314777 5
-5.4840131 13.950521 3.4606471 22
-5.4676871 13.916121 -0.26098329 13
-5.4789639 13.951996 4.0163541 14
-0.60820991 1.5543622 -0.44723931 7
-5.457469 13.954493 0.26154178 28
-0.69882435 1.7877808 -0.44315359 6
-5.4619513 13.980316 0.78660947 27
-0.81945366 2.0974596 -0.43771586 100
-5.4527159 13.963887 1.3115195 21
-0.98249805 2.5173807 -0.42800474 5
-5.4509807 13.973817 1.8416896 17
-1.2561339 3.221817 -0.42459282 4
-5.5413718 14.220217 2.4172256 40
-1.7210019 4.416419 -0.41468704 10
-5.5298367 14.19794 2.9617374 23
-2.7184455 6.983254 -0.39272904 6
-5.4607177 14.034959 3.4768434 26
-5.4371929 13.981717 -0.2618559 15
-5.4540277 14.032256 4.0339537 16
-0.60766369 1.5690863 -0.4508628 7
-5.4361582 14.044321 0.26286814 26
-0.69398618 1.793844 -0.44405338 6
-5.4311213 14.04587 0.78922629 27
-0.8092944 2.092983 -0.43618938 100
-5.4312348 14.053453 1.3181434 23
-0.97512895 2.5244803 -0.4286305 6
-5.4264741 14.055724 1.8499768 16
-1.2405928 3.2150698 -0.42313039 4
-7.0341573 18.238911 3.0961514 22
-1.7098777 4.4335527 -0.41573292 10
-2.6911824 6.9852452 -0.39231035 5
-5.431304 14.104854 3.4894409 26
-5.4185243 14.078992 -0.26332191 18
-5.428597 14.112511 4.0515532 16
-0.60149109 1.5693941 -0.45034516 7
-5.4092793 14.121099 0.2639502 24
-0.68841738 1.7980752 -0.44450328 6
-5.4034691 14.120704 0.79236645 27
-0.79707152 2.0829604 -0.43351805 90
-5.4006543 14.12071 1.3226755 21
-0.96983689 2.5370948 -0.43019485 6
-5.3993363 14.132067 1.8575326 15
-1.2293619 3.2193811 -0.42313039 4
-1.6972318 4.4469404 -0.41643015 10
-5.5236454 14.480165 3.0124927 4
-2.6682041 6.9983296 -0.39251971 5
-5.3986859 14.167432 3.5002384 22
-5.3842893 14.137066 -0.26405492 13
-5.3985419 14.181929 4.0660477 14
-0.5918991 1.5606462 -0.44723931 7
-5.3812146 14.195992 0.26499733 24
-0.6828267 1.8022898 -0.44495317 6
-5.3753676 14.195514 0.7955066 26
-0.79327244 2.0949097 -0.43542615 93
-5.368958 14.186063 1.3270333 22
-0.96167427 2.5423121 -0.43050769 5
-5.3738446 14.213959 1.8658198 15
-1.2195206 3.2273664 -0.42361787 4
-1.6746604 4.4341984 -0.41468704 10
-2.6416454 7.0019941 -0.39220569 6
-5.3760171 14.257303 3.5177846 26
-4.587389 12.17228 -0.2270558 9
-5.3687558 14.253114 4.081059 15
-0.58441192 1.5572767 -0.44568643 7
-5.3505931 14.265242 0.26593977 26
-0.6765309 1.8046625 -0.44495317 6
-5.3510132 14.281519 0.7992748 27
-0.78664428 2.0995045 -0.43580776 100
-5.3410635 14.262561 1.332437 24
-0.94863886 2.5345538 -0.4286305 5
-5.3415871 14.279111 1.8719133 16
-1.2103324 3.2371821 -0.42434907 4
-5.3899961 14.423879 2.4388137 48
-1.6535913 4.425087 -0.41329253 8
-5.3839607 14.415379 2.991122 35
-2.618583 7.014915 -0.39241502 6
-5.3500547 14.339887 3.5335312 26
-4.5511627 12.205083 -0.22736996 18
-5.337182 14.320644 4.0950351 16
-0.58233422 1.5683626 -0.44827461 7
-5.3195467 14.334451 0.26688221 24
-0.66548395 1.7942232 -0.44180387 6
-5.3212576 14.354423 0.80231029 29
-0.77862787 2.1003969 -0.43542615 100
-5.3161678 14.348374 1.3387122 24
-0.93772846 2.5322919 -0.42769188 4
-5.3116889 14.351661 1.8789817 15
-1.2017806 3.2488344 -0.42532405 4
-5.3444128 14.455573 2.4410038 28
-1.6174085 4.3747683 -0.40806317 10
-5.330883 14.42672 2.9895957 22
-2.5837028 6.9959092 -0.39084497 6
-5.3195395 14.41149 3.5465784 26
-4.4953775 12.18525 -0.22670676 25
-5.3159027 14.417127 4.1172934 14
-0.57818788 1.5740125 -0.44930989 7
-5.2929125 14.416755 0.26806897 33
-0.66123116 1.8020235 -0.44315359 6
-5.2883077 14.419788 0.80492711 28
-0.77129078 2.103102 -0.43542615 93
-5.286624 14.422963 1.3439416 20
-0.9302429 2.5392592 -0.42831761 4
-5.2833967 14.429765 1.8867813 15
-1.1849759 3.2380958 -0.42337415 5
-5.2864594 14.453732 2.4375622 20
-1.6247133 4.4421358 -0.41381544 10
-5.2838583 14.454461 2.9915035 15
-2.5620098 7.0123887 -0.39126363 6
-5.2832413 14.468411 3.5560262 22
-4.4425292 12.17269 -0.22618319 34
-5.2867322 14.49367 4.1338582 16
-0.57456124 1.5794522 -0.45034516 7
-5.2721963 14.500969 0.26932555 56
-0.65490061 1.8022605 -0.44270366 6
-5.2661643 14.500157 0.80848593 29
-0.75998908 2.0925975 -0.43275481 100
-5.2698417 14.518158 1.3512626 23
-0.92630231 2.5533111 -0.43019485 5
-5.264431 14.519073 1.8962871 16
-1.1741198 3.2399364 -0.42313039 4
-5.2578392 14.516704 2.4453838 18
-1.616855 4.4640784 -0.41538426 8
-5.2618141 14.5356 3.0048604 15
-2.5386062 7.0166473 -0.3910543 6
-5.260951 14.549081 3.5717731 24
-4.3947525 12.160257 -0.22569451 30
-5.2621703 14.568353 4.1504226 17
-0.56446624 1.5687237 -0.44672167 7
-5.2391367 14.568209 0.27023306 22
-0.65190172 1.8137047 -0.44495317 6
-5.2398286 14.586119 0.81225413 29
-0.75533533 2.102628 -0.43428129 100
-5.2332659 14.575845 1.3549231 20
-0.91605014 2.55281 -0.42956907 5
-5.2344956 14.595284 1.903843 15
-1.1621342 3.2421463 -0.42288667 4
-5.2271237 14.590756 2.4547698 17
-1.5945442 4.4509382 -0.41364115 8
-5.2302384 14.607478 3.0159271 14
-2.5181372 7.0367484 -0.39168233 6
-5.235074 14.63708 3.5888691 21
-4.3307362 12.115269 -0.22457758 31
-5.2294869 14.637569 4.1649165 16
-0.55769181 1.5670443 -0.44568643 7
-5.2096925 14.646699 0.27135 22
-0.64687175 1.8196419 -0.44585299 6
-5.2116194 14.668306 0.81581295 28
-0.74667704 2.1015518 -0.43351805 100
-5.2036858 14.654105 1.3605011 17
-0.90382934 2.5466843 -0.42800474 5
-5.2047482 14.673338 1.9116427 13
-1.150809 3.2461834 -0.42288667 4
-5.2012262 14.679668 2.4666588 18
-1.5823234 4.465867 -0.41451269 8
-5.1995292 14.683019 3.0277574 16
-2.4895587 7.0341992 -0.3910543 6
-5.2105904 14.730593 3.6073153 26
-4.2937546 12.145394 -0.22485681 23
-5.199595 14.715845 4.1819983 15
-0.55414212 1.5744483 -0.44723931 6
-5.1797719 14.725159 0.27246696 26
-0.63728476 1.8126965 -0.44360349 6
-5.1822309 14.748592 0.81926709 29
-0.74259025 2.1134067 -0.43542615 93
-5.1769309 14.741735 1.3669506 20
-0.89362645 2.5460958 -0.42737901 5
-5.1738701 14.749484 1.9191986 14
-1.1394714 3.2501805 -0.42288667 4
-5.1747785 14.768576 2.478548 17
-1.5680437 4.4751234 -0.41486132 8
-5.1677132 14.756664 3.0392058 16
-2.4616921 7.0334206 -0.39053094 5
-5.1797318 14.807551 3.621712 15
-4.2229576 12.079138 -0.22335589 33
-5.1692276 14.794087 4.1990805 16
-0.54927748 1.5781977 -0.44775698 7
-5.1546216 14.818696 0.27386317 22
-0.62903315 1.809388 -0.44225377 6
-5.1484127 14.817533 0.82209331 29
-0.73263067 2.1085682 -0.4338997 90
-5.1509342 14.833117 1.3737488 22
-0.88602811 2.552932 -0.42800474 5
-5.1438169 14.829347 1.927242 15
-1.1268195 3.2503867 -0.42239916 4
-5.1438856 14.84628 2.4885597 18
-1.5524119 4.4805703 -0.41486132 8
-5.1399369 14.843256 3.0533257 16
-2.4345145 7.0344205 -0.39011225 5
-5.141386 14.864219 3.6311598 21
-4.1781516 12.086247 -0.22321628 35
-5.1446853 14.890555 4.2213387 15
-0.54565138 1.5855854 -0.44930989 6
-5.1223707 14.893331 0.2749103 22
-0.62398076 1.8152585 -0.44315359 6
-5.1174269 14.895858 0.82544273 28
-0.72335273 2.1055422 -0.43275481 88
-5.1178846 14.905657 1.3788038 20
-0.88095891 2.56722 -0.42988196 5
-5.1126323 14.907298 1.9350417 15
-1.1141784 3.2505448 -0.42191169 4
-5.1086788 14.912731 2.4966943 18
-1.5361177 4.484077 -0.41468704 7
-5.1122618 14.931688 3.0678272 14
-2.4080033 7.0372076 -0.38979825 6
-5.1140652 14.953986 3.6487062 24
-4.1255918 12.07048 -0.2226578 35
-5.1126552 14.966925 4.2379031 14
-0.53513569 1.5728492 -0.44516876 7
-5.0948119 14.983064 0.27623668 26
-0.62140316 1.828496 -0.44585299 6
-5.0865993 14.976037 0.82889694 29
-0.71941644 2.119334 -0.43504456 74
-5.0856724 14.981917 1.3842075 22
-0.87199283 2.5702794 -0.42988196 5
-5.089252 15.009649 1.9460098 16
-1.1079211 3.2694552 -0.42386162 4
-5.0857439 15.016538 2.5110862 20
-1.5183957 4.4859023 -0.41433838 7
-5.0814028 15.020997 3.0823288 14
-2.3905122 7.0705819 -0.39115897 5
-5.0843077 15.038205 3.6649027 22
-4.0629449 12.024186 -0.22154084 27
-5.0807729 15.04508 4.2549853 15
-0.52998245 1.5766313 -0.44568643 7
-5.0576963 15.054712 0.27721402 22
-0.61283588 1.8252192 -0.44450328 6
-5.0583577 15.074108 0.8332932 29
-0.71039593 2.1182337 -0.43428129 73
-5.051003 15.060904 1.3897855 22
-0.85691565 2.5566013 -0.42706612 4
-5.0537481 15.086555 1.9535657 16
-1.0959313 3.2734938 -0.42386162 4
-1.5044701 4.4989953 -0.41503564 7
-5.0412521 15.084208 3.0914876 15
-2.3595173 7.0641413 -0.39032158 5
-5.0563159 15.138067 3.6846983 26
-4.0150504 12.027615 -0.22133142 36
-5.0482206 15.131405 4.2741375 14
-0.52663589 1.5858967 -0.44775698 6
-5.0213842 15.130085 0.27826118 20
-0.60368842 1.8200544 -0.44270366 6
-5.0225596 15.151316 0.83653802 30
-0.7067045 2.1318815 -0.436571 76
-5.0189543 15.149292 1.396235 19
-0.84691918 2.5578494 -0.42675328 5
-5.0140128 15.152089 1.9596591 15
-1.0839266 3.2774885 -0.42386162 4
-5.0846381 15.383517 2.5661514 1
-1.487507 4.5004363 -0.41468704 7
-5.0119638 15.172551 3.1059887 15
-2.3304629 7.0590582 -0.38958889 6
-5.0215621 15.219418 3.6999948 24
-3.9602909 12.009966 -0.22073804 30
-5.0138869 15.214025 4.2922554 13
-0.5235061 1.5950676 -0.44982749 6
-4.9928422 15.221625 0.27962247 21
-0.59672409 1.8202989 -0.44225377 6
-4.9882922 15.225697 0.83967817 28
-0.69620174 2.1250072 -0.43466291 91
-4.9920788 15.246247 1.403556 22
-0.83921349 2.5645454 -0.42737901 5
-4.9851532 15.243085 1.9691651 13
-1.0675447 3.2661574 -0.42191169 4
-5.0615735 15.49506 2.5817947 1
-1.4730246 4.5093889 -0.41503564 7
-4.9809089 15.257141 3.1197271 15
-2.3045673 7.0633531 -0.38937956 6
-4.9865255 15.292437 3.7134922 24
-3.9524248 12.128287 -0.2226578 28
-4.9870758 15.312256 4.3150315 15
-0.5185315 1.5987228 -0.45034516 6
-4.964962 15.31695 0.28105354 23
-0.59216851 1.8279324 -0.44360349 7
-4.9611673 15.314355 0.84365571 31
-0.68575662 2.1180854 -0.43275481 100
-4.9572334 15.320448 1.4087855 21
-0.83268827 2.5749774 -0.4286305 5
-4.9551148 15.33217 1.9784272 13
-1.0567086 3.2696793 -0.42191169 4
-5.0575223 15.658378 2.6061983 1
-1.4584979 4.5182962 -0.41538426 7
-4.9505296 15.345435 3.1342287 14
-2.2768345 7.0618491 -0.3888562 6
-4.9561214 15.371948 3.7287886 21
-3.9017551 12.108972 -0.22206442 31
-4.9546313 15.385713 4.3310781 12
-0.50909722 1.5875566 -0.44672167 6
-4.9336677 15.39427 0.2821705 21
-0.58669841 1.8317418 -0.44405338 6
-4.932292 15.399198 0.84742391 28
-0.67513728 2.1091292 -0.4304651 68
-4.9264307 15.399426 1.4145378 16
-0.82414526 2.5777242 -0.4286305 5
-4.927803 15.422263 1.9879328 15
-1.0470676 3.2769475 -0.42239916 3
-5.0139785 15.701412 2.6105788 1
-1.4374521 4.5041261 -0.41364115 7
-4.9246664 15.440326 3.1502566 15
-2.2588613 7.0864882 -0.38979825 6
-4.9311557 15.469995 3.7485845 21
-3.8257694 12.009427 -0.22000504 27
-4.9229193 15.462807 4.3481603 13
-0.50441402 1.5910776 -0.44723931 6
-4.9031296 15.47536 0.28335726 23
-0.58179688 1.837393 -0.44495317 6
-4.8995943 15.482967 0.85108739 26
-0.67465544 2.1319456 -0.43466291 91
-4.8963675 15.482163 1.4206386 19
-0.81142467 2.5672584 -0.42644039 4
-4.8987608 15.508558 1.9969513 15
-1.0392089 3.2919405 -0.42386162 3
-1.4237056 4.5126686 -0.41398975 7
-4.8905616 15.510869 3.1613235 14
-2.2311487 7.080605 -0.38906553 5
-4.898201 15.554028 3.7647808 22
-3.7532115 11.925427 -0.2182249 37
-4.8921022 15.553609 4.368866 14
-0.49712449 1.587298 -0.44568643 6
-4.8705878 15.561082 0.28461385 23
-0.57305294 1.8319732 -0.44315359 6
-4.8711395 15.581947 0.85558832 28
-0.6677947 2.1361618 -0.43504456 74
-4.867847 15.580936 1.4281341 16
-0.80245888 2.570075 -0.42644039 4
-4.8635139 15.586203 2.004751 14
-1.0265303 3.2917576 -0.42337415 3
-4.9389248 15.847299 2.6290381 5
-1.4103171 4.525219 -0.41468704 7
-4.8579855 15.597201 3.1754434 14
-2.2028592 7.0769072 -0.38843751 5
-4.8681855 15.649186 3.7836769 22
-3.6979039 11.894538 -0.21742207 35
-4.8578382 15.635163 4.3869829 13
-0.4967196 1.6056336 -0.45034516 6
-4.836318 15.642945 0.28580061 19
-0.56492835 1.8283769 -0.44180387 6
-4.8344002 15.656105 0.85872847 24
-0.65859681 2.1328521 -0.4338997 90
-4.8345747 15.666368 1.4344091 19
-0.79697508 2.5841866 -0.42831761 4
-4.8301306 15.671378 2.0135255 15
-1.0109421 3.2820408 -0.42166796 3
-4.905076 15.934297 2.640614 2
-1.3950975 4.5320191 -0.41486132 8
-4.8277612 15.692876 3.1914716 15
-2.1787276 7.0864625 -0.38854218 5
-4.8312759 15.723828 3.7976234 20
-3.6563642 11.907372 -0.21742207 27
-4.8253379 15.724049 4.4071708 13
-0.4888542 1.5999675 -0.44827461 6
-4.7997923 15.719022 0.28688267 17
-0.5608182 1.837793 -0.44360349 6
-4.8012805 15.743568 0.86260128 26
-0.64771199 2.1238706 -0.43160996 86
-4.8042598 15.763197 1.4417304 19
-0.79025245 2.594511 -0.42956907 4
-4.7985234 15.764104 2.0232751 14
-0.9983232 3.2817516 -0.42118049 3
-4.8511448 15.956993 2.6415529 9
-1.37695 4.5292368 -0.4141641 8
-4.7952142 15.782891 3.2063546 13
-2.1574581 7.1054921 -0.3891702 4
-4.7978578 15.811458 3.8147199 20
-3.5875053 11.830121 -0.21578155 34
-4.7945104 15.820298 4.4294291 14
-0.48159173 1.5961157 -0.44672167 6
-4.7021675 15.594003 0.2842997 46
-0.55721056 1.849069 -0.44585299 6
-4.7710571 15.842466 0.86710221 24
-0.64029378 2.1261187 -0.43160996 86
-4.766428 15.837107 1.4469596 18
-0.77834553 2.5877957 -0.42800474 5
-4.7697482 15.868206 2.034487 10
-0.98971784 3.2947221 -0.42239916 3
-4.7948499 15.971936 2.6412399 34
-1.3605597 4.5321069 -0.41398975 7
-4.7626548 15.874752 3.2216191 11
-2.1303492 7.1053271 -0.38875154 4
-4.7678103 15.912112 3.8349655 24
-3.5450377 11.838741 -0.21571174 29
-4.7608614 15.909116 4.4496174 14
-0.47436288 1.5922326 -0.44516876 6
-4.6454272 15.602655 0.28416011 31
-0.54964155 1.8472669 -0.44495317 5
-4.7385011 15.935601 0.87128907 26
-0.6339879 2.1321042 -0.4323732 88
-4.7304163 15.918579 1.4528861 19
-0.76649654 2.5810285 -0.42644039 4
-4.7352223 15.955175 2.0435054 13
-0.98272747 3.3133819 -0.42434907 3
-3.8319006 12.927981 2.1356435 6
-1.3441662 4.5349183 -0.41381544 6
-4.7283969 15.962813 3.2361207 12
-2.1078031 7.1203799 -0.3891702 5
-4.734354 16.003405 3.8529615 18
-3.4946175 11.820362 -0.21515328 31
-4.7293873 16.007154 4.472393 14
-0.46989188 1.5975856 -0.44620407 6
-4.5599151 15.513258 0.28224033 14
-0.54099357 1.8416953 -0.44315359 5
-4.7053447 16.0287 0.87547594 24
-0.62875307 2.1418397 -0.4338997 90
-4.7011776 16.024853 1.4610788 21
-0.75525993 2.5761061 -0.42518893 4
-4.6979222 16.034472 2.0515487 14
-0.96669227 3.3015513 -0.42239916 3
-3.7878561 12.945071 2.1362693 4
-1.3322436 4.552968 -0.41503564 6
-4.6924882 16.047058 3.2498591 12
-2.076771 7.106607 -0.38801882 5
-4.6992178 16.090918 3.8700578 22
-3.4376509 11.778738 -0.21417592 32
-4.6929522 16.090332 4.4910283 12
-0.46592867 1.6047817 -0.44775698 5
-4.491251 15.479146 0.28133279 48
-0.53456104 1.8435726 -0.44315359 4
-4.6649337 16.098742 0.87840676 24
-0.62236607 2.1477926 -0.43466291 91
-4.6684914 16.121542 1.4684 17
-0.74845886 2.5863168 -0.42644039 4
-4.6623311 16.121328 2.0605671 12
-0.95185548 3.2934632 -0.42093676 4
-4.7380581 16.404627 2.7044392 2
-1.3185551 4.5652471 -0.41573292 6
-4.6587696 16.140673 3.2655053 15
-2.0513997 7.1118932 -0.38791415 5
-4.6646152 16.182121 3.8880539 22
-3.3837857 11.74647 -0.21337312 27
-4.6624136 16.195723 4.5158749 11
-0.46032447 1.6063982 -0.44775698 5
-4.4449019 15.521643 0.28182146 46
-0.52812201 1.8454275 -0.44315359 4
-4.635067 16.2071 0.88343102 28
-0.60946631 2.1310763 -0.43084675 85
-4.6346397 16.216284 1.4755466 17
-0.74268073 2.6003103 -0.42831761 4
-4.6299973 16.221495 2.0712914 12
-0.9403525 3.2967663 -0.42093676 4
-4.6948404 16.470459 2.7125738 3
-1.2998793 4.5602422 -0.41486132 7
-4.6287503 16.249357 3.2842045 10
-2.027107 7.1209326 -0.38801882 5
-4.6267586 16.263908 3.9038005 20
-3.3389313 11.744747 -0.21312879 34
-4.626966 16.286236 4.5365806 11
-0.45261112 1.6005596 -0.44568643 6
-4.4075484 15.596719 0.28290352 42
-0.52591437 1.8622626 -0.44675279 4
-4.5996246 16.298145 0.88751322 26
-0.60255736 2.1350801 -0.43122834 69
-4.5953078 16.293726 1.4811248 14
-0.73252827 2.5990844 -0.42769188 4
-4.5986428 16.327362 2.0827472 10
-0.93152881 3.3095825 -0.42215544 4
-4.6619272 16.574219 2.7269659 3
-1.280178 4.5513258 -0.41364115 6
-4.593255 16.341017 3.2994695 13
-2.0011592 7.1241188 -0.38780949 6
-4.595243 16.370018 3.925396 20
-3.2849538 11.71012 -0.21229108 33
-4.5888634 16.369249 4.5552154 12
-0.44702172 1.6021297 -0.44568643 6
-4.3724098 15.681354 0.28416011 48
-0.5162726 1.8528236 -0.44405338 5
-4.5657468 16.396835 0.89201415 24
-0.59510136 2.1371703 -0.43122834 69
-4.5592299 16.384525 1.4879228 14
-0.72027647 2.5902064 -0.42581466 4
-4.5634084 16.421734 2.0927405 11
-0.92156321 3.3185525 -0.42288667 4
-3.5840366 12.914847 2.1228158 6
-1.264284 4.5557666 -0.41364115 6
-4.5561185 16.428841 3.3139706 13
-1.9778774 7.1368351 -0.38812348 6
-4.5594015 16.462959 3.9438419 16
-3.2365875 11.694535 -0.21180241 32
-4.5522904 16.459648 4.5759206 12
-0.44245148 1.6074055 -0.44672167 6
-4.334619 15.758219 0.28527704 46
-0.5056693 1.8395822 -0.44045416 5
-4.5306983 16.493563 0.89641035 24
-0.59127724 2.1524868 -0.4338997 90
-4.5262742 16.488722 1.4959412 14
-0.71018469 2.5888951 -0.42518893 4
-4.5244303 16.504568 2.1012714 10
-0.90840089 3.316005 -0.42215544 4
-4.7698622 17.423725 2.8611867 10
-1.2510027 4.5697603 -0.41451269 7
-4.5194688 16.52039 3.3292353 12
-1.9476879 7.1244302 -0.38707677 6
-4.5255265 16.565248 3.9645374 20
-3.1978555 11.713478 -0.21194203 30
-4.5182009 16.561171 4.5997324 12
-0.43886292 1.6163976 -0.44879225 6
-4.3047237 15.865889 0.28695247 42
-0.50026429 1.845098 -0.44135398 5
-4.4913826 16.576748 0.90007383 28
-0.58376056 2.1545374 -0.4338997 90
-4.4926457 16.592884 1.5039594 16
-0.70217454 2.5951719 -0.42581466 4
-4.4870014 16.594995 2.1107774 10
-0.89423203 3.3095739 -0.42093676 4
-3.4767878 12.876622 2.1124914 19
-1.2381586 4.5856409 -0.41555858 7
-4.4847927 16.621361 3.3464081 11
-1.9222888 7.1292567 -0.3869721 6
-4.486937 16.652449 3.9816337 20
-3.1351137 11.64347 -0.21047603 31
-4.4859672 16.67198 4.6261315 11
-0.4317185 1.6123214 -0.44723931 7
-4.2736049 15.971611 0.28859299 40
-0.49784809 1.8618937 -0.44495317 5
-4.4561725 16.677227 0.90467948 26
-0.5731948 2.1451817 -0.43160996 86
-4.45474 16.68354 1.5107577 17
-0.695149 2.6052415 -0.42706612 4
-4.4525681 16.698788 2.1219893 12
-0.88369536 3.3165116 -0.42142424 4
-4.489018 16.859125 2.7632589 25
-1.2190692 4.5783825 -0.41451269 8
-3.3302786 12.516106 2.517534 25
-1.8979025 7.1378541 -0.38707677 6
-4.4508038 16.750875 4.0014291 18
-3.081619 11.606024 -0.2096034 27
-4.4490433 16.76783 4.6483903 12
-0.42362237 1.6044792 -0.44465113 7
-4.2412968 16.075371 0.29019859 38
-0.49134627 1.86362 -0.44495317 5
-4.4218502 16.783453 0.90959901 26
-0.56470335 2.1433725 -0.43084675 85
-4.4167709 16.776058 1.5177301 15
-0.68705666 2.6114728 -0.42769188 4
-4.4184828 16.806381 2.1336887 12
-0.87110507 3.3157361 -0.42093676 4
-3.2834833 12.506989 2.0480404 24
-1.2010576 4.5749016 -0.41381544 7
-4.4144783 16.826973 3.3815172 11
-1.8729767 7.1444349 -0.38707677 6
-4.4155202 16.85491 4.0225744 22
-3.0638738 11.703765 -0.21117412 49
-3.6624894 14.000375 3.8776269 6
-0.41753286 1.6040785 -0.44413349 7
-4.1967316 16.134594 0.29100144 10
-0.4848375 1.8653239 -0.44495317 4
-4.3863382 16.887709 0.91441387 28
-0.55919278 2.1529312 -0.4323732 88
-4.3797026 16.874296 1.5252254 17
-0.67297667 2.5947342 -0.4245632 5
-4.3816991 16.906254 2.1444132 12
-0.86350644 3.3341305 -0.42288667 4
-3.2942448 12.728735 2.0824559 6
-1.1870764 4.586782 -0.41451269 7
-4.3738976 16.912607 3.3956373 10
-1.8440268 7.1354594 -0.38623938 6
-4.378581 16.95513 4.04282 20
-3.0289998 11.737622 -0.21159297 30
-3.6097336 13.998111 3.873486 15
-0.41577145 1.6204963 -0.44827461 7
-4.3474832 16.95689 0.30555674 22
-0.47445461 1.8519028 -0.44135398 5
-4.3501348 16.979551 0.91860074 24
-0.55313438 2.1605761 -0.43351805 90
-4.344974 16.984064 1.5337667 15
-0.66489434 2.6008952 -0.42518893 6
-4.3388758 16.984915 2.1524565 11
-0.84989959 3.3294303 -0.42191169 4
-3.2613022 12.775954 2.0884004 24
-1.1710593 4.5908971 -0.41451269 7
-3.1718767 12.443757 2.4961634 22
-1.8166448 7.1321754 -0.38571605 6
-4.3419657 17.059071 4.0639653 10
-2.9653997 11.650706 -0.20984773 33
-3.5518689 13.96507 3.8610628 19
-0.41058546 1.6238108 -0.44879225 7
-4.3167138 17.072027 0.3073718 21
-0.46640173 1.8459084 -0.43955436 5
-4.3103914 17.072094 0.92278761 26
-0.54462814 2.1586866 -0.43275481 71
-4.3075838 17.086063 1.5416108 15
-0.65674925 2.605001 -0.42550179 6
-4.3038611 17.083908 2.1631808 8
-0.8335225 3.3110552 -0.41923055 4
-3.1487405 12.517147 2.0442858 23
-1.1559972 4.5988221 -0.41486132 7
-3.1435132 12.505617 2.5064671 25
-1.7910354 7.1304131 -0.38529736 6
-3.5054398 13.966032 3.3243268 9
-2.9110887 11.606678 -0.2088704 21
-3.4998083 13.964265 3.857439 30
-0.40473142 1.6232889 -0.44827461 7
-4.2817616 17.185947 0.30915192 21
-0.46277967 1.8588715 -0.44225377 5
-4.273438 17.178131 0.92770731 24
-0.5350973 2.150955 -0.43084675 85
-4.2725253 17.187265 1.5494548 15
-0.65098494 2.6206975 -0.42769188 6
-3.3441937 13.472913 1.7044648 10
-0.82482773 3.3255048 -0.42069301 4
-3.0489502 12.301814 2.0073674 19
-1.1417001 4.6064978 -0.41520998 7
-3.0554798 12.337379 2.4705951 25
-1.7646934 7.130805 -0.38498333 6
-3.4678917 14.023586 3.3351245 14
-2.8686397 11.609003 -0.20873079 24
-3.4459453 13.955768 3.8517451 21
-0.39768052 1.6190634 -0.44672167 6
-4.2417603 17.282356 0.31061792 21
-0.45907271 1.8718314 -0.44495317 5
-4.2338948 17.276358 0.93220812 24
-0.52758628 2.1528096 -0.43084675 85
-4.2309899 17.277544 1.556253 15
-0.64042372 2.6171975 -0.42675328 5
-3.2999761 13.496073 1.7059273 14
-0.81509984 3.336077 -0.42166796 4
-3.0176997 12.360358 2.0151892 18
-1.1218318 4.5949707 -0.41381544 7
-2.8127756 11.52973 2.3068807 15
-1.7435806 7.1524439 -0.38582069 5
-2.8120165 11.552885 -0.20754401 24
-3.0009301 12.338363 3.4024353 6
-0.38793775 1.6035427 -0.44206294 6
-4.2030177 17.386471 0.31222355 21
-0.45024946 1.863951 -0.44270366 6
-4.1998019 17.399755 0.93806982 22
-0.52098906 2.1584547 -0.43160996 86
-4.1935396 17.387117 1.5647942 15
-0.62943465 2.6117353 -0.42550179 5
-3.2528422 13.507511 1.7059273 25
-0.80484217 3.344692 -0.42239916 4
-2.983319 12.407307 2.0211337 18
-1.1059148 4.6029263 -0.4141641 7
-2.7757256 11.552842 2.3095522 29
-1.7167364 7.1507187 -0.38540202 5
-2.7726071 11.56652 -0.20761384 24
-2.9578397 12.348763 3.4024353 5
-0.38697934 1.6256263 -0.44775698 6
-4.6730022 19.63039 0.35222447 46
-0.44193602 1.8579279 -0.44090405 6
-4.6706161 19.650852 1.0585471 81
-0.51488954 2.1679904 -0.43313646 89
-4.6551552 19.616194 1.7638578 67
-0.619856 2.6140254 -0.42550179 6
-3.2029207 13.507195 1.7044648 27
-0.79087436 3.3378227 -0.42118049 4
-2.9454491 12.440712 2.0248878 25
-1.0884637 4.6009421 -0.41364115 8
-2.7392373 11.587774 2.3145132 28
-1.6873038 7.1433558 -0.3846693 5
-4.1487727 17.577961 4.169693 17
-2.7216475 11.531365 -0.20681101 19
-2.9151623 12.360892 3.4029529 17
-0.38086125 1.6250863 -0.44723931 6
-4.5918975 19.608444 0.35152635 74
-0.4351238 1.8595352 -0.44090405 6
-4.5799212 19.588099 1.0542556 94
-0.50553012 2.1621275 -0.43160996 86
-4.5771298 19.591583 1.7601974 78
-0.61162752 2.6200199 -0.42612755 5
-2.8539743 12.235201 1.5426223 13
-0.77818388 3.3387661 -0.42093676 4
-2.9070036 12.482205 2.0298939 20
-1.0755633 4.6182957 -0.41486132 8
-4.2285905 18.171282 3.6265159 8
-1.6619043 7.1472578 -0.38456467 5
-2.9716125 12.789937 3.0314405 3
-2.6725838 11.512044 -0.20628744 23
-2.8715808 12.379023 3.4050236 4
-0.3747524 1.6245235 -0.44672167 6
-4.5180378 19.600969 0.35110751 79
-0.4299418 1.8667399 -0.44225377 6
-4.5034504 19.568933 1.0523715 99
-0.49357629 2.144747 -0.4277938 80
-4.4993424 19.566664 1.7565368 81
-0.60424685 2.6298399 -0.42737901 5
-0.76386225 3.3298528 -0.4194743 4
-2.8541431 12.451843 2.0233238 14
-1.0585443 4.6181383 -0.41451269 7
-1.6396203 7.1646962 -0.38519266 5
-2.8895884 12.636858 2.992749 2
-2.6341617 11.529102 -0.20642707 20
-2.8352346 12.419105 3.4133058 17
-0.36736912 1.6182859 -0.44465113 6
-4.4376411 19.563969 0.3501651 82
-0.4247157 1.8739309 -0.44360349 6
-4.4319239 19.554539 1.0508014 100
-0.48955718 2.1617746 -0.43084675 85
-4.4200158 19.533667 1.7521789 85
-0.59506392 2.631933 -0.42737901 5
-2.8607907 12.663384 1.5940511 18
-0.75310755 3.3363719 -0.41996178 4
-2.7762964 12.299381 1.9970427 26
-1.0393478 4.6082006 -0.41329253 6
-2.628103 11.661789 2.3236721 29
-1.6132829 7.1645312 -0.38487867 5
-2.8925095 12.856 3.042238 37
