# .PCD v0.7 - Point Cloud Data file format
VERSION 0.7
FIELDS x y z intensity
SIZE 4 4 4 4
TYPE F F F F
COUNT 1 1 1 1
WIDTH 1390
HEIGHT 1
VIEWPOINT 0 0 0 1 0 0 0
POINTS 1390
DATA ascii
1.2165654 -1.173593 -0.45293337 3
11.900078 -11.483747 0.28866282 19
1.4034448 -1.3548174 -0.45035201 2
11.893637 -11.481538 0.86636949 24
1.6353821 -1.5792702 -0.44191366 83
11.879267 -11.475682 1.4450421 19
1.9858426 -1.9190457 -0.43739083 5
11.867449 -11.472276 2.0266874 14
2.5471823 -2.4632242 -0.43507358 3
11.867014 -11.475863 2.614646 16
3.5212798 -3.406404 -0.42863193 5
11.848052 -11.465531 3.2048283 14
5.7070422 -5.5247169 -0.41628024 6
10.258577 -9.9343109 3.2968826 3
10.314211 -9.9881868 -0.25061655 13
10.27618 -9.9548359 3.8336277 0
1.2207754 -1.1859089 -0.45603919 3
11.906396 -11.566339 0.28974485 19
1.390559 -1.3513154 -0.44765261 3
11.893584 -11.561967 0.86930031 16
1.6340818 -1.5890752 -0.44305849 84
11.887693 -11.564314 1.4509687 13
1.9865475 -1.9325075 -0.43895519 4
11.869175 -11.550331 2.0335121 10
2.5333104 -2.4661191 -0.43409866 3
11.870756 -11.55994 2.6243448 15
3.5236399 -3.4325776 -0.43037504 5
11.854965 -11.548595 3.2170398 12
5.6987028 -5.553369 -0.41701293 5
10.243717 -9.9859591 3.3027315 6
10.300757 -10.045071 -0.25114012 12
10.239987 -9.989296 3.8331101 4
1.2071674 -1.180496 -0.4524157 3
11.957435 -11.697327 0.29197878 19
1.3886192 -1.3588871 -0.4485524 3
11.936544 -11.680967 0.87526661 15
1.6231916 -1.5889918 -0.44153205 82
11.920456 -11.673371 1.4596844 13
1.9854341 -1.9449595 -0.44020665 5
11.913854 -11.675056 2.0481365 9
2.5232689 -2.473557 -0.43385491 3
11.894423 -11.660087 2.6381111 9
3.509392 -3.4414532 -0.43002641 5
11.891664 -11.665524 3.238029 10
5.6935387 -5.5872164 -0.41805965 5
10.229657 -10.042132 3.30948 1
10.268818 -10.080576 -0.25117505 13
10.23575 -10.051622 3.8439806 1
1.1975337 -1.1792805 -0.45034516 3
31.994228 -31.506563 0.78378761 28
1.3924348 -1.3716899 -0.4512518 2
31.975555 -31.510174 2.3527107 22
1.6232276 -1.6001611 -0.44305849 100
27.942818 -27.555361 3.4334133 23
1.9761603 -1.9487586 -0.43958092 4
20.622742 -20.343887 3.5568788 28
2.5136397 -2.4805167 -0.43361115 4
15.798307 -15.59557 3.5160215 22
3.4987755 -3.4550824 -0.43020076 5
11.967462 -11.81801 3.2693214 10
5.6792421 -5.6102772 -0.41837367 6
10.218477 -10.097917 3.3166783 1
10.244945 -10.127605 -0.25145426 13
10.244558 -10.130759 3.8605449 0
1.1963603 -1.1859654 -0.45138043 3
31.898249 -31.63213 0.78413659 28
1.3917886 -1.3806595 -0.45260152 2
31.886635 -31.642696 2.3542809 33
1.6148455 -1.6030512 -0.44229528 100
27.880981 -27.677347 3.4370737 34
1.9651408 -1.9514691 -0.43864229 5
20.534704 -20.398962 3.5539541 41
2.5190463 -2.503268 -0.43604854 4
15.733964 -15.640873 3.5138314 47
3.4852805 -3.4658697 -0.43002641 5
11.944944 -11.882564 3.2750459 21
5.6543937 -5.6268282 -0.41805965 6
10.199743 -10.150019 3.322077 1
10.227954 -10.181645 -0.25190803 13
10.244724 -10.2019 3.8740036 0
1.1974734 -1.1958026 -0.45345098 3
31.821714 -31.788404 0.78511399 29
1.3812053 -1.3802413 -0.45080194 1
31.81847 -31.807362 2.3578398 44
1.6145122 -1.6145122 -0.44382176 100
27.827253 -27.827253 3.4430003 34
1.9579751 -1.9586586 -0.43864229 5
20.448574 -20.462856 3.5520043 41
2.5042427 -2.5068665 -0.43507358 4
15.683512 -15.705421 3.5153956 37
3.4781852 -3.484261 -0.4307237 5
11.916567 -11.941549 3.2792435 21
5.6295013 -5.6432734 -0.41774565 5
10.167978 -10.192854 3.3238769 1
10.214572 -10.243134 -0.25250143 13
10.300007 -10.332416 3.9092031 0
1.1958065 -1.2029237 -0.45448625 3
10.216412 -10.280806 0.25299007 12
1.3706435 -1.3797642 -0.4490023 4
10.213045 -10.284595 0.75960416 12
1.6058176 -1.617632 -0.44305849 84
10.214428 -10.289578 1.2684647 7
1.9563488 -1.9714303 -0.43989375 5
10.209785 -10.292087 1.7800238 7
2.4866512 -2.507571 -0.43361115 3
10.21465 -10.304181 2.2980225 6
3.4752085 -3.5068922 -0.43194386 6
11.90726 -12.020016 3.2887838 7
5.6101847 -5.6652875 -0.41785032 5
10.133293 -10.232821 3.3247766 3
10.140383 -10.243555 -0.25159389 14
10.183254 -10.290455 3.87918 1
1.1913896 -1.2072984 -0.45448625 4
10.116872 -10.255544 0.25145426 15
1.3669456 -1.3861662 -0.44945222 6
10.098165 -10.243731 0.75384718 21
1.5943657 -1.6179134 -0.44153205 82
10.117909 -10.267344 1.2611436 15
1.9518826 -1.981402 -0.44051951 5
10.109317 -10.265789 1.7690556 13
2.4844067 -2.5237415 -0.43482983 3
10.095068 -10.258479 2.2795632 10
3.456743 -3.5139244 -0.43124664 5
10.098385 -10.269018 2.7995498 11
5.5921831 -5.6886601 -0.41805965 6
10.090256 -10.264334 3.3229768 14
10.052312 -10.229307 -0.25033733 15
10.088609 -10.269827 3.857439 29
1.1715679 -1.1942792 -0.44827461 4
10.040195 -10.2384 0.25030243 22
1.3614625 -1.3888243 -0.4490023 6
10.032779 -10.237985 0.75123042 22
1.5898415 -1.6223593 -0.44153205 82
10.031631 -10.240389 1.2541711 20
1.9487593 -1.9900074 -0.44114524 5
10.03021 -10.246091 1.7605247 15
2.4769077 -2.5311017 -0.43482983 3
10.020383 -10.2432 2.2695515 18
3.4469168 -3.5235641 -0.43124664 5
10.023 -10.249454 2.7865748 16
5.5916338 -5.7199645 -0.41921103 4
10.020258 -10.253809 3.3099298 19
9.9869823 -10.223326 -0.24946471 22
10.008153 -10.248577 3.8382866 46
1.1700879 -1.201129 -0.44930989 3
9.9792824 -10.247598 0.24967413 28
1.3593249 -1.3963609 -0.44990209 5
9.9746943 -10.25004 0.74955565 30
1.585538 -1.6293061 -0.44191366 100
9.96665 -10.245352 1.2505106 21
1.9321609 -1.9868846 -0.43895519 4
9.9639435 -10.249725 1.7551624 20
2.4777415 -2.5496976 -0.43653604 3
9.9515314 -10.244111 2.2620428 20
3.4373722 -3.5384326 -0.43159524 6
9.9502325 -10.246351 2.7762711 15
5.577198 -5.7451811 -0.41962975 4
9.9626913 -10.266348 3.3027315 22
9.9359188 -10.242337 -0.24908075 28
9.9440775 -10.254325 3.8274162 67
1.1591722 -1.1982636 -0.44672167 3
9.9253798 -10.263682 0.24922037 33
1.3490249 -1.395493 -0.4481025 4
9.9235859 -10.268999 0.74840426 39
1.5798409 -1.6348307 -0.44191366 83
9.9197531 -10.268616 1.2491161 25
1.9307024 -1.9993008 -0.44020665 4
9.906044 -10.261593 1.7512627 23
2.4646909 -2.5540459 -0.43580481 3
9.9019976 -10.264568 2.258914 22
3.4340615 -3.5610461 -0.4328154 5
9.8953266 -10.261235 2.7709284 20
5.5571094 -5.7646146 -0.41962975 4
9.9119186 -10.285626 3.2977824 27
9.8917828 -10.268315 -0.24887131 27
9.8934813 -10.273667 3.8217223 73
1.1628011 -1.2108644 -0.44982749 3
9.8839512 -10.292496 0.24908075 38
1.3441453 -1.4001935 -0.4481025 4
9.864171 -10.279078 0.74662483 40
1.5765566 -1.6434437 -0.4426769 84
9.8737736 -10.296276 1.2480702 29
1.9274627 -2.0106418 -0.44114524 5
9.8523064 -10.27748 1.7480941 21
2.4488935 -2.5554671 -0.43458611 3
9.8497095 -10.281953 2.2551594 28
3.4147201 -3.5658171 -0.43194386 5
9.8508625 -10.290345 2.7690203 25
5.5400863 -5.7892714 -0.41994375 4
9.8526001 -10.299355 3.2905838 28
9.8434391 -10.289778 -0.24855718 28
9.8468781 -10.29697 3.8175812 72
1.1532345 -1.2093239 -0.44775698 3
9.8365021 -10.318521 0.24883641 39
1.3443819 -1.4107535 -0.44990209 4
9.8167868 -10.30504 0.74589211 48
1.569456 -1.6475153 -0.44229528 100
9.8157902 -10.307594 1.2452812 32
1.9177085 -2.0144961 -0.44051951 5
9.8132029 -10.312083 1.7478503 23
2.4395106 -2.5644257 -0.43458611 3
9.8037901 -10.309396 2.2532823 31
3.4049981 -3.5806024 -0.43229246 5
9.8121767 -10.321822 2.7682569 27
5.5239716 -5.8129187 -0.42025778 4
9.8085365 -10.325208 3.2878847 37
9.7960196 -10.315637 -0.24831285 26
9.8010912 -10.324584 3.8144753 70
1.1516629 -1.2161473 -0.44879225 3
9.803175 -10.3557 0.24890622 42
1.344807 -1.4210995 -0.45170173 3
9.780756 -10.339244 0.74589211 45
1.5609972 -1.6501312 -0.44153205 100
9.7729053 -10.334558 1.2444097 33
1.9093078 -2.0197425 -0.44020665 5
9.7798738 -10.34916 1.7483377 22
2.4305444 -2.5729256 -0.43458611 3
9.7650318 -10.340682 2.2526565 31
3.3842716 -3.5837748 -0.43124664 5
9.7706966 -10.3503 2.7667305 26
5.5132427 -5.8423338 -0.4209905 4
9.7149334 -10.298429 3.2685387 36
9.7695551 -10.359952 -0.24855718 21
9.7146368 -10.305317 3.794805 33
1.1500576 -1.2229747 -0.44982749 3
9.7573795 -10.379657 0.24866189 30
1.3398383 -1.4257852 -0.45170173 3
9.765564 -10.391997 0.74735755 43
1.5565721 -1.657001 -0.44191366 100
9.7408628 -10.372965 1.2449325 31
1.8981899 -2.022074 -0.43926802 5
9.7477636 -10.387578 1.7490689 20
2.4301488 -2.5896566 -0.43604854 3
9.7360935 -10.37877 2.2539082 27
3.3771925 -3.6013799 -0.43194386 5
9.7345085 -10.384343 2.7667305 25
5.4941807 -5.8630004 -0.42109516 4
9.6207666 -10.2666 3.2482932 37
9.750185 -10.408345 -0.24894114 17
9.6051426 -10.257098 3.7652996 34
1.1473144 -1.2281934 -0.45034516 3
9.7379169 -10.428032 0.24904583 35
1.3244646 -1.4188242 -0.4481025 5
9.7378635 -10.431624 0.74788088 37
1.5604447 -1.6722013 -0.444585 100
9.7200031 -10.419779 1.2466757 29
1.8860853 -2.0225787 -0.43801656 7
9.715971 -10.42275 1.7495564 20
2.4269624 -2.6035094 -0.43702352 3
9.7218227 -10.432677 2.2586012 24
3.3747375 -3.6227639 -0.43316403 5
9.7026949 -10.41944 2.7674937 24
5.4842343 -5.8914208 -0.42182785 4
9.562768 -10.272772 3.2401948 21
9.7387743 -10.465507 -0.2495345 26
9.5079174 -10.221 3.740453 34
1.1511197 -1.2404878 -0.45345098 3
9.7168837 -10.474928 0.24939489 33
1.3171022 -1.4203506 -0.44720268 5
9.7136126 -10.478735 0.74882293 34
1.5495522 -1.6716075 -0.44305849 100
9.7002916 -10.46803 1.2485931 24
1.8820527 -2.0317206 -0.43864229 7
9.7002373 -10.475304 1.7529688 20
2.4124656 -2.606138 -0.43604854 3
9.697422 -10.479597 2.2614169 21
3.3728943 -3.6462224 -0.43455851 5
9.690752 -10.476059 2.7739813 19
5.4605999 -5.9051757 -0.42151386 4
9.5136232 -10.29178 3.2356961 21
9.7184696 -10.517061 -0.24995336 17
9.4118814 -10.188849 3.7166417 34
1.1426387 -1.2404358 -0.45189807 3
9.7060013 -10.536728 0.25005808 22
1.3200564 -1.4335407 -0.44990209 5
9.6877956 -10.524334 0.74966031 27
1.5380975 -1.671497 -0.44153205 100
9.6901855 -10.534307 1.2522538 21
1.8665709 -2.0298803 -0.43676507 8
9.6891432 -10.536862 1.7575998 18
2.4060407 -2.6174664 -0.43653604 3
9.6768208 -10.530839 2.2651713 21
3.3453202 -3.6418338 -0.43264109 5
9.6841593 -10.546211 2.7831402 17
5.4551263 -5.9428053 -0.42276987 3
9.4732027 -10.323708 3.2347963 21
9.707387 -10.578917 -0.25061655 17
9.3135777 -10.153307 3.6917951 35
1.1304785 -1.2358642 -0.44879225 3
9.7037516 -10.612075 0.25100052 17
1.3174231 -1.4412463 -0.45080194 4
9.6922703 -10.606952 0.7530098 21
1.5375508 -1.682653 -0.44305849 100
9.6869478 -10.604843 1.2566115 18
1.8621379 -2.0393012 -0.43739083 8
9.6932821 -10.619221 1.7653995 13
2.3937547 -2.6233344 -0.43604854 3
9.6687775 -10.599802 2.2723672 16
3.3325877 -3.6534889 -0.43264109 5
9.6671305 -10.601712 2.7888646 16
5.4478045 -5.9765725 -0.42381662 3
9.4344826 -10.353831 3.2338963 19
9.7197189 -10.670601 -0.25194293 31
9.207365 -10.11167 3.6643603 36
1.1287553 -1.2426627 -0.44982749 3
9.7163877 -10.70066 0.25229198 14
1.3150036 -1.448722 -0.45170173 3
9.7155819 -10.707279 0.75772005 12
1.5356257 -1.6923715 -0.44420335 100
9.699399 -10.693194 1.263061 11
1.8563348 -2.0472522 -0.43770367 7
9.7041502 -10.70594 1.7741741 9
2.3912477 -2.6390295 -0.43726721 3
9.6900682 -10.697906 2.2861335 11
3.3278396 -3.6739593 -0.43368697 5
9.6709137 -10.680508 2.8006945 13
5.4295893 -5.9985142 -0.42402595 3
9.4061289 -10.39537 3.2365956 21
9.8970404 -10.941749 -0.25752771 11
9.1124134 -10.077833 3.6405489 36
1.1269987 -1.2494643 -0.4508628 3
26.864914 -29.794655 0.70026034 31
1.2995011 -1.4417231 -0.4481025 4
26.861902 -29.812231 2.1030684 33
1.5336514 -1.7020972 -0.44534823 100
26.839222 -29.797512 3.5085413 36
1.8478554 -2.0522518 -0.43739083 7
19.253759 -21.390972 3.5337238 37
2.3780379 -2.6429334 -0.43653604 3
14.775567 -16.427217 3.4994395 35
3.3163269 -3.6870346 -0.43386129 5
11.584181 -12.883611 3.367779 18
5.4072828 -6.015945 -0.42392129 3
9.3697853 -10.428141 3.2365956 19
9.9215889 -11.04615 -0.25916824 14
9.0178099 -10.043457 3.6167376 35
1.127786 -1.2591468 -0.45293337 3
26.810104 -29.943373 0.70155185 31
1.2905616 -1.4418943 -0.44675279 4
26.805616 -29.959398 2.1068363 33
1.5211552 -1.7001249 -0.44344014 100
26.764269 -29.923693 3.5123765 48
1.8419973 -2.0601618 -0.43770367 7
19.169712 -21.447689 3.5320177 37
2.371443 -2.6541786 -0.43702352 3
14.703661 -16.46249 3.4959979 40
3.3100731 -3.7060189 -0.43473285 5
11.55875 -12.945934 3.3735032 20
5.3928995 -6.0422335 -0.42444465 4
9.3281384 -10.454967 3.2347963 18
9.898942 -11.098624 -0.25958708 14
8.9274139 -10.012869 3.5944791 33
1.1208161 -1.2601887 -0.45189807 3
26.822342 -30.168285 0.70462346 21
1.2984663 -1.4609563 -0.4512518 3
26.797672 -30.151133 2.1140587 16
1.5086914 -1.6980858 -0.44153205 100
26.678177 -30.03779 3.5148168 36
1.8387294 -2.0710106 -0.43864229 7
19.086823 -21.505566 3.5305552 41
2.356894 -2.6565006 -0.43604854 3
14.642434 -16.503769 3.4944336 42
3.2931502 -3.7130785 -0.43420991 5
11.536933 -13.012647 3.3803725 18
5.3797235 -6.0699897 -0.4250727 4
9.2941713 -10.490382 3.2356961 18
9.8806496 -11.152343 -0.26007575 14
8.8416462 -9.9831247 3.573256 35
1.1176891 -1.2655413 -0.4524157 2
31.050755 -35.158268 0.81876218 16
1.2974838 -1.4696367 -0.45260152 3
31.037666 -35.168186 2.45822 24
1.5053526 -1.7062862 -0.44229528 100
26.544165 -30.097855 3.5109818 36
1.8318514 -2.0770967 -0.43864229 7
19.015404 -21.568741 3.5305552 37
2.3533218 -2.6702592 -0.43702352 3
14.580817 -16.550333 3.4934947 40
3.281486 -3.7260461 -0.4343842 5
11.515776 -13.075878 3.3868597 18
5.3674841 -6.0967908 -0.42570072 4
9.26577 -10.52846 3.2379456 15
9.8575096 -11.204782 -0.26049462 14
8.7391291 -9.9370422 3.5458212 33
1.1160344 -1.2721453 -0.45345098 2
30.714245 -35.022884 0.81310767 31
1.294915 -1.4770875 -0.45350131 3
30.72253 -35.057007 2.4429379 24
1.5048621 -1.7171749 -0.44382176 100
26.412703 -30.149746 3.5067983 36
1.8271927 -2.0864503 -0.43926802 6
18.942614 -21.637974 3.5310426 41
2.3518307 -2.6874204 -0.43848595 3
14.521656 -16.599642 3.4931822 47
3.2638643 -3.7309091 -0.43368697 5
11.482986 -13.130775 3.390676 17
5.364573 -6.1365414 -0.42716613 3
9.840703 -11.264725 -0.26108801 14
8.6497469 -9.9049168 3.5235624 35
1.1179317 -1.2833165 -0.45603919 3
30.597057 -35.135918 0.81324726 31
1.274397 -1.4639606 -0.4481025 5
30.588175 -35.150478 2.4419961 48
1.4911259 -1.7135311 -0.44153205 100
26.294226 -30.22673 3.5050554 36
1.8211949 -2.0943065 -0.43958092 7
18.850037 -21.684486 3.5278742 41
2.3424354 -2.6956134 -0.43848595 3
14.468806 -16.656197 3.4944336 42
3.2560472 -3.7482958 -0.4343842 5
11.457676 -13.194495 3.3967817 17
5.3300266 -6.1401458 -0.42611939 3
9.8262196 -11.327707 -0.2617512 13
8.556901 -9.8679104 3.4997511 35
1.1109176 -1.284289 -0.45500392 5
30.542242 -35.321159 0.81506234 31
1.2718277 -1.4713488 -0.4490023 6
30.520132 -35.320507 2.4463923 36
1.4928373 -1.727639 -0.44382176 100
26.178133 -30.306265 3.5036607 36
1.8229103 -2.1111166 -0.44177097 6
18.77293 -21.748652 3.5276303 37
2.3356054 -2.7067797 -0.43897343 3
14.398968 -16.693138 3.4916177 42
3.2559576 -3.7747257 -0.43612733 5
11.437192 -13.264148 3.4044144 18
5.3189931 -6.1708164 -0.42695674 3
9.8022785 -11.380118 -0.26217005 11
8.477025 -9.8450184 3.4811163 35
1.1089453 -1.2910899 -0.45603919 9
30.463049 -35.479141 0.81624901 31
1.2692225 -1.4787369 -0.44990209 6
30.446079 -35.484428 2.4503698 36
1.479127 -1.7238994 -0.44153205 100
26.057919 -30.380823 3.5017433 48
1.820673 -2.1234655 -0.44302243 6
18.69561 -21.812542 3.5273867 33
2.31581 -2.7028563 -0.43702352 3
14.330328 -16.731297 3.4891148 42
3.2362812 -3.7785025 -0.4352558 5
11.417635 -13.335308 3.4124281 20
5.3065114 -6.1999674 -0.42768946 4
9.772893 -11.426424 -0.26244929 14
8.3898802 -9.8128786 3.4593754 35
1.0956564 -1.2846637 -0.4524157 8
1.2703733 -1.4905739 -0.4521516 4
36.672424 -43.029053 2.9629481 17
1.4680076 -1.7230742 -0.44000554 100
25.91683 -30.430643 3.4970369 36
1.8158107 -2.1328161 -0.44364822 6
18.615496 -21.873131 3.5266554 37
2.3089337 -2.7139473 -0.43751097 3
14.267087 -16.769699 3.4872377 37
3.2204902 -3.7867403 -0.43490714 5
11.38882 -13.396022 3.4177709 18
5.2913046 -6.2260623 -0.42821282 4
9.7530737 -11.480104 -0.26293796 13
8.2997684 -9.772912 3.435564 35
1.0899171 -1.2870064 -0.45189807 8
1.2654233 -1.4947784 -0.4521516 4
36.522003 -43.156799 2.9629481 35
1.474664 -1.7431769 -0.44382176 100
25.787291 -30.493542 3.4938993 36
1.8049014 -2.1343007 -0.44270959 6
18.540297 -21.931711 3.5261679 37
2.3178594 -2.7428162 -0.44092333 3
14.213562 -16.825432 3.4884889 40
3.2072523 -3.7979591 -0.43490714 5
11.357 -13.448714 3.4215872 20
5.2744946 -6.2481537 -0.42852688 4
9.7413073 -11.547706 -0.26370585 14
8.2195253 -9.7471809 3.4164116 42
1.0868865 -1.2920918 -0.4524157 6
1.2576901 -1.4962031 -0.4512518 4
36.391537 -43.292961 2.9639947 17
1.4688753 -1.7480575 -0.44382176 85
25.673216 -30.563631 3.492156 36
1.7872784 -2.1284859 -0.44020665 6
18.445761 -21.975008 3.5227556 41
2.3057191 -2.7478487 -0.44043583 3
14.14626 -16.858856 3.4856732 32
3.1984816 -3.8131533 -0.43543008 6
11.337738 -13.521373 3.4299829 15
5.2500854 -6.2634654 -0.42831749 3
9.7247944 -11.606003 -0.26429924 14
8.1412601 -9.7195883 3.3972588 37
1.088562 -1.3032914 -0.45500392 4
1.2477257 -1.494382 -0.44945222 5
36.258114 -43.441196 2.9654603 35
1.464022 -1.7546813 -0.44420335 86
25.553612 -30.63776 3.490413 36
1.7865363 -2.1419857 -0.44177097 5
18.365158 -22.026909 3.5212932 37
2.2889683 -2.7463305 -0.43897343 3
14.081002 -16.900545 3.4841089 37
3.1953521 -3.8365419 -0.43682456 6
11.315454 -13.586049 3.4368517 21
5.2318425 -6.2839108 -0.42852688 3
9.6787844 -11.629214 3.4930401 1
9.6957331 -11.653713 -0.26461339 14
8.0541658 -9.6840801 3.3750005 37
1.0837778 -1.3072726 -0.45500392 4
1.2494378 -1.5081658 -0.4521516 3
36.182747 -43.675308 2.9723685 17
1.4575809 -1.7600355 -0.44420335 86
25.42082 -30.706661 3.4876242 36
1.7858549 -2.1579609 -0.44364822 5
18.285509 -22.10338 3.5222681 33
2.2733462 -2.74898 -0.43799844 3
14.006376 -16.936817 3.4809802 35
3.1812689 -3.8482277 -0.43682456 5
11.291966 -13.664204 3.4456289 27
5.2076755 -6.3039532 -0.42852688 3
9.6588774 -11.696344 3.502038 1
9.6746006 -11.715384 -0.26520678 14
7.9706531 -9.6554337 3.3548126 39
1.0730691 -1.3035899 -0.4524157 4
1.2469063 -1.5153105 -0.45305145 3
36.019924 -43.789005 2.9715312 17
1.441453 -1.7529812 -0.4411504 82
25.283115 -30.75827 3.4834406 35
1.7786891 -2.163871 -0.44364822 6
18.207069 -22.157761 3.5212932 37
2.2742977 -2.7687752 -0.43994835 3
13.932127 -16.967287 3.4772255 35
3.1602323 -3.850069 -0.43577868 5
11.270259 -13.730408 3.4528797 38
5.2057457 -6.3443475 -0.43009692 4
11.019047 -13.433916 4.0113273 2
9.6450596 -11.763 -0.2655209 12
7.8866906 -9.6219406 3.3335896 42
1.0662947 -1.3041502 -0.45138043 4
36.546036 -44.71418 1.0080161 44
1.2440752 -1.5226719 -0.45395124 3
35.876957 -43.926846 2.9723685 17
1.4430835 -1.7668751 -0.44344014 85
25.157034 -30.81262 3.4801285 35
1.7598836 -2.1562932 -0.44083238 6
18.1133 -22.201187 3.5181246 33
2.2646189 -2.7766972 -0.43994835 3
13.875312 -17.018875 3.4778514 35
3.1512246 -3.86516 -0.43630162 5
11.229706 -13.778796 3.4551697 42
5.1873531 -6.367126 -0.43041092 4
10.991776 -13.496475 4.0185256 2
9.6266651 -11.82451 -0.26614919 10
7.8018394 -9.5864792 3.3118486 43
1.0629535 -1.309364 -0.45189807 5
1.2313862 -1.5179249 -0.4512518 3
1.4369071 -1.7719018 -0.44344014 85
25.065638 -30.920364 3.4823947 35
1.7498589 -2.159354 -0.44020665 6
18.029446 -22.256565 3.5169058 37
2.2636573 -2.7953842 -0.44165453 3
13.803392 -17.051853 3.4747229 35
3.1527565 -3.8947194 -0.43839338 5
11.202533 -13.843854 3.4616568 40
5.1701198 -6.3914061 -0.43082964 4
10.944598 -13.53476 4.0185256 2
9.6155005 -11.895364 -0.26698691 11
7.728261 -9.5640688 3.2947667 39
1.0632259 -1.3190827 -0.45396861 4
1.2260802 -1.5222139 -0.4512518 3
39.039055 -48.485435 3.2623098 23
1.4368694 -1.7845525 -0.44534823 87
24.935068 -30.979736 3.4792571 35
1.7497405 -2.1746833 -0.44208387 6
17.950399 -22.317818 3.5166621 33
2.2402036 -2.7862511 -0.43897343 3
13.746262 -17.103012 3.4753485 37
3.1378942 -3.9041481 -0.43821907 8
11.191031 -13.928789 3.4731057 36
5.1540318 -6.4172006 -0.431353 4
9.5889387 -11.94757 -0.26740578 11
7.6537261 -9.5397549 3.2771668 46
1.059822 -1.3242944 -0.45448625 5
41.542313 -51.927536 1.1607596 36
1.2207593 -1.5264845 -0.4512518 4
1.4208242 -1.7772894 -0.44229528 100
24.819311 -31.057247 3.4782112 35
1.7470707 -2.1869512 -0.44333532 6
17.864956 -22.371033 3.5151997 33
2.2329409 -2.7971566 -0.4394609 3
13.661833 -17.12001 3.4690909 40
3.1205187 -3.9104059 -0.43769613 5
11.172951 -14.006137 3.482646 31
5.1490331 -6.4570131 -0.43281841 4
9.559639 -11.996609 -0.26775482 12
7.5710292 -9.5044594 3.2559438 45
1.0503855 -1.3219358 -0.4524157 4
1.2299649 -1.5490505 -0.45665067 4
1.4146116 -1.7822382 -0.44229528 100
24.688456 -31.115597 3.4750736 35
1.739426 -2.1930361 -0.44333532 6
17.790457 -22.437923 3.5159309 37
2.2330279 -2.8173797 -0.44141081 3
13.601989 -17.167595 3.4690909 37
3.1068497 -3.9212744 -0.43769613 5
11.143496 -14.069677 3.4887516 38
5.1339016 -6.4843431 -0.43344644 4
9.5375557 -12.054996 -0.26831329 11
7.4958625 -9.4777966 3.2378263 37
1.0421753 -1.3210442 -0.4508628 4
21.594254 -27.382345 0.60870504 15
1.2173114 -1.5441521 -0.45395124 4
21.589298 -27.395727 1.8279904 19
1.4156728 -1.7964172 -0.444585 86
21.587372 -27.403118 3.0520198 17
1.730538 -2.1975427 -0.44302243 5
17.698521 -22.482731 3.5132496 37
2.2256351 -2.8282771 -0.44189829 4
13.532213 -17.202551 3.4665883 35
3.0906796 -3.9289634 -0.4373475 5
11.084606 -14.096145 3.4856989 30
5.1124697 -6.5037942 -0.4335511 4
9.5201235 -12.119666 -0.26901138 11
7.4484167 -9.485672 3.2316148 29
1.0458962 -1.33532 -0.45448625 4
21.415943 -27.352068 0.60636646 31
1.2023052 -1.5361152 -0.45035201 4
21.407387 -27.360811 1.8206635 25
1.4154426 -1.8090791 -0.44649309 89
21.401983 -27.363741 3.039295 25
1.7228566 -2.2035699 -0.44302243 5
17.604042 -22.52404 3.5100813 36
2.2108603 -2.829772 -0.44092333 3
13.479375 -17.259022 3.4684653 37
3.0781724 -3.9412985 -0.43752185 5
11.042583 -14.144035 3.4879885 36
5.0774479 -6.5058556 -0.43250436 4
9.5048151 -12.187515 -0.26977929 11
7.4152603 -9.5116138 3.2316148 28
1.0412287 -1.3389628 -0.45448625 4
21.274923 -27.36824 0.60507494 31
1.1993271 -1.5433801 -0.4512518 4
21.263966 -27.373857 1.8165812 37
1.4103233 -1.8155593 -0.44687468 89
21.267233 -27.387926 3.0337172 25
1.7175766 -2.2126913 -0.44364822 5
17.518009 -22.575941 3.5086186 40
2.1985357 -2.8343349 -0.44043583 4
13.397261 -17.27787 3.4628339 33
3.0766048 -3.9677649 -0.43926495 5
10.976306 -14.16077 3.482646 30
5.063271 -6.5345912 -0.43323711 4
9.4805775 -12.244336 -0.27030286 12
7.3867431 -9.5435505 3.2336853 28
1.0400902 -1.3471767 -0.45603919 5
21.167046 -27.426506 0.6047259 30
1.196313 -1.550643 -0.4521516 4
21.151112 -27.415754 1.814697 43
1.3943857 -1.8080343 -0.44382176 85
21.152037 -27.436747 3.0309279 34
1.7098427 -2.2186732 -0.44364822 5
17.436672 -22.633808 3.5081313 36
2.191051 -2.8451376 -0.44092333 3
13.337481 -17.319071 3.462208 38
3.062736 -3.9784799 -0.43926495 6
10.94357 -14.22078 3.4879885 36
5.0404301 -6.5522261 -0.43323711 4
9.4521122 -12.291559 -0.27065191 13
7.3527002 -9.56493 3.23265 28
1.0248042 -1.3369998 -0.45138043 6
21.063814 -27.480677 0.60437685 30
1.1935351 -1.5576955 -0.45305145 3
21.062572 -27.498934 1.8153251 43
1.3868726 -1.8113316 -0.44344014 85
21.037971 -27.486685 3.0283134 34
1.7060778 -2.2290373 -0.44458681 5
17.362728 -22.693083 3.5083749 32
2.1791918 -2.8492341 -0.44043583 4
13.260148 -17.343552 3.457828 35
3.036731 -3.9733164 -0.43752185 6
10.870124 -14.222676 3.4795928 27
5.0307994 -6.584775 -0.43428379 4
9.4334183 -12.356266 -0.27135 12
7.3122354 -9.5813236 3.2295442 28
1.0227052 -1.343465 -0.4524157 6
20.982292 -27.573133 0.60479575 31
1.19045 -1.5649542 -0.45395124 3
20.984568 -27.586113 1.8164765 37
1.3844233 -1.8206089 -0.444585 86
20.958765 -27.572159 3.0300565 34
1.7006768 -2.2381246 -0.44521254 4
17.268999 -22.734583 3.5054502 32
2.1788371 -2.8694713 -0.44238573 4
13.203756 -17.389002 3.4581406 40
3.0235384 -3.9833646 -0.43752185 6
10.820413 -14.260533 3.4795928 33
5.0150251 -6.6118436 -0.43491185 4
9.4129305 -12.41457 -0.27194339 12
7.2745872 -9.5978212 3.2269559 27
1.0226686 -1.3531916 -0.45448625 6
20.923292 -27.685631 0.6057381 31
1.1829045 -1.5657835 -0.45305145 3
20.924257 -27.707008 1.8196167 25
1.385157 -1.8348317 -0.44687468 100
20.894796 -27.688091 3.0347631 25
1.687296 -2.235868 -0.44364822 5
17.185146 -22.780632 3.5037439 28
2.1669192 -2.8735111 -0.44189829 4
13.153679 -17.449183 3.4609563 35
3.0192077 -4.0066242 -0.43891633 6
10.771882 -14.29477 3.4792116 35
4.9858618 -6.6188655 -0.43428379 4
9.3984013 -12.485695 -0.27278113 11
7.2398791 -9.6216125 3.2264383 26
1.0170158 -1.3550304 -0.45396861 5
20.899731 -27.856075 0.6078673 15
1.1727548 -1.5636669 -0.4512518 4
20.875338 -27.8438 1.8238037 25
1.3767095 -1.8362733 -0.44611144 100
20.8638 -27.838535 3.0436528 25
1.6901405 -2.2559724 -0.446464 6
17.125753 -22.867491 3.5078876 16
2.154496 -2.8778794 -0.44141081 4
13.078485 -17.476013 3.457202 35
3.0099778 -4.02352 -0.43961355 6
10.720741 -14.33071 3.4788296 27
4.9722967 -6.6490245 -0.43512118 4
9.3715191 -12.540852 -0.27326977 11
7.2131858 -9.6561117 3.2295442 24
1.0120426 -1.3587488 -0.45396861 6
26.860918 -36.062946 0.78490454 14
1.1696168 -1.5708772 -0.4521516 5
26.845425 -36.068424 2.3563743 33
1.3582509 -1.8255558 -0.44229528 83
23.660479 -31.812437 3.4686241 23
1.6759678 -2.2542257 -0.44489968 6
17.092016 -22.98926 3.5173934 8
2.1468055 -2.8885686 -0.44189829 4
13.005623 -17.505703 3.4540734 35
2.9959147 -4.0340023 -0.43961355 6
10.664635 -14.36518 3.4776852 35
4.9526548 -6.6736207 -0.43553987 4
9.3419828 -12.592761 -0.27368864 12
7.1794357 -9.6812315 3.2295442 25
1.0004021 -1.3529533 -0.4508628 7
26.597809 -35.984261 0.78106499 28
1.1661677 -1.5782883 -0.45305145 5
26.599133 -36.012344 2.3463256 66
1.3612015 -1.8429193 -0.44534823 87
23.529175 -31.86759 3.465661 35
1.6680888 -2.260062 -0.44489968 5
2.136204 -2.8964179 -0.44189829 4
12.941375 -17.553253 3.4540734 35
2.9818151 -4.0444355 -0.43961355 5
10.614426 -14.402319 3.4776852 20
4.9364371 -6.7005162 -0.43616793 4
9.2817631 -12.603286 3.6136138 1
9.3147345 -12.652681 -0.27424711 12
7.1370344 -9.6981449 3.2264383 26
0.99681652 -1.3579944 -0.45138043 7
26.339542 -35.89632 0.7771557 28
1.1629566 -1.585492 -0.45395124 4
26.33745 -35.919746 2.3342886 65
1.3547602 -1.8476596 -0.44534823 87
23.420143 -31.952738 3.4660094 35
1.6555195 -2.2594974 -0.44364822 5
2.142498 -2.9262805 -0.44531062 4
12.876524 -17.593538 3.4531348 30
2.9629722 -4.048388 -0.43891633 5
10.577999 -14.458294 3.4822643 17
4.9153762 -6.7209301 -0.43637723 5
9.2699146 -12.679656 3.6262109 1
9.2964687 -12.720638 -0.27501503 10
7.1008587 -9.7198782 3.2254031 26
0.99434543 -1.3645881 -0.4524157 7
26.070442 -35.790848 0.7728973 27
1.157415 -1.5895418 -0.45395124 3
26.078291 -35.814754 2.3218327 64
1.347147 -1.85079 -0.44496658 87
23.315498 -32.043964 3.4670556 35
1.6511084 -2.2700551 -0.44458681 4
2.1281128 -2.9269469 -0.44433567 4
12.811141 -17.626553 3.4512575 33
2.9628758 -4.0780492 -0.44100806 6
4.8918853 -6.7380471 -0.43637723 5
9.282424 -12.790237 -0.27585274 9
0.99547738 -1.3757037 -0.45500392 8
24.681166 -34.120758 0.73506051 12
1.1509956 -1.591792 -0.45350131 2
25.827137 -35.718143 2.3100045 63
1.3421522 -1.8568383 -0.44534823 100
23.213776 -32.127563 3.4677527 35
1.648198 -2.2819233 -0.44583827 4
15.500423 -21.468164 3.2512307 3
2.1079369 -2.919503 -0.44214204 3
12.752618 -17.668938 3.4512575 33
2.9493363 -4.087852 -0.44100806 6
4.8671784 -6.7509923 -0.43616793 5
9.2610035 -12.85015 -0.27648103 10
0.98865533 -1.3758595 -0.45396861 8
24.434887 -34.017265 0.73108131 11
1.1513938 -1.6035148 -0.45575082 3
25.569532 -35.623116 2.2980721 63
1.3379515 -1.8647023 -0.44611144 100
23.121048 -32.223793 3.4698443 35
1.6452268 -2.2937968 -0.44708973 4
15.387506 -21.461372 3.242456 3
2.0988894 -2.9284568 -0.44238573 3
12.675911 -17.692471 3.4471903 33
2.9338892 -4.0965018 -0.44083372 7
4.8517199 -6.7793097 -0.43690062 5
9.2277269 -12.898662 -0.27683008 10
7.6426415 -10.686946 3.5204568 67
0.97799814 -1.3716091 -0.45138043 6
24.180044 -33.924217 0.72717196 11
1.1489012 -1.6124854 -0.45710054 2
25.311342 -35.537643 2.2865582 62
1.334524 -1.8743914 -0.4472563 100
22.993542 -32.295334 3.4684498 35
1.6368086 -2.2998114 -0.44708973 4
15.267314 -21.459394 3.2336814 3
2.0869915 -2.9345121 -0.44214204 3
12.607544 -17.733984 3.4462516 33
2.9142382 -4.1007314 -0.44013649 7
4.8303089 -6.8019314 -0.43721461 5
9.2081699 -12.971532 -0.27766779 10
7.613483 -10.729067 3.5251155 77
0.97296441 -1.3751844 -0.45138043 6
23.882343 -33.767719 0.72193623 11
1.1362336 -1.607138 -0.45440111 2
25.054117 -35.45076 2.2750442 61
1.3265125 -1.8776667 -0.44687468 100
22.868124 -32.369625 3.4674039 35
1.6215315 -2.296114 -0.44521254 4
15.167954 -21.486017 3.2292941 3
2.0956793 -2.9697142 -0.44628558 3
12.543601 -17.781687 3.4465647 33
2.8945961 -4.1048722 -0.43943924 7
4.8110981 -6.8277531 -0.43773797 5
9.1882019 -13.044431 -0.2785055 9
7.5985765 -10.791649 3.5365036 71
0.97679752 -1.3913903 -0.45552155 6
23.625168 -33.66515 0.71788728 11
1.1280973 -1.608101 -0.45350131 2
24.799025 -35.364105 2.2636349 70
1.326383 -1.8921617 -0.44916439 100
22.747042 -32.449966 3.4670556 35
1.611971 -2.3004239 -0.44489968 4
15.109601 -21.57073 3.2336814 10
2.0745335 -2.9627407 -0.44409195 3
12.473812 -17.821068 3.445313 35
2.8829582 -4.1203513 -0.43996218 6
4.7791748 -6.8355198 -0.43710995 6
9.1598043 -13.105883 -0.27909887 8
7.5799932 -10.849516 3.5463388 67
0.97770184 -1.4025458 -0.45810974 5
23.369352 -33.536587 0.71348929 11
1.1272137 -1.6182295 -0.45530096 2
24.556522 -35.253372 2.2515979 60
1.3159447 -1.8898747 -0.44763795 100
22.639307 -32.525219 3.4670556 35
1.6054621 -2.3073783 -0.44521254 4
15.070857 -21.667978 3.2407498 13
2.0590312 -2.9614542 -0.44287321 4
12.404233 -17.840706 3.4415588 35
2.8836443 -4.1490202 -0.44205391 6
4.7622337 -6.8570619 -0.43752864 5
9.1402531 -13.165805 -0.27976209 10
7.5634942 -10.898669 3.5546207 63
0.96620482 -1.3964182 -0.45500392 5
23.176088 -33.495499 0.71097618 10
1.1218414 -1.6219586 -0.45530096 2
24.312914 -35.164734 2.2405024 69
1.3048747 -1.8879964 -0.44611144 100
22.525637 -32.60405 3.4670556 47
1.6101528 -2.3305669 -0.44865409 4
15.037277 -21.773373 3.249037 13
2.0480716 -2.9666324 -0.44262949 3
12.337392 -17.877392 3.4403071 35
2.8668811 -4.1557808 -0.44170532 6
4.7508068 -6.8892584 -0.43857533 6
9.1135292 -13.225623 -0.28035545 13
7.5418429 -10.948869 3.5623856 69
0.95500529 -1.3900609 -0.45189807 5
23.092983 -33.625645 0.71202326 22
1.1172757 -1.627471 -0.45575082 2
24.073618 -35.079769 2.2297213 68
1.2986068 -1.8923131 -0.44611144 100
22.399359 -32.652279 3.4642663 35
1.5997738 -2.3329148 -0.44802836 4
14.999342 -21.881399 3.257324 14
2.0522904 -2.9950514 -0.4457981 3
12.261518 -17.900793 3.4365525 35
2.8418252 -4.148828 -0.43996218 6
4.7357545 -6.9189858 -0.43941274 6
9.0865002 -13.285415 -0.28094885 15
7.5199327 -10.999049 3.5701501 67
0.95341241 -1.3981743 -0.45345098 6
23.04981 -33.815102 0.71432698 11
1.111588 -1.6313612 -0.45575082 2
23.838585 -34.998516 2.2192543 67
1.2942038 -1.9000798 -0.44687468 100
22.274033 -32.713799 3.4625232 47
1.5805058 -2.3221545 -0.44489968 4
14.959718 -21.987785 3.2653673 17
2.0440559 -3.0054798 -0.44628558 3
12.205624 -17.953287 3.4384301 35
2.8318069 -4.1653128 -0.44065943 6
4.7104521 -6.9338217 -0.43930805 5
9.0670242 -13.356758 -0.28178653 15
7.4977646 -11.049211 3.5779145 69
0.95177442 -1.4062934 -0.45500392 5
22.967487 -33.948357 0.71544397 11
1.1015199 -1.6287745 -0.45395124 2
23.602175 -34.912743 2.2085774 66
1.288663 -1.9062123 -0.4472563 90
22.156359 -32.786392 3.4620001 47
1.5734961 -2.3292944 -0.44521254 4
14.912871 -22.084288 3.2719483 14
2.0357738 -3.015887 -0.44677305 4
12.13625 -17.985956 3.4365525 35
2.8250506 -4.1867328 -0.4418796 5
9.2339144 -13.68984 3.209789 1
4.6906857 -6.9568467 -0.43972674 5
9.0471611 -13.428129 -0.28262427 15
7.4839711 -11.112168 3.5898204 65
0.94901401 -1.4128145 -0.45603919 5
22.888977 -34.088089 0.71670055 22
1.0893116 -1.6229012 -0.4512518 2
23.35664 -34.810822 2.196959 65
1.2852827 -1.91559 -0.44840118 100
22.034008 -32.851955 3.4607799 35
1.5719558 -2.3446171 -0.44708973 5
14.869953 -22.18733 3.2795043 17
2.0119755 -3.0031846 -0.44384819 4
12.073392 -18.028212 3.4365525 35
2.8181794 -4.2081571 -0.44309977 5
4.6674843 -6.9748373 -0.43983141 5
9.0213528 -13.491212 -0.28328747 13
7.4666076 -11.170346 3.600173 62
0.9462198 -1.4193332 -0.45707443 5
22.818642 -34.240993 0.71823639 22
1.0901223 -1.6364248 -0.45395124 2
23.130926 -34.73587 2.1871197 64
1.2677066 -1.9037237 -0.444585 86
21.912577 -32.918716 3.4597344 35
1.5659509 -2.3533792 -0.44771552 5
14.836389 -22.305214 3.289254 17
2.0036783 -3.0134957 -0.44433567 4
11.99508 -18.047213 3.4321725 38
2.8034728 -4.2179685 -0.44309977 6
4.6552639 -7.0093889 -0.44098282 5
8.9885798 -13.544281 -0.28374124 14
7.4467936 -11.225319 3.6094906 62
0.9316659 -1.4081273 -0.4524157 4
22.87989 -34.593975 0.72396076 23
1.0908519 -1.6499738 -0.45665067 2
22.898315 -34.648113 2.176548 63
1.266466 -1.9163269 -0.44649309 89
21.78216 -32.971733 3.457294 34
1.5588151 -2.3604794 -0.44802836 5
14.798903 -22.418163 3.2982721 14
2.0029871 -3.0353835 -0.44652933 3
11.934186 -18.092272 3.4327981 40
2.7865384 -4.2244029 -0.44275117 6
4.6351643 -7.0322666 -0.44140148 5
8.9676456 -13.615654 -0.28457895 15
7.4181876 -11.26738 3.6146669 63
0.92356384 -1.4065264 -0.4508628 4
22.666826 -34.533203 0.72102875 22
1.0808095 -1.6472541 -0.45485103 2
22.675362 -34.57251 2.1668134 63
1.2619225 -1.924019 -0.4472563 90
21.660379 -33.037567 3.456248 34
1.5473174 -2.3609498 -0.44708973 4
14.761895 -22.532784 3.3075342 14
1.9945548 -3.0456779 -0.44701681 3
11.860142 -18.117292 3.4296696 38
2.773958 -4.2374377 -0.44309977 5
4.6171498 -7.0584316 -0.44202951 5
8.9441328 -13.683699 -0.28534684 15
7.3999448 -11.32555 3.6250196 72
0.92708617 -1.42269 -0.45500392 4
22.44136 -34.45126 0.71767783 22
1.0729263 -1.6477506 -0.45395124 2
22.448856 -34.489082 2.1566603 71
1.2573407 -1.9317031 -0.44801953 91
21.531889 -33.092937 3.4541564 34
1.5401437 -2.3679926 -0.44740263 5
14.704795 -22.617458 3.3124092 14
1.9849926 -3.054286 -0.44726053 4
11.803286 -18.16852 3.4315467 35
2.7613206 -4.2504363 -0.44344842 6
4.5903077 -7.0711546 -0.44182017 5
8.9445772 -13.783972 3.7935746 1
8.9256945 -13.760133 -0.28628927 13
7.3813872 -11.383729 3.6353724 70
0.9252615 -1.4307841 -0.4565568 4
22.229778 -34.388317 0.71474588 22
1.0650527 -1.6482123 -0.45305145 2
22.223801 -34.392231 2.1459837 61
1.2473944 -1.9311329 -0.44687468 89
21.420563 -33.174591 3.4548538 34
1.5340111 -2.3766737 -0.44802836 5
14.669879 -22.737041 3.3224022 14
1.9700154 -3.0545235 -0.44628558 4
11.734406 -18.194283 3.429044 38
2.7551038 -4.2734456 -0.44484288 5
4.5634336 -7.0837774 -0.44161084 5
8.9005871 -13.8216 -0.28695247 11
7.3686929 -11.447131 3.6477959 67
0.92234832 -1.4372569 -0.4575921 5
22.009777 -34.296917 0.71132523 22
1.0658944 -1.6615765 -0.45575082 2
22.003344 -34.313236 2.1362493 69
1.2427648 -1.938781 -0.44763795 100
21.29603 -33.235737 3.453459 34
1.5325158 -2.391727 -0.44990557 5
14.634012 -22.847414 3.3314207 14
1.9534532 -3.0510085 -0.44482315 3
11.668695 -18.231802 3.4284182 38
2.7487595 -4.2964635 -0.44623742 5
4.5420704 -7.1022358 -0.44182017 4
8.8662844 -13.874489 -0.28740624 14
7.3474092 -11.502089 3.6571133 64
0.91134918 -1.4305317 -0.45448625 5
21.788954 -34.214985 0.70804417 21
1.0632273 -1.6702188 -0.45710054 3
21.786932 -34.238182 2.1268287 68
1.2289507 -1.9312972 -0.44496658 87
21.164314 -33.272556 3.4499731 34
1.5199178 -2.390394 -0.44865409 5
14.596765 -22.965366 3.3411701 14
1.9534366 -3.074564 -0.44726053 3
11.598629 -18.262419 3.4265409 35
2.7227473 -4.2870545 -0.44431996 5
4.5300937 -7.1382837 -0.44307625 4
8.8445711 -13.947574 -0.28827888 14
7.3175583 -11.54398 3.6622896 64
0.9032535 -1.4288055 -0.45293337 4
21.560431 -34.118408 0.70448381 21
1.0511463 -1.6640345 -0.45440111 4
21.576647 -34.170483 2.1179316 68
1.2263947 -1.9422156 -0.44649309 100
21.043791 -33.339485 3.4492755 34
1.504186 -2.3839905 -0.446464 6
14.554635 -23.076626 3.3499448 14
1.9426925 -3.0813639 -0.44726053 3
11.543237 -18.316164 3.429044 35
2.710953 -4.301589 -0.44484288 5
4.507277 -7.1574335 -0.44328558 5
8.8213911 -14.01898 -0.28911656 15
7.2977891 -11.602159 3.6726425 66
0.90544647 -1.4434053 -0.4565568 4
1.0370516 -1.6544843 -0.45080194 4
21.357555 -34.086498 2.1080925 67
1.2258618 -1.9564663 -0.44878277 100
20.935745 -33.42625 3.4506702 34
1.4969038 -2.3909009 -0.4467769 5
14.502428 -23.172724 3.3565259 14
1.9287667 -3.0830779 -0.44652933 3
11.481324 -18.359695 3.4296696 35
2.7022593 -4.3211617 -0.44588876 5
8.7696152 -14.028869 3.2158949 1
4.4801483 -7.1697364 -0.44307625 4
7.4992561 -12.00598 3.2680891 1
8.8009977 -14.095486 -0.290059 14
7.2817945 -11.666895 3.6850657 69
0.90448594 -1.4531174 -0.45862737 4
1.0374452 -1.6680229 -0.45350131 4
21.13615 -33.996311 2.0979395 66
1.2159154 -1.9557316 -0.44763795 100
20.816835 -33.495743 3.4503214 34
1.489591 -2.3977892 -0.44708973 6
14.466485 -23.295719 3.3670065 15
1.9158989 -3.0864186 -0.44604182 3
11.417166 -18.399662 3.4296696 35
2.6871588 -4.3305678 -0.44588876 5
8.7164516 -14.052722 3.2143686 2
4.4593043 -7.1921196 -0.44349492 4
7.4398489 -12.003925 3.2604406 12
8.7717514 -14.15842 -0.29072219 12
7.2654352 -11.731659 3.697489 66
0.89737785 -1.4529786 -0.4575921 4
19.443453 -31.493921 0.64605319 8
1.0336632 -1.6749507 -0.45440111 4
20.928896 -33.913246 2.0885189 56
1.2090812 -1.9599642 -0.44763795 100
20.69351 -33.558025 3.4492755 34
1.4863948 -2.4113822 -0.44865409 6
14.42465 -23.410295 3.3762684 15
1.9071957 -3.096468 -0.44652933 3
11.35609 -18.43742 3.4296696 26
2.6688926 -4.3348317 -0.44536582 5
8.6982174 -14.133222 3.225817 2
4.4446378 -7.2246542 -0.44454166 4
7.3999434 -12.033143 3.2613404 22
8.7415113 -14.214684 -0.29128066 10
7.2477374 -11.790249 3.7083595 59
0.88422531 -1.4429249 -0.45345098 4
19.355623 -31.585512 0.64661169 17
1.0321749 -1.6850163 -0.45620075 3
20.720694 -33.839611 2.0795171 64
1.2012074 -1.9624979 -0.4472563 90
20.555452 -33.596066 3.4457896 34
1.4783903 -2.4162982 -0.44865409 5
14.390438 -23.529129 3.3865056 15
1.9031292 -3.1129372 -0.44799173 3
11.308142 -18.503916 3.4346755 14
2.6537449 -4.3441215 -0.44536582 5
8.6799593 -14.208899 3.2365022 2
4.4248185 -7.2461715 -0.44496036 4
7.3691382 -12.072585 3.2653894 24
8.7282953 -14.304856 -0.29250231 16
7.2155919 -11.830319 3.7130182 64
0.88144356 -1.4491501 -0.45448625 4
20.510611 -33.734024 0.68912572 20
1.0283111 -1.6919396 -0.45710054 4
20.514303 -33.766644 2.0706201 64
1.1977512 -1.9715042 -0.44840118 100
20.448065 -33.67086 3.4464867 34
1.4637965 -2.4113126 -0.4467769 5
14.346323 -23.642008 3.395524 15
1.8973991 -3.1280479 -0.44921044 3
11.288546 -18.617598 3.4484417 4
2.6434567 -4.3597121 -0.44606307 5
8.6465902 -14.265976 3.2426083 2
4.3974276 -7.2581563 -0.44475099 4
7.3299799 -12.103235 3.2667391 24
8.6959152 -14.364318 -0.29309571 15
7.1982565 -11.895102 3.7254415 66
0.88137031 -1.460488 -0.45707443 5
20.301834 -33.654736 0.68605411 20
1.0123358 -1.6788306 -0.45260152 4
20.308668 -33.69265 2.0617228 64
1.1918753 -1.9773545 -0.44878277 92
20.275909 -33.651581 3.4372482 46
1.4594471 -2.4231761 -0.44802836 5
14.299546 -23.751465 3.4040549 15
1.8833981 -3.129549 -0.44847921 3
10.43738 -17.35013 3.206907 1
2.6292498 -4.3706203 -0.44623742 5
8.6109028 -14.319626 3.247951 2
4.3741231 -7.2768865 -0.44496036 5
7.2866836 -12.127078 3.2662892 24
8.6745501 -14.442585 -0.29407305 10
7.1765785 -11.953281 3.7357943 63
0.87428218 -1.4602408 -0.45603919 4
20.163692 -33.691074 0.68535596 9
1.0104713 -1.6890433 -0.45440111 3
20.100729 -33.612492 2.0525117 63
1.1859735 -1.983188 -0.44916439 100
20.096981 -33.619541 3.4267893 57
1.4560457 -2.4367342 -0.44959271 5
14.253197 -23.862587 3.4128294 23
1.8633035 -3.1207647 -0.44628558 3
10.38485 -17.400024 3.20941 1
2.6241884 -4.3968801 -0.44798052 5
8.6011 -14.417036 3.2632158 2
4.3486958 -7.29211 -0.44496036 5
7.2383213 -12.142395 3.2635899 25
8.6476259 -14.512286 -0.29487586 9
7.1644688 -12.02805 3.7513232 63
0.86819321 -1.4616227 -0.45552155 3
1.0065587 -1.6959119 -0.45530096 3
19.891558 -33.527859 2.0430913 62
1.1730331 -1.977185 -0.44687468 100
19.89617 -33.548969 3.4124961 56
1.4495457 -2.4452004 -0.45021844 5
14.210294 -23.980507 3.4225791 31
1.8523988 -3.1272502 -0.44628558 3
10.326062 -17.439569 3.2100356 1
2.6078086 -4.4042988 -0.44780618 5
8.5687237 -14.477383 3.2700846 3
4.323215 -7.3072457 -0.44496036 5
7.1968846 -12.169265 3.2640398 25
8.6193027 -14.580255 -0.29564378 9
7.1371827 -12.077935 3.759088 60
0.86210513 -1.46298 -0.45500392 3
0.99865502 -1.6960565 -0.45440111 4
19.701458 -33.473156 2.0355549 62
1.1711034 -1.9897273 -0.44878277 100
19.690033 -33.467094 3.3971565 67
1.4389991 -2.4468398 -0.44959271 4
14.16875 -24.101837 3.432816 34
1.8414712 -3.1336973 -0.44628558 3
10.255118 -17.458477 3.206907 1
2.5863643 -4.4030676 -0.44676036 6
8.6095886 -14.662959 3.3051934 1
4.3118348 -7.3464069 -0.44642577 5
7.1543612 -12.194313 3.2640398 25
8.5885906 -14.644752 -0.29634187 9
7.1086564 -12.126106 3.766335 61
0.85406816 -1.4609771 -0.45345098 3
19.503078 -33.375519 0.67474496 9
0.99272859 -1.6995322 -0.45440111 5
19.51199 -33.417538 2.0280185 46
1.1641511 -1.9938029 -0.44878277 100
19.500782 -33.411732 3.3846061 44
1.4304491 -2.4518478 -0.44959271 4
14.111533 -24.197449 3.4393971 34
1.83652 -3.1503956 -0.44774801 3
10.194115 -17.494167 3.206907 1
2.5749912 -4.4189548 -0.44745758 6
9.7638931 -16.762587 3.7707677 1
4.2881751 -7.3648643 -0.4466351 5
7.1117511 -12.219213 3.2640398 30
8.5625572 -14.717854 -0.29721448 8
7.0886221 -12.189257 3.7782404 64
0.86253113 -1.4873459 -0.46069792 2
14.325981 -24.713614 0.49861526 20
0.9828819 -1.6962427 -0.45260152 4
14.323935 -24.729975 1.4977505 17
1.1640723 -2.0097466 -0.45145413 100
14.325635 -24.742867 2.5013697 15
1.4208924 -2.4551167 -0.44927984 4
14.031956 -24.25515 3.4406157 31
1.8235242 -3.1533501 -0.44726053 3
10.138918 -17.539904 3.2087841 1
2.5635395 -4.4348159 -0.44815481 6
9.7347879 -16.847565 3.7822161 1
4.2604432 -7.3763294 -0.44642577 5
7.0758753 -12.255777 3.2671893 58
8.5451145 -14.80654 -0.29840127 10
7.0720935 -12.259107 3.7922168 60
0.8592605 -1.4936967 -0.46173319 1
14.1858 -24.669857 0.49673042 25
0.97598398 -1.6979736 -0.4521516 5
14.181803 -24.682846 1.4918889 29
1.1531376 -2.0069888 -0.44992763 100
14.184604 -24.697699 2.4917827 25
1.4142807 -2.4634879 -0.44990557 4
13.94325 -24.297096 3.4396405 31
1.8026284 -3.1424773 -0.44482315 3
10.063874 -17.551199 3.2044039 1
2.5539896 -4.4541078 -0.44920069 6
9.7247353 -16.966608 3.8012969 1
4.2366543 -7.3946223 -0.4466351 4
7.0475798 -12.305766 3.2739377 78
8.5192108 -14.881399 -0.29930878 11
7.0494094 -12.318929 3.803087 54
0.85978615 -1.5067543 -0.46483904 1
14.066904 -24.661905 0.49557856 30
0.97487712 -1.7098346 -0.45440111 5
14.06624 -24.670746 1.4883301 33
1.1432084 -2.0058844 -0.44878277 92
14.060831 -24.681274 2.4851589 30
1.4076278 -2.4718425 -0.4505313 4
13.848532 -24.328367 3.4372032 34
1.7995023 -3.1625531 -0.44677305 3
9.9938955 -17.563871 3.2006495 1
2.5344863 -4.4560685 -0.44850346 6
8.4389553 -14.843182 3.3189318 1
4.2187109 -7.4232569 -0.44747245 5
7.0247951 -12.365874 3.2833855 84
8.4836426 -14.933909 -0.29979745 11
7.0256896 -12.372476 3.8124046 57
0.84500551 -1.4929341 -0.45966265 1
13.973224 -24.687534 0.49515969 35
0.97591895 -1.7249308 -0.45755047 6
13.964305 -24.691879 1.4866554 33
1.1352336 -2.0081537 -0.44840118 91
13.953027 -24.692045 2.481324 35
1.3974798 -2.4730573 -0.44990557 4
13.760946 -24.362057 3.435497 31
1.7909567 -3.1719604 -0.44726053 3
9.9228153 -17.581446 3.1975207 3
2.5189161 -4.4648886 -0.44850346 6
8.4514246 -14.980518 3.3433554 1
4.2048626 -7.4563427 -0.44862387 6
7.0086298 -12.43324 3.295083 91
8.4540396 -15.003502 -0.30060026 10
7.0014195 -12.43059 3.8227575 57
0.83437401 -1.4856218 -0.4565568 1
13.873258 -24.711748 0.49467102 40
0.97275305 -1.7334253 -0.45890018 5
13.874121 -24.733505 1.4862366 33
1.1352913 -2.0238931 -0.45107248 95
13.862297 -24.72254 2.4797552 35
1.3907702 -2.4813666 -0.4505313 4
13.680675 -24.418602 3.4367156 31
1.7915132 -3.1989768 -0.45018539 3
9.8633127 -17.619423 3.1981466 5
2.506043 -4.4766936 -0.44885206 6
8.3990812 -15.009929 3.3433554 1
4.1817355 -7.4762044 -0.44893786 5
6.9918165 -12.505255 3.3076804 86
8.4338093 -15.090526 -0.30175212 9
6.9749451 -12.485312 3.8320749 57
0.84422517 -1.515528 -0.46483904 1
13.784966 -24.756529 0.49460122 40
0.96290529 -1.7299991 -0.45710054 3
13.785757 -24.778294 1.4860272 33
1.1263107 -2.0244124 -0.45030925 94
13.777851 -24.77426 2.4801037 35
1.3801806 -2.4827533 -0.44990557 4
13.585711 -24.448856 3.4342785 31
1.7745521 -3.1947985 -0.44872296 4
9.8276405 -17.700378 3.206594 9
2.4971709 -4.4976072 -0.45007223 5
8.3847456 -15.107819 3.3586202 1
4.146893 -7.4750376 -0.44799584 6
6.9641881 -12.558557 3.3153286 82
8.4121037 -15.175838 -0.30286905 9
6.9575372 -12.556895 3.8465688 57
0.83892983 -1.5184655 -0.46483904 1
13.713936 -24.832506 0.49515969 35
0.95497704 -1.7299377 -0.45620075 3
13.702079 -24.831511 1.4863414 33
1.1182891 -2.0266128 -0.44992763 93
13.704763 -24.846626 2.4825442 35
1.3734133 -2.4910154 -0.4505313 4
13.488789 -24.475269 3.4313536 31
1.759558 -3.1940186 -0.44774801 4
9.7905684 -17.779564 3.2147286 11
2.4795339 -4.5028062 -0.44972363 5
8.3527842 -15.17483 3.3670156 1
4.1255884 -7.4982166 -0.4485192 6
6.9372125 -12.613525 3.323427 82
8.3822021 -15.247168 -0.30370677 7
6.9359922 -12.621739 3.8589921 53
13.652146 -24.925825 0.49606723 30
0.94986844 -1.73497 -0.45665067 3
13.638328 -24.921238 1.4888535 28
1.111208 -2.030504 -0.44992763 100
13.638027 -24.931021 2.4862046 30
1.3666052 -2.4992609 -0.45115703 4
13.411839 -24.537882 3.4335473 31
1.7464948 -3.1966567 -0.44726053 4
9.7587452 -17.869106 3.2247403 11
2.4695313 -4.5219254 -0.45076951 5
9.5433636 -17.481981 3.8715148 1
4.1013031 -7.5160789 -0.44872853 6
6.9164681 -12.680433 3.3346744 86
8.344243 -15.304424 -0.30426523 7
6.91223 -12.683192 3.8703802 57
13.602279 -25.041857 0.49742848 20
0.94659585 -1.7434127 -0.45800033 3
13.592219 -25.044174 1.4933543 25
1.1003674 -2.0274684 -0.44840118 100
13.57562 -25.024008 2.4907367 25
1.3578727 -2.5040159 -0.45115703 5
13.323269 -24.579309 3.432816 31
1.7419454 -3.2149515 -0.44896671 4
9.7226505 -17.951696 3.2335007 11
2.4470897 -4.5182548 -0.44954932 5
9.5159302 -17.577343 3.885253 3
4.0778947 -7.5356183 -0.44904256 5
6.8925605 -12.742208 3.3445723 89
8.3135958 -15.375674 -0.30510297 7
6.8862853 -12.741234 3.8807328 59
13.574532 -25.2001 0.4996275 15
0.94050461 -1.7467062 -0.45800033 4
13.570974 -25.214579 1.5006814 17
1.1035185 -2.0503137 -0.45259899 100
13.547656 -25.181782 2.5017183 15
1.3444457 -2.5000417 -0.44959271 5
13.23175 -24.615179 3.4313536 34
1.7354105 -3.2297556 -0.45018539 4
9.6879692 -18.037737 3.242887 12
2.4265895 -4.517993 -0.44867775 8
8.256567 -15.379091 3.3929658 1
4.0496764 -7.5462875 -0.4488332 6
6.8747554 -12.815991 3.3576195 82
8.2938919 -15.468045 -0.30635956 8
6.8618474 -12.802653 3.8921211 57
17.486073 -32.734745 0.64779842 8
0.93073022 -1.7431026 -0.45620075 3
17.490969 -32.771439 1.9467931 7
1.0908083 -2.043761 -0.45030925 100
17.470757 -32.747318 3.2472486 10
1.3366402 -2.5064628 -0.44990557 5
13.140142 -24.650705 3.4298911 34
1.7278597 -3.2428012 -0.45116034 4
9.6602335 -18.137697 3.254776 12
2.4126768 -4.529953 -0.44902641 5
8.2139053 -15.428614 3.3975453 2
4.0270629 -7.56743 -0.44925189 5
6.8482804 -12.87432 3.3666174 84
8.268014 -15.54987 -0.30740669 8
6.8388748 -12.867468 3.9045441 53
17.442837 -32.929886 0.65045118 9
0.92190433 -1.7411741 -0.45485103 3
1.0900964 -2.0597026 -0.45298058 98
17.388016 -32.867981 3.253175 20
1.3278831 -2.5111132 -0.44990557 4
13.046595 -24.682384 3.4279413 31
1.7100385 -3.2365265 -0.44945419 4
9.6300716 -18.234188 3.2660391 12
2.4024322 -4.5489178 -0.45007223 5
9.3570061 -17.72464 3.8959384 1
3.9968948 -7.5743756 -0.4488332 6
6.8178453 -12.925726 3.373816 84
8.2379313 -15.624627 -0.3083142 11
6.8227391 -12.945951 3.9211087 57
0.92306769 -1.7581848 -0.45845026 2
1.0765138 -2.0513263 -0.45030925 94
