# .PCD v0.7 - Point Cloud Data file format
VERSION 0.7
FIELDS x y z rgba
SIZE 4 4 4 4
TYPE F F F U
COUNT 1 1 1 1
WIDTH 649
HEIGHT 1
VIEWPOINT 0 0 0 1 0 0 0
POINTS 649
DATA ascii
4.036078 0.37512594 0.64200711 0
4.0235901 0.35980442 0.63981706 0
4.0149813 0.34491083 0.63825274 0
4.0220661 0.33138317 0.63919127 0
4.0172358 0.31757557 0.63825274 0
3.9944298 0.30314735 0.49186471 0
4.0025616 0.3023594 0.63574976 0
4.0271425 0.29149619 0.49576455 0
3.9957118 0.28781727 0.6344983 0
3.9984288 0.27538994 0.49210843 0
3.9966919 0.27387062 0.6344983 0
3.9795573 0.26013714 0.48967105 0
4.0015659 0.26017314 0.63512403 0
3.9685531 0.24550782 0.48820862 0
3.9985065 0.24596179 0.6344983 0
3.9812763 0.23234825 0.48967105 0
3.9894803 0.23142982 0.63293391 0
3.9548478 0.21834014 0.34653121 0
3.9780991 0.21823297 0.4891836 0
3.9863191 0.21728644 0.63230819 0
3.9496167 0.20422789 0.3460083 0
3.9748716 0.20414078 0.48869613 0
3.9909987 0.20357235 0.63293391 0
3.9503055 0.19043887 0.3460083 0
3.9616802 0.18960123 0.48698995 0
3.9877388 0.18945138 0.63230819 0
3.9509463 0.17664751 0.3460083 0
3.9583516 0.17559421 0.48650244 0
3.9883757 0.17553318 0.63230819 0
3.9495482 0.16277385 0.34583399 0
3.9609239 0.16185592 0.48674619 0
3.975148 0.16104926 0.63011813 0
3.9958997 0.16118956 0.77735591 0
3.9377661 0.1492105 0.2065177 0
3.944119 0.14876001 0.34531105 0
3.9654322 0.14817971 0.48723367 0
3.969764 0.14695214 0.62917954 0
3.9905519 0.1470262 0.77621108 0
3.938664 0.13410057 0.3447881 0
3.9560053 0.13399978 0.48601499 0
3.9742007 0.13322738 0.62980521 0
3.9851775 0.1322009 0.7750662 0
3.9307268 0.1214693 0.20609902 0
3.9311426 0.12010684 0.34409088 0
3.9465492 0.11920063 0.48479629 0
3.9825401 0.11959013 0.63105673 0
3.9659908 0.11770952 0.77125001 0
3.9111428 0.10788209 0.2050523 0
3.9315193 0.10707083 0.34409088 0
3.9429538 0.10600496 0.48430881 0
3.9671171 0.10596173 0.62855375 0
3.9781351 0.1048665 0.77353972 0
3.9075024 0.094133615 0.20484295 0
3.9318526 0.094031759 0.34409088 0
3.9432838 0.092929862 0.48430881 0
3.9575889 0.091884851 0.62698942 0
4.0000505 0.092172235 0.7777375 0
3.9098039 0.080535263 0.20494762 0
3.9142292 0.079941146 0.34252208 0
3.9495382 0.079283141 0.48504004 0
3.9578855 0.078068674 0.62698942 0
3.9787567 0.077785708 0.77353972 0
3.8788185 0.06770581 0.067715339 0
3.9140551 0.066954292 0.20515697 0
3.9085083 0.066177085 0.34199914 0
3.9517756 0.065529935 0.48528376 0
3.9541833 0.0641893 0.62636369 0
3.9632998 0.06364543 0.77048677 0
3.8610358 0.053915329 0.067401193 0
3.9082739 0.053208675 0.20484295 0
3.9226608 0.052721698 0.34321931 0
3.9341161 0.051500358 0.48309013 0
3.9543831 0.050385185 0.62636369 0
3.9595716 0.049760148 0.76972359 0
3.8831959 0.040666793 0.067785151 0
3.8944557 0.039425228 0.20411025 0
3.9307899 0.039106973 0.34391654 0
3.9223619 0.037653912 0.48162767 0
3.9505844 0.036543906 0.62573791 0
3.9636474 0.035974827 0.77048677 0
3.8813143 0.027096665 0.067750245 0
3.8885779 0.025790023 0.20379624 0
3.9249258 0.025346074 0.34339362 0
3.9264395 0.023985291 0.48211515 0
3.9408114 0.022699395 0.62417358 0
3.9735651 0.022192666 0.7723949 0
3.8733864 0.013521079 0.067610621 0
3.8946359 0.012237696 0.20411025 0
3.9010816 0.011575256 0.34130189 0
3.9324546 0.010293856 0.48284638 0
3.9369161 0.0089332452 0.62354785 0
3.9618387 0.0082964748 0.77010518 0
3.8534131 -0 0.067261577 0
3.8926578 -0.0013587939 0.20400558 0
3.9030907 -0.0020436537 0.3414762 0
3.9265113 -0.0034265281 0.48211515 0
3.936923 -0.0048098615 0.62354785 0
3.9461374 -0.0055098506 0.76705217 0
3.9313941 -0.0075477436 -0.068622865 0
3.8493905 -0.013436961 0.067191765 0
3.8986211 -0.014969704 0.2043196 0
3.9050519 -0.015675966 0.34165049 0
3.9066246 -0.017045973 0.47967777 0
3.9408331 -0.018570876 0.62417358 0
3.9382412 -0.019246031 0.7655257 0
3.8413589 -0.020783955 -0.067052148 0
3.859318 -0.026943559 0.067366287 0
3.8765757 -0.028417293 0.2031682 0
3.906966 -0.029321998 0.34182483 0
3.9065413 -0.03068253 0.47967777 0
3.9367938 -0.03229443 0.62354785 0
3.9420767 -0.033025835 0.766289 0
3.8252659 -0.034050278 -0.066772908 0
3.8751974 -0.040582448 0.067645527 0
3.8744631 -0.041251063 0.20306353 0
3.9048474 -0.04293777 0.34165049 0
3.9143503 -0.044408802 0.48065275 0
3.9248135 -0.0452126 0.62167066 0
3.9517524 -0.046902549 0.768197 0
3.8131347 -0.046588548 -0.06656348 0
3.8590453 -0.053212278 0.067366287 0
3.868304 -0.054690503 0.20274951 0
3.884752 -0.056279358 0.33990738 0
3.922121 -0.057505418 0.48162767 0
3.9127805 -0.058734585 0.61979342 0
3.9496126 -0.059976965 0.76781541 0
3.8129489 -0.059898581 -0.06656348 0
3.8428411 -0.066406131 0.067087047 0
3.8700867 -0.068228282 0.20285419 0
3.8925123 -0.069303215 0.34060463 0
3.9099879 -0.07097964 0.48016527 0
3.9204521 -0.072538547 0.62104493 0
3.933676 -0.073470026 0.76476252 0
3.9727621 -0.075587302 0.91735035 0
3.8127165 -0.0732079 -0.06656348 0
3.8385873 -0.07973668 0.067017242 0
3.8718219 -0.08177916 0.20295887 0
3.8902547 -0.082847781 0.34043032 0
3.8978083 -0.084369868 0.47870281 0
3.9260993 -0.086353354 0.62198347 0
3.9275074 -0.087070137 0.76361769 0
3.9627333 -0.089235015 0.91510093 0
3.8144372 -0.086561687 -0.066598386 0
3.8402848 -0.093183875 0.067052148 0
3.8515463 -0.09480238 0.20191215 0
3.8879502 -0.096377425 0.34025604 0
3.8994749 -0.098025128 0.47894657 0
3.9178751 -0.099856146 0.62073201 0
3.9311044 -0.10087989 0.76438087 0
3.9585011 -0.10296564 0.91420108 0
3.8121126 -0.099823691 -0.06656348 0
3.8479316 -0.10681035 0.067191765 0
3.851192 -0.10824622 0.20191215 0
3.8855982 -0.10989199 0.34008169 0
3.8911717 -0.11140899 0.47797161 0
3.903681 -0.11313092 0.61854196 0
3.9385781 -0.11483025 0.76590741 0
3.9600654 -0.11684022 0.91465092 0
3.7977493 -0.11271457 -0.066319145 0
3.8455367 -0.12017903 0.067156859 0
3.8527868 -0.12175181 0.20201682 0
3.8632855 -0.12275853 0.33816427 0
3.9006791 -0.12530971 0.47919029 0
3.9032621 -0.12675662 0.61854196 0
3.9244175 -0.12812929 0.76323599 0
3.9557383 -0.13053419 0.91375118 0
3.7893384 -0.1257053 -0.066179529 0
3.825109 -0.13290733 0.066807814 0
3.8483462 -0.13505971 0.20180747 0
3.8688071 -0.13645387 0.33868721 0
3.8942668 -0.13871288 0.47845906 0
3.902796 -0.14038077 0.61854196 0
3.9121747 -0.14140181 0.76094633 0
3.9611008 -0.1445547 0.91510093 0
3.7928729 -0.13907833 -0.066249333 0
3.8226235 -0.14618224 0.066772908 0
3.8478515 -0.14849213 0.20180747 0
3.8663166 -0.1498805 0.3385129 0
3.8759065 -0.15160728 0.47626543 0
3.9101775 -0.1543148 0.61979342 0
3.9116573 -0.15505698 0.76094633 0
3.9566777 -0.15822491 0.91420108 0
3.804353 -0.15279859 -0.066458762 0
3.8280838 -0.15977494 0.066877626 0
3.8413231 -0.16167074 0.20149344 0
3.879704 -0.16396444 0.33973309 0
3.8713872 -0.16496678 0.47577798 0
3.901721 -0.16762379 0.61854196 0
3.9110923 -0.16871028 0.76094633 0
3.9444196 -0.17152736 0.91150165 0
3.8017988 -0.16599011 -0.066423863 0
3.8195121 -0.17277502 0.066738002 0
3.836745 -0.17489658 0.20128411 0
3.8751276 -0.177324 0.33938447 0
3.8826857 -0.179028 0.47724038 0
3.8853261 -0.18050891 0.61603898 0
3.9144015 -0.1825444 0.76170951 0
3.9437971 -0.18529491 0.91150165 0
3.7832186 -0.17841206 -0.066109717 0
3.820883 -0.1862039 0.066772908 0
3.8361111 -0.18828827 0.20128411 0
3.850605 -0.18967335 0.3372927 0
3.8820369 -0.19258003 0.47724038 0
3.8846724 -0.19407013 0.61603898 0
3.9058976 -0.19581391 0.7601831 0
3.9333951 -0.19856893 0.90925217 0
3.7825727 -0.19161688 -0.066109717 0
3.816216 -0.19933154 0.066703096 0
3.8414142 -0.20199227 0.20159812 0
3.8479302 -0.20300835 0.33711842 0
3.8773766 -0.20591915 0.47675291 0
3.8839715 -0.207629 0.61603898 0
3.8973482 -0.20902626 0.75865656 0
3.9443533 -0.21292812 0.9119516 0
3.7798843 -0.20471121 -0.066074811 0
3.8075106 -0.21220626 0.06656348 0
3.8347032 -0.21506457 0.20128411 0
3.859133 -0.21711038 0.33816427 0
3.8568149 -0.2183305 0.47431552 0
3.887167 -0.22140998 0.61666471 0
3.8887548 -0.22218134 0.75713015 0
3.9358039 -0.2262478 0.9101519 0
3.7871323 -0.21836466 -0.066214427 0
3.8127351 -0.2258504 0.06666819 0
3.8200128 -0.22695057 0.20055141 0
3.8503966 -0.23010452 0.33746704 0
3.856029 -0.23179197 0.47431552 0
3.8824682 -0.23406132 0.61603898 0
3.8997135 -0.23646726 0.75941986 0
3.9213743 -0.23915456 0.90700263 0
3.7764075 -0.23031341 -0.066039905 0
3.8099692 -0.23836777 0.066633284 0
3.8092308 -0.23965646 0.20002805 0
3.8436048 -0.2431661 0.3369441 0
3.8592017 -0.24482912 0.474803 0
3.8737419 -0.24710922 0.61478752 0
3.9028265 -0.2496485 0.7601831 0
3.9225047 -0.25228205 0.90745258 0
3.7695937 -0.24310802 -0.065935194 0
3.797142 -0.25087464 0.066423863 0
3.8163867 -0.2528151 0.20044672 0
3.8268731 -0.25485152 0.33554959 0
3.8583233 -0.25829875 0.474803 0
3.8650172 -0.25942448 0.61353606 0
3.8960547 -0.26287389 0.75903821 0
3.9274325 -0.26636821 0.90880221 0
3.7627814 -0.25520119 -0.065830477 0
3.7883096 -0.26291123 0.066284239 0
3.825443 -0.26683012 0.20097008 0
3.8219855 -0.26792955 0.335201 0
3.8574457 -0.27109203 0.474803 0
3.8680289 -0.27319267 0.61416179 0
3.8834114 -0.27496022 0.7567485 0
3.9245839 -0.27925226 0.90835232 0
3.7678516 -0.26876101 -0.065935194 0
3.78338 -0.27584246 0.066214427 0
3.8185124 -0.27974397 0.20065607 0
3.8290238 -0.28118593 0.33589822 0
3.836679 -0.28309461 0.47236562 0
3.8749321 -0.28727713 0.61541325 0
3.8785124 -0.28822324 0.75598526 0
3.915812 -0.29236954 0.90655273 0
3.7648964 -0.28176236 -0.065900289 0
3.7883759 -0.28950438 0.066319145 0
3.8055644 -0.2921541 0.20002805 0
3.8260326 -0.29439718 0.33572391 0
3.833688 -0.29633239 0.47212186 0
3.8699667 -0.30049559 0.61478752 0
3.8833547 -0.30221701 0.75713015 0
3.9147675 -0.3060365 0.90655273 0
3.7579093 -0.29443404 -0.065795571 0
3.9327345 -0.30882227 1.057017 0
3.7973087 -0.30352312 0.066493668 0
3.7826219 -0.30367807 0.19887665 0
3.8229957 -0.30759093 0.33554959 0
3.8425238 -0.31051213 0.47334057 0
3.8610184 -0.31336325 0.61353606 0
3.8783624 -0.31545231 0.75636691 0
3.9059064 -0.31906509 0.90475315 0
3.7468934 -0.30673397 -0.065621048 0
3.9239309 -0.3219164 1.0549464 0
3.7842696 -0.31577867 0.066284239 0
3.8054223 -0.31888139 0.20013271 0
3.817872 -0.32126671 0.335201 0
3.8493285 -0.3245903 0.47431552 0
3.853996 -0.3263388 0.61259741 0
3.8810928 -0.32999775 0.75713015 0
3.9124773 -0.33404195 0.90655273 0
3.7438073 -0.31964114 -0.065586142 0
3.9131591 -0.33478808 1.0523583 0
3.7731259 -0.32877865 0.066109717 0
3.7943375 -0.33129418 0.19960935 0
3.8087883 -0.33389562 0.33450374 0
3.8441584 -0.33834854 0.47382805 0
3.8488979 -0.3394427 0.61197168 0
3.8603611 -0.34181172 0.75331396 0
3.899641 -0.34666163 0.9038533 0
3.7426689 -0.33270749 -0.065586142 0
3.9042699 -0.34775993 1.0502877 0
3.7620573 -0.340388 0.065935194 0
3.7931578 -0.3445369 0.19960935 0
3.8115678 -0.34755063 0.33485237 0
3.8272004 -0.34964955 0.47187814 0
3.8496568 -0.35305622 0.6122846 0
3.8611615 -0.35479093 0.75369561 0
3.9062316 -0.36030734 0.90565288 0
3.753432 -0.34687391 -0.065795571 0
3.9184215 -0.36281121 1.0544289 0
3.764828 -0.35389221 0.066004999 0
3.7820523 -0.35617724 0.199086 0
3.8222954 -0.36131328 0.33589822 0
3.8259566 -0.36300686 0.47187814 0
3.848465 -0.3658202 0.6122846 0
3.8598995 -0.3682667 0.75369561 0
3.8855517 -0.37208283 0.90115386 0
3.9692354 -0.38009641 -0.069600195 0
3.9171968 -0.37580314 1.0544289 0
3.7696044 -0.36695611 0.066109717 0
3.780786 -0.36937693 0.199086 0
3.801182 -0.37270916 0.33415511 0
3.8286827 -0.37608027 0.47236562 0
3.8353696 -0.37808883 0.61040735 0
3.8703794 -0.38222221 0.75598526 0
3.888175 -0.38535014 0.90205371 0
3.910094 -0.38890085 1.052876 0
3.7663112 -0.3799116 0.066074811 0
3.7794735 -0.38257205 0.199086 0
3.7959609 -0.38491029 0.33380648 0
3.8312964 -0.38984451 0.47285309 0
3.830096 -0.39107317 0.60978162 0
3.8572345 -0.39520466 0.75369561 0
3.8906837 -0.39931798 0.90295357 0
3.9048691 -0.40215138 1.0518407 0
3.7509716 -0.39225736 0.065830477 0
3.7820184 -0.39683878 0.19929534 0
3.7905617 -0.39840409 0.33345786 0
3.8219452 -0.40305153 0.47187814 0
3.8325655 -0.40552428 0.61040735 0
3.8459988 -0.40830323 0.75178748 0
3.8988829 -0.41460568 0.90520304 0
3.8937643 -0.415436 1.0492525 0
3.7355921 -0.40449584 0.065586142 0
3.776639 -0.40960741 0.199086 0
3.7811532 -0.41143242 0.3327606 0
3.8086021 -0.41576442 0.47041571 0
3.8350539 -0.41932935 0.61103308 0
3.8445501 -0.42172575 0.75178748 0
3.8896635 -0.42736152 0.90340346 0
3.8999712 -0.42987186 1.0513231 0
3.7521162 -0.41887808 0.065900289 0
3.763351 -0.42079729 0.19845797 0
3.793628 -0.42552352 0.3339808 0
3.7953665 -0.42706016 0.46895328 0
3.8297167 -0.43160212 0.61040735 0
3.8509336 -0.43535459 0.75331396 0
3.8746703 -0.43872303 0.90025413 0
3.9100416 -0.44411039 1.0544289 0
3.7487199 -0.43108976 0.065865383 0
3.7559068 -0.43324465 0.19814396 0
3.7862582 -0.43741533 0.33345786 0
3.8018172 -0.44055766 0.46992823 0
3.8164136 -0.44359922 0.6085301 0
3.8571906 -0.4497036 0.75484043 0
3.8692441 -0.4517934 0.89935428 0
3.9007921 -0.45685735 1.0523583 0
3.7451291 -0.44459087 0.065830477 0
3.7562766 -0.44724399 0.19824862 0
3.7727594 -0.44987431 0.332412 0
3.8100319 -0.4556677 0.47114691 0
3.8147619 -0.45758411 0.6085301 0
3.8477194 -0.46289989 0.75331396 0
3.8772361 -0.4671374 0.90160388 0
3.8856661 -0.46952915 1.0487348 0
3.7295802 -0.45661345 0.065586142 0
3.7605593 -0.46173865 0.19856264 0
3.7671301 -0.46321282 0.33206338 0
3.8043959 -0.46914318 0.47065943 0
3.8169806 -0.47204775 0.60915589 0
3.8304105 -0.47506624 0.75026101 0
3.8774316 -0.48158523 0.90205371 0
3.8762512 -0.48281261 1.0466642 0
3.7278814 -0.47027999 0.065586142 0
3.7568605 -0.47526801 0.19845797 0
3.771337 -0.47776815 0.33258632 0
3.7829585 -0.48058218 0.46822205 0
3.8211031 -0.48678344 0.61009449 0
3.8208539 -0.48810712 0.74873453 0
3.8756404 -0.49579352 0.90205371 0
3.8897851 -0.498983 1.0508054 0
3.7263856 -0.48198909 0.065586142 0
3.747426 -0.48604062 0.19803928 0
3.7717929 -0.48987031 0.3327606 0
3.7794614 -0.49220791 0.46797833 0
3.819555 -0.49878538 0.61009449 0
3.8271756 -0.50045985 0.75026101 0
3.8605385 -0.50619322 0.89890444 0
3.8843675 -0.51069701 1.0497701 0
3.7306275 -0.49578395 0.06569086 0
3.7377877 -0.49806339 0.1976206 0
3.7720351 -0.50329691 0.33293492 0
3.7836232 -0.50618738 0.46870953 0
3.8021278 -0.51001406 0.60759157 0
3.8331888 -0.51486158 0.75178748 0
3.858748 -0.5196659 0.89890444 0
3.8787317 -0.52373576 1.0487348 0
3.7268925 -0.50853294 0.065655954 0
3.7420518 -0.51126665 0.1979346 0
3.7603855 -0.5151087 0.33206338 0
3.7916663 -0.52074212 0.46992823 0
3.7984586 -0.52235049 0.60727865 0
3.8235884 -0.52716619 0.75026101 0
3.85498 -0.53286552 0.89845449 0
3.8635783 -0.53474122 1.0451113 0
3.7093425 -0.51867354 0.065376714 0
3.7422225 -0.52460307 0.19803928 0
3.7585642 -0.5282318 0.33206338 0
3.7840214 -0.53248304 0.46919701 0
3.8005242 -0.5361582 0.60790437 0
3.8082116 -0.53792065 0.74758971 0
3.8724868 -0.54837853 0.90295357 0
3.8578634 -0.54768145 1.0440761 0
3.7055299 -0.53133458 0.065341808 0
3.7423453 -0.53794676 0.19814396 0
3.7587645 -0.54097658 0.33223769 0
3.7782102 -0.54512155 0.46870953 0
3.8064499 -0.55055237 0.60915589 0
3.8043678 -0.55092913 0.74720806 0
3.8570492 -0.55993289 0.89980417 0
3.8693099 -0.56309193 1.0476996 0
3.7016742 -0.54397529 0.065306902 0
3.7187095 -0.54780495 0.19699256 0
3.7587273 -0.55504054 0.332412 0
3.7684295 -0.5571453 0.46773461 0
3.8005965 -0.56325674 0.6085301 0
3.810091 -0.56602317 0.74873453 0
3.8395512 -0.57176971 0.89620501 0
3.8673208 -0.57659489 1.0476996 0
3.7115197 -0.55932689 0.065516338 0
3.7187495 -0.56108028 0.19709724 0
3.7488868 -0.56696582 0.33171475 0
3.7643993 -0.570656 0.46749085 0
3.7868893 -0.57474154 0.60665292 0
3.8158555 -0.58050042 0.75026101 0
3.8356054 -0.58487487 0.89575505 0
3.861465 -0.5895077 1.0466642 0
3.7076681 -0.57132715 0.065481432 0
3.7286115 -0.57588685 0.19772527 0
3.7429471 -0.57943887 0.33136615 0
3.7683713 -0.58404815 0.46822205 0
3.7770522 -0.58674377 0.60540146 0
3.8100295 -0.59254771 0.74949777 0
3.8317194 -0.59729087 0.89530522 0
3.855566 -0.60238671 1.0456289 0
3.7266812 -0.58824831 0.19772527 0
3.739037 -0.5915364 0.33119181 0
3.7623885 -0.59657699 0.46773461 0
3.7867911 -0.60112387 0.60727865 0
3.8040602 -0.60522658 0.74873453 0
3.8430822 -0.61281049 0.89845449 0
3.8421013 -0.61334175 1.0425231 0
3.7206619 -0.60061669 0.19751592 0
3.7408829 -0.60522085 0.33154044 0
3.7525511 -0.60778064 0.46675962 0
3.7846699 -0.61433864 0.60727865 0
3.7904053 -0.61594856 0.74644482 0
3.8333354 -0.62429833 0.8966549 0
3.8475635 -0.62799418 1.0445937 0
3.7047484 -0.61132431 0.19678321 0
3.7368898 -0.61729807 0.33136615 0
3.7464898 -0.6202274 0.46627215 0
3.7805538 -0.62722254 0.60696578 0
3.7921054 -0.6298191 0.74720806 0
3.8195989 -0.63575554 0.89395547 0
3.8491585 -0.64205652 1.0456289 0
3.7006221 -0.6239205 0.19667853 0
3.7346025 -0.63099033 0.33136615 0
3.7521312 -0.63462538 0.4672471 0
3.770551 -0.63909483 0.60571432 0
3.8052559 -0.64634371 0.75026101 0
3.8210852 -0.65040481 0.89485526 0
3.846894 -0.65548879 1.0456289 0
3.7120883 -0.63985461 0.19741124 0
3.7205968 -0.64198995 0.33032027 0
3.7497799 -0.64837343 0.4672471 0
3.7623441 -0.65189862 0.60477573 0
3.7913704 -0.65760952 0.7479713 0
3.8226316 -0.6644063 0.89575505 0
3.83495 -0.66792655 1.0430408 0
3.7137663 -0.65350062 0.1976206 0
3.7202954 -0.65531892 0.33049458 0
3.7474937 -0.66145867 0.4672471 0
3.7600458 -0.66502762 0.60477573 0
3.7813189 -0.66947085 0.74644482 0
3.8279643 -0.67910743 0.8975547 0
3.8249872 -0.67995656 1.0409703 0
3.7017496 -0.66404903 0.19709724 0
3.7219071 -0.66900611 0.33084321 0
3.7334404 -0.67242461 0.46578467 0
3.7655954 -0.67889458 0.60602719 0
3.778959 -0.682666 0.74644482 0
3.8236527 -0.69211829 0.8971048 0
3.8322155 -0.694359 1.0435584 0
3.6895859 -0.67516893 0.19657388 0
3.7215085 -0.6823532 0.33101749 0
3.7311897 -0.68480146 0.46578467 0
3.7632029 -0.6920349 0.60602719 0
3.7747438 -0.69483829 0.74606317 0
3.8079219 -0.70231992 0.89395547 0
3.8316686 -0.70808274 1.0440761 0
3.6852429 -0.68767744 0.1964692 0
3.7133501 -0.69359303 0.33049458 0
3.7365816 -0.69928217 0.46675962 0
3.7452321 -0.70225435 0.60352427 0
3.7800136 -0.70945907 0.74758971 0
3.8054469 -0.71560776 0.89395547 0
3.823478 -0.72038043 1.0425231 0
3.6887064 -0.70165688 0.19678321 0
3.7050347 -0.70543283 0.32997164 0
3.7380176 -0.71306497 0.4672471 0
3.7466385 -0.71606505 0.60415 0
3.7813706 -0.72338718 0.74835294 0
3.8086677 -0.72998738 0.89530522 0
3.8152485 -0.73262954 1.0409703 0
3.6883199 -0.71426493 0.19688788 0
3.7005937 -0.71798205 0.32979733 0
3.7316084 -0.72535121 0.46675962 0
3.7481213 -0.72923994 0.60477573 0
3.7634068 -0.73357731 0.74529999 0
3.8060961 -0.74327773 0.89530522 0
3.812798 -0.74527735 1.0409703 0
3.6838453 -0.7267487 0.19678321 0
3.7000196 -0.73128152 0.32997164 0
3.7155514 -0.73502505 0.46505347 0
3.7494285 -0.74308687 0.60540146 0
3.7571018 -0.74528915 0.74453676 0
3.8112559 -0.75741446 0.8971048 0
3.8139622 -0.75933623 1.0420054 0
3.6695368 -0.73724282 0.19615518 0
3.703434 -0.74472558 0.33049458 0
3.7129631 -0.74799025 0.46505347 0
3.7448752 -0.7557795 0.60508859 0
3.756402 -0.75878811 0.74491841 0
3.7971284 -0.76839447 0.89440536 0
3.8188624 -0.77418035 1.0440761 0
3.6669412 -0.75004739 0.19615518 0
3.7026312 -0.75869423 0.33066887 0
3.7161632 -0.7621429 0.46578467 0
3.7325399 -0.76685929 0.60352427 0
3.7612872 -0.77413398 0.74644482 0
3.7866523 -0.78073239 0.89260578 0
3.8123524 -0.78672493 1.0430408 0
3.6641674 -0.76348239 0.19615518 0
3.6863074 -0.76876688 0.3294487 0
3.7172313 -0.77657002 0.46627215 0
3.7277703 -0.78012991 0.60321134 0
3.7643268 -0.7884661 0.74758971 0
3.7953475 -0.79634655 0.89530522 0
3.8018813 -0.7991032 1.0409703 0
3.6692955 -0.77792501 0.19657388 0
3.6737204 -0.78020328 0.32857716 0
3.7144978 -0.78954089 0.46627215 0
3.7250245 -0.79313743 0.60321134 0
3.7460511 -0.79898155 0.74453676 0
3.7981205 -0.81147337 0.8966549 0
3.7952902 -0.81156141 1.039935 0
3.6829367 -0.79426086 0.32962301 0
3.6963363 -0.79850096 0.46432224 0
3.7300966 -0.80715692 0.6044628 0
3.7320099 -0.80825269 0.74224705 0
3.7936478 -0.82298839 0.89620501 0
3.6859806 -0.80839235 0.33014596 0
3.6896486 -0.81054676 0.46383476 0
3.7253273 -0.81974792 0.60415 0
3.7387521 -0.82338625 0.74415511 0
3.7717223 -0.83202773 0.89170599 0
3.6773019 -0.81995296 0.32962301 0
3.6945465 -0.82515192 0.46480972 0
3.7128043 -0.83059049 0.60258561 0
3.753098 -0.84029239 0.74758971 0
3.7630901 -0.84390908 0.89035624 0
3.6627591 -0.83014184 0.32857716 0
3.6993871 -0.83980113 0.46578467 0
3.7098825 -0.84354556 0.60258561 0
3.7424846 -0.85164553 0.74606317 0
3.7715216 -0.85963809 0.89305568 0
3.6598392 -0.84292215 0.32857716 0
3.6944988 -0.85226297 0.46554092 0
3.7146139 -0.85826904 0.60383707 0
3.7280123 -0.86205018 0.74377352 0
3.7741933 -0.87411696 0.89440536 0
3.6626942 -0.85705411 0.32910007 0
3.6818376 -0.86288923 0.46432224 0
3.7154417 -0.87213308 0.6044628 0
3.7249804 -0.87505811 0.74377352 0
3.7673252 -0.88639343 0.89350557 0
3.6654954 -0.87121624 0.32962301 0
3.6807344 -0.87619579 0.46456599 0
3.7085314 -0.88418084 0.60383707 0
3.7257226 -0.88896674 0.74453676 0
3.7679989 -0.90044427 0.89440536 0
3.6604953 -0.88353842 0.3294487 0
3.6776536 -0.88903862 0.46456599 0
3.6939034 -0.89433175 0.60195988 0
3.726413 -0.90289116 0.74529999 0
3.6496482 -0.89441359 0.32875144 0
3.6783836 -0.90281689 0.46505347 0
3.6945956 -0.90816343 0.60258561 0
3.7194257 -0.91495526 0.74453676 0
3.6387703 -0.90522385 0.32805422 0
3.6752095 -0.91565138 0.46505347 0
3.7009859 -0.92344558 0.60415 0
3.7047803 -0.92507923 0.74224705 0
3.6491106 -0.92133415 0.32927439 0
3.6623683 -0.92604154 0.46383476 0
3.7017336 -0.93668258 0.60477573 0
3.709141 -0.93993473 0.74377352 0
3.6458721 -0.93406624 0.32927439 0
3.6592772 -0.93818134 0.46383476 0
3.6984413 -0.94959831 0.60477573 0
3.7060037 -0.95222956 0.74377352 0
3.6427546 -0.94615132 0.32927439 0
3.665586 -0.9534474 0.46505347 0
3.6798112 -0.95851904 0.60227275 0
3.7083569 -0.96664578 0.74491841 0
3.6278701 -0.95581561 0.32822853 0
3.6622357 -0.96623695 0.46505347 0
3.6802626 -0.97236729 0.60289848 0
3.6245117 -0.96847332 0.32822853 0
3.660758 -0.97952765 0.46529719 0
3.6768458 -0.98520786 0.60289848 0
3.6230319 -0.9816404 0.32840282 0
3.6439059 -0.98866147 0.46359101 0
3.6714785 -0.99751866 0.60258561 0
3.6234255 -0.99533665 0.32875144 0
3.6423464 -1.0019016 0.46383476 0
3.6681504 -1.0096881 0.60258561 0
3.6370919 -1.0134418 0.46359101 0
3.664782 -1.0218467 0.60258561 0
3.6470842 -1.0292712 0.46529719 0
3.6516881 -1.0319469 0.60102129 0
3.6413789 -1.0420855 0.46505347 0
3.6649716 -1.0502216 0.60383707 0
3.626096 -1.0521059 0.46359101 0
3.6185925 -1.0636373 0.46310353 0
3.6262732 -1.0796609 0.46456599 0
3.6243827 -1.0928853 0.46480972 0
3.6205459 -1.10553 0.46480972 0
3.6016867 -1.1128421 0.46285981 0
3.6015697 -1.1265928 0.46334729 0
