# .PCD v0.7 - Point Cloud Data file format
VERSION 0.7
FIELDS x y z rgba
SIZE 4 4 4 4
TYPE F F F U
COUNT 1 1 1 1
WIDTH 687
HEIGHT 1
VIEWPOINT 0 0 0 1 0 0 0
POINTS 687
DATA ascii
3.609365 -0.18979047 0.70255876 0
3.6332116 -0.19231617 0.83996725 0
3.580848 -0.19769286 0.31376067 0
3.6013589 -0.20008619 0.44287321 0
3.6422465 -0.20554629 0.84221673 0
3.6086392 -0.21186458 0.44384819 0
3.588932 -0.21196465 0.56942153 0
3.6217458 -0.21453699 0.70523006 0
3.6279657 -0.21617632 0.83906746 0
3.5348175 -0.21681796 0.06181642 0
3.5643239 -0.21987669 0.1871534 0
3.5635111 -0.22107522 0.31236616 0
3.5860837 -0.22310391 0.44116706 0
3.5980277 -0.22510782 0.57098585 0
3.6013412 -0.22657716 0.70141387 0
3.6407628 -0.2303333 0.84221673 0
3.5260172 -0.22925331 0.061676804 0
3.5595081 -0.23267856 0.18694405 0
3.5666938 -0.23377348 0.31271479 0
3.5812805 -0.23598504 0.44067958 0
3.6050627 -0.23881602 0.57223737 0
3.5946515 -0.23875649 0.70026904 0
3.6341035 -0.24265105 0.84086704 0
3.5291853 -0.24183337 0.061746612 0
3.5487115 -0.24441598 0.18642069 0
3.5718188 -0.24663386 0.31323773 0
3.5843954 -0.24875945 0.44116706 0
3.6042073 -0.25139859 0.57223737 0
3.6016302 -0.25185052 0.70179552 0
3.6215706 -0.25451529 0.83816761 0
3.5402868 -0.25501308 0.061956044 0
3.5399132 -0.25560722 0.186002 0
3.5689492 -0.25895616 0.31306344 0
3.5874648 -0.2615585 0.44165453 0
3.5954731 -0.26277325 0.57098585 0
3.6046448 -0.26470855 0.70255876 0
3.6187167 -0.26701197 0.83771771 0
3.5414159 -0.266902 0.06199095 0
3.5449739 -0.26841465 0.18631603 0
3.560077 -0.27080804 0.31236616 0
3.5905368 -0.27375537 0.44214204 0
3.5905948 -0.27502048 0.57036012 0
3.6076622 -0.27696109 0.70332199 0
3.6255832 -0.27960998 0.8395173 0
3.5265079 -0.2781615 0.061746612 0
3.5500376 -0.28064093 0.18663004 0
3.5611455 -0.28276992 0.3125405 0
3.5856016 -0.28597134 0.44165453 0
3.5936012 -0.28724056 0.57098585 0
3.5831902 -0.28766721 0.69874257 0
3.6265275 -0.29242057 0.83996725 0
3.5195873 -0.28936276 0.061641898 0
3.5510266 -0.29319546 0.18673471 0
3.5581512 -0.29503426 0.31236616 0
3.5767205 -0.29720253 0.44067958 0
3.6004508 -0.30043989 0.57223737 0
3.593955 -0.30052951 0.70103228 0
3.6255381 -0.30444491 0.83996725 0
3.5285177 -0.30250067 0.06181642 0
3.5400321 -0.30473262 0.18621135 0
3.5650935 -0.30751681 0.31306344 0
3.5717058 -0.30934325 0.4401921 0
3.6033161 -0.31334826 0.5728631 0
3.5928841 -0.31307292 0.70103228 0
3.6166878 -0.31641915 0.83816761 0
3.5254486 -0.3146379 0.061781518 0
3.5369575 -0.31690955 0.18610668 0
3.5639424 -0.32058147 0.31306344 0
3.5804896 -0.3226999 0.44141081 0
3.5844944 -0.32432225 0.57004726 0
3.5995333 -0.32694975 0.70255876 0
3.6135633 -0.32949594 0.83771771 0
3.5302451 -0.32811239 0.061886236 0
3.5417385 -0.33042765 0.18642069 0
3.5568504 -0.33246371 0.3125405 0
3.5871885 -0.33656257 0.44238573 0
3.5813148 -0.33727267 0.56973439 0
3.5983698 -0.33951247 0.70255876 0
3.6240311 -0.34320998 0.84041709 0
3.5211163 -0.33966517 0.061746612 0
3.550503 -0.34375092 0.18694405 0
3.5477355 -0.34410802 0.31184325 0
3.5820403 -0.34869751 0.44189829 0
3.5840478 -0.35015589 0.57036012 0
3.5815318 -0.35054114 0.69950581 0
3.6286294 -0.35642964 0.84176683 0
3.5199091 -0.35195413 0.061746612 0
3.5473564 -0.35532385 0.18683939 0
3.5544426 -0.35728687 0.3125405 0
3.5689509 -0.36000368 0.44043583 0
3.5907285 -0.3628335 0.57161164 0
3.5841925 -0.363437 0.70026904 0
3.6234856 -0.36869922 0.84086704 0
3.5187228 -0.36362463 0.061746612 0
3.5381482 -0.3668803 0.18642069 0
3.5630822 -0.37072298 0.31341204 0
3.55984 -0.37101367 0.4394609 0
3.5855107 -0.37495434 0.57098585 0
3.5907784 -0.37613878 0.70179552 0
3.6164291 -0.38010201 0.8395173 0
3.523397 -0.37654251 0.06185133 0
3.5328739 -0.37880263 0.18621135 0
3.5618334 -0.38253653 0.31341204 0
3.5743124 -0.38513893 0.44141081 0
3.5802519 -0.38704321 0.57036012 0
3.5972505 -0.389516 0.70332199 0
3.6131427 -0.39251289 0.83906746 0
3.5260367 -0.38927802 0.061921138 0
3.5414557 -0.39223164 0.18673471 0
3.5466144 -0.39342964 0.31219187 0
3.5749192 -0.39783278 0.44165453 0
3.5788791 -0.39953828 0.57036012 0
3.5958691 -0.40207037 0.70332199 0
3.6136873 -0.40533993 0.8395173 0
3.5147221 -0.40045199 0.061746612 0
3.5480025 -0.40549842 0.1871534 0
3.5452197 -0.40580723 0.31219187 0
3.5715368 -0.41008273 0.44141081 0
3.5794253 -0.41225442 0.57067299 0
3.582742 -0.41327006 0.70103228 0
3.6161218 -0.41839957 0.84041709 0
3.5133028 -0.41271821 0.061746612 0
3.5406148 -0.41717964 0.18683939 0
3.5516961 -0.41911387 0.3128891 0
3.5641694 -0.42184725 0.44067958 0
3.5858109 -0.42567793 0.57192445 0
3.5812774 -0.42577365 0.70103228 0
3.6185095 -0.43148112 0.84131694 0
3.5138259 -0.42521966 0.061781518 0
3.5312064 -0.42857364 0.18642069 0
3.5521896 -0.43174946 0.31306344 0
3.5587342 -0.4338055 0.4401921 0
3.5784206 -0.437473 0.57098585 0
3.5797694 -0.43827206 0.70103228 0
3.605376 -0.44268453 0.8386175 0
3.5162888 -0.43797693 0.06185133 0
3.5257249 -0.44040212 0.18621135 0
3.5565917 -0.44488811 0.31358635 0
3.5670466 -0.44746059 0.44141081 0
3.570992 -0.44922176 0.57004726 0
3.5938005 -0.45272812 0.70408523 0
3.6076756 -0.45575535 0.8395173 0
3.5187056 -0.45075658 0.061921138 0
3.536052 -0.45423338 0.18683939 0
3.5392082 -0.45526668 0.31219187 0
3.5753069 -0.46117896 0.44262949 0
3.5654838 -0.46117726 0.56942153 0
3.5883043 -0.4647657 0.70332199 0
3.6137927 -0.46934968 0.84131694 0
3.5052154 -0.46147037 0.06171171 0
3.5384049 -0.46709648 0.18704872 0
3.5375974 -0.46761805 0.31219187 0
3.5697393 -0.47313461 0.44214204 0
3.5736434 -0.47492146 0.57098585 0
3.5710912 -0.47521663 0.70026904 0
3.6159956 -0.48247683 0.84221673 0
3.503583 -0.47370303 0.06171171 0
3.5347741 -0.47917664 0.18694405 0
3.5438406 -0.48103568 0.3128891 0
3.5562642 -0.48398629 0.44067958 0
3.5797925 -0.4884612 0.57223737 0
3.5694106 -0.48767912 0.70026904 0
3.6142895 -0.49509609 0.84221673 0
3.5038888 -0.48620474 0.061746612 0
3.5212104 -0.48986113 0.18631603 0
3.5520067 -0.49477744 0.31376067 0
3.5545533 -0.49639702 0.44067958 0
3.5819786 -0.5015018 0.5728631 0
3.5754638 -0.50122601 0.70179552 0
3.5990307 -0.5058108 0.83906746 0
3.5141361 -0.4995099 0.061956044 0
3.5175893 -0.50125343 0.18621135 0
3.5464017 -0.50599068 0.31341204 0
3.5607476 -0.50930589 0.44165453 0
3.5685635 -0.51169503 0.57098585 0
3.5776684 -0.51363784 0.70255876 0
3.5992625 -0.51802039 0.8395173 0
3.5044558 -0.51062024 0.06181642 0
3.5256996 -0.51497239 0.18673471 0
3.5347569 -0.51692539 0.3125405 0
3.5648408 -0.52259594 0.44238573 0
3.5706646 -0.52472293 0.57161164 0
3.5894504 -0.52812362 0.70523006 0
3.6089997 -0.53228706 0.84221673 0
3.4986966 -0.52225941 0.061746612 0
3.5317817 -0.52845848 0.1871534 0
3.5349009 -0.52955598 0.31271479 0
3.5669208 -0.53562593 0.44287321 0
3.5727177 -0.5377717 0.57223737 0
3.5681715 -0.53772432 0.70141387 0
3.6109734 -0.54546374 0.84311652 0
3.5008056 -0.53507322 0.06181642 0
3.5259671 -0.5401786 0.18694405 0
3.5350006 -0.54219401 0.3128891 0
3.5454092 -0.54505724 0.44043583 0
3.5786281 -0.55144292 0.57348883 0
3.5643327 -0.54987693 0.70103228 0
3.6051958 -0.55746949 0.84221673 0
3.5087953 -0.54883522 0.06199095 0
3.5162635 -0.55063212 0.18652536 0
3.5429277 -0.5560748 0.31376067 0
3.5513289 -0.55866361 0.44141081 0
3.5728772 -0.56269246 0.5728631 0
3.5701482 -0.56353992 0.70255876 0
3.6032276 -0.5700506 0.84221673 0
3.4990571 -0.55920547 0.06185133 0
3.5103757 -0.56227106 0.18631603 0
3.5389979 -0.56812274 0.31358635 0
3.5494568 -0.57043719 0.44141081 0
3.5611401 -0.57359004 0.57129872 0
3.577951 -0.57693851 0.70446682 0
3.5916989 -0.58044171 0.83996725 0
3.5049782 -0.57270592 0.06199095 0
3.5202179 -0.5764578 0.18694405 0
3.5311961 -0.57888836 0.31306344 0
3.5572381 -0.58443278 0.44262949 0
3.5591161 -0.58601725 0.57129872 0
3.5778525 -0.58974367 0.70484847 0
3.5954189 -0.5939284 0.84131694 0
3.4950678 -0.58361965 0.06185133 0
3.5260637 -0.59006065 0.18736275 0
3.5270855 -0.59149742 0.3128891 0
3.5571339 -0.59717494 0.44287321 0
3.5609448 -0.59909284 0.57192445 0
3.5640512 -0.60089481 0.70255876 0
3.6009037 -0.60840088 0.84311652 0
3.4889631 -0.59575266 0.061781518 0
3.520045 -0.60169232 0.1871534 0
3.5269632 -0.60414201 0.31306344 0
3.5431826 -0.60819346 0.44141081 0
3.5666194 -0.61285734 0.57317597 0
3.554193 -0.61199939 0.70103228 0
3.5988665 -0.6203385 0.84311652 0
3.4928784 -0.60834855 0.061886236 0
3.5121276 -0.61233276 0.18683939 0
3.5347536 -0.61754906 0.31393498 0
3.5411463 -0.61993974 0.44141081 0
3.5665128 -0.62502223 0.57348883 0
3.5637457 -0.62581956 0.70332199 0
3.5852737 -0.63024497 0.84041709 0
3.4967487 -0.62097692 0.06199095 0
3.5099688 -0.62458867 0.18683939 0
3.5326865 -0.62926728 0.31393498 0
3.5390708 -0.63167924 0.44141081 0
3.5506978 -0.63503343 0.57129872 0
3.5771112 -0.64040166 0.70637494 0
3.5868883 -0.6434443 0.84131694 0
3.5043981 -0.63496172 0.062165473 0
3.5116973 -0.63755047 0.18704872 0
3.5265479 -0.64088237 0.31358635 0
3.5524683 -0.64687395 0.44336072 0
3.5484595 -0.64742386 0.57129872 0
3.5748541 -0.65288424 0.70637494 0
3.592288 -0.65736407 0.84311652 0
3.4923284 -0.64537352 0.06199095 0
3.5212338 -0.65198648 0.18767676 0
3.5203712 -0.65246218 0.31323773 0
3.5501885 -0.65927035 0.44336072 0
3.5500622 -0.66052902 0.57192445 0
3.5532525 -0.66176426 0.70255876 0
3.5899713 -0.66989946 0.84311652 0
3.4802284 -0.65570891 0.06181642 0
3.5150115 -0.66353291 0.18746741 0
3.5219877 -0.66548651 0.31358635 0
3.5381136 -0.66981262 0.44214204 0
3.5593796 -0.67512566 0.5738017 0
3.5547786 -0.67489576 0.70332199 0
3.5952687 -0.68388337 0.84491616 0
3.4897013 -0.67011583 0.062025853 0
3.5049462 -0.6736775 0.18704872 0
3.5274689 -0.67928338 0.31428361 0
3.5299065 -0.68103075 0.44141081 0
3.5532422 -0.68617624 0.57317597 0
3.5601113 -0.68879187 0.70484847 0
3.5813808 -0.69420403 0.84221673 0
3.491385 -0.68245155 0.062095661 0
3.5006132 -0.68552417 0.18694405 0
3.5289867 -0.69235957 0.31463224 0
3.5412638 -0.69541013 0.44311696 0
3.5430725 -0.69704992 0.57192445 0
3.569365 -0.70286965 0.70713818 0
3.5790594 -0.70607656 0.84221673 0
3.4929042 -0.69541556 0.062165473 0
3.5060337 -0.69930196 0.18736275 0
3.5110404 -0.70093787 0.31323773 0
3.5543871 -0.71088177 0.44506687 0
3.5386808 -0.7090252 0.57161164 0
3.5629151 -0.71517462 0.70637494 0
3.5823042 -0.71971697 0.84356648 0
3.4805331 -0.70622474 0.06199095 0
3.5073614 -0.71294326 0.18757208 0
3.5143049 -0.71499342 0.31376067 0
3.5361969 -0.72073287 0.44311696 0
3.5515418 -0.72515178 0.57411456 0
3.5525765 -0.72665489 0.70484847 0
3.5930064 -0.73557788 0.84671575 0
3.4818377 -0.71978652 0.062060758 0
3.5048513 -0.72518188 0.18757208 0
3.519465 -0.72948676 0.31445792 0
3.5257571 -0.73207462 0.44214204 0
3.5586588 -0.73955417 0.57567888 0
3.5500183 -0.73905122 0.70484847 0
3.5846937 -0.74692285 0.84536606 0
3.4833455 -0.73215133 0.062130567 0
3.492655 -0.73474467 0.18704872 0
3.5306733 -0.74402952 0.31567809 0
3.5233099 -0.74376243 0.44214204 0
3.5542545 -0.75094277 0.57536602 0
3.559072 -0.75325847 0.70713818 0
3.5764775 -0.75759453 0.84401631 0
3.4945874 -0.7466231 0.062374901 0
3.4939752 -0.74776781 0.18725806 0
3.5281866 -0.75573361 0.31567809 0
3.5324697 -0.75794077 0.44360444 0
3.547749 -0.76251465 0.57474029 0
3.5642321 -0.7667082 0.70866466 0
3.5700014 -0.76925313 0.84311652 0
3.4860976 -0.75754303 0.062270187 0
3.4971981 -0.76123381 0.18757208 0
3.5118999 -0.76507598 0.31445792 0
3.5298026 -0.77026671 0.44360444 0
3.5334868 -0.77236307 0.5728631 0
3.5615339 -0.77914506 0.70866466 0
3.5806193 -0.78463 0.84626585 0
3.4736688 -0.76754999 0.062095661 0
3.5042703 -0.77559471 0.18809544 0
3.5053174 -0.77646828 0.3141093 0
3.5348442 -0.78430337 0.44457942 0
3.5365541 -0.7859782 0.5738017 0
3.5511267 -0.78986728 0.70713818 0
3.5816629 -0.79797155 0.8471657 0
3.4690177 -0.7792325 0.062060758 0
3.4976444 -0.78694534 0.1878861 0
3.5123043 -0.79088777 0.31498083 0
3.5204661 -0.79401696 0.44311696 0
3.5453498 -0.8009299 0.57567888 0
3.5445182 -0.80139232 0.70637494 0
3.5807562 -0.81089932 0.84761554 0
3.4760242 -0.79356217 0.062235285 0
3.4870884 -0.79736888 0.18746741 0
3.5153487 -0.80447662 0.31550378 0
3.5215428 -0.80718786 0.44360444 0
3.5463834 -0.81418473 0.57630467 0
3.5531797 -0.81639791 0.70866466 0
3.5722065 -0.82208246 0.84626585 0
3.4790769 -0.80704653 0.062339999 0
3.4881747 -0.81044018 0.18767676 0
3.5123765 -0.81735557 0.31550378 0
3.5187037 -0.81947541 0.44360444 0
3.5377486 -0.82521284 0.57536602 0
3.553987 -0.83030874 0.70942789 0
3.563477 -0.83383775 0.84491616 0
3.4722028 -0.81887454 0.062270187 0
3.4930995 -0.82444638 0.18809544 0
3.4998074 -0.82731938 0.31463224 0
3.5272667 -0.83511066 0.44506687 0
3.531002 -0.8366459 0.57474029 0
3.5510671 -0.84270936 0.70942789 0
3.5701723 -0.84790158 0.8471657 0
3.4714129 -0.83084977 0.062305093 0
3.5000579 -0.83835149 0.18861879 0
3.4970446 -0.83892065 0.31463224 0
3.5225477 -0.84633911 0.44482315 0
3.5320497 -0.8492741 0.57536602 0
3.5406184 -0.852642 0.70790142 0
3.5787079 -0.86247545 0.84986508 0
3.4628091 -0.84094101 0.062200375 0
3.4951699 -0.85009199 0.18851414 0
3.5116661 -0.85475338 0.31620103 0
3.5177934 -0.85754555 0.44457942 0
3.5367396 -0.86347216 0.57661748 0
3.5377717 -0.86437839 0.70790142 0
3.5775685 -0.8754254 0.85031497 0
3.4695601 -0.85541683 0.062374901 0
3.4766688 -0.85845697 0.18767676 0
3.506727 -0.86652827 0.31602672 0
3.5186324 -0.87077343 0.44506687 0
3.5298691 -0.87486196 0.57599175 0
3.5423546 -0.8786127 0.70942789 0
3.5669258 -0.88602895 0.84851533 0
3.470433 -0.86849362 0.062444709 0
3.4775257 -0.87155861 0.1878861 0
3.5133436 -0.88118726 0.31689829 0
3.5194221 -0.88401765 0.44555435 0
3.5267937 -0.88717818 0.57599175 0
3.5468814 -0.89288962 0.71095431 0
3.5619216 -0.89799803 0.8480655 0
3.4712565 -0.88158691 0.062514521 0
3.4783335 -0.88467675 0.18809544 0
3.4928689 -0.88902271 0.31532949 0
3.5278563 -0.89923924 0.44701681 0
3.5236754 -0.89948356 0.57599175 0
3.5437431 -0.90526509 0.71095431 0
3.5682051 -0.91284084 0.85031497 0
3.4604123 -0.89170235 0.062374901 0
3.4945631 -0.90180361 0.18914215 0
3.4916732 -0.90170777 0.31550378 0
3.5208523 -0.91055435 0.44652933 0
3.5281632 -0.91375911 0.57724321 0
3.5367606 -0.91664445 0.71019113 0
3.5687692 -0.92626983 0.85121477 0
3.4572785 -0.90377611 0.062374901 0
3.4817331 -0.91146731 0.18861879 0
3.5058508 -0.91843474 0.3170726 0
3.5138121 -0.92183137 0.44604182 0
3.5364153 -0.92908067 0.57912046 0
3.5335395 -0.9289844 0.71019113 0
3.5692835 -0.9397139 0.85211456 0
3.4657001 -0.91891372 0.062584333 0
3.4611573 -0.91900241 0.18767676 0
3.5161023 -0.93424845 0.31829277 0
3.5105727 -0.93409121 0.44604182 0
3.5255156 -0.93938506 0.577869 0
3.5359662 -0.94283062 0.71133596 0
3.5565674 -0.94965369 0.84986508 0
3.4701958 -0.93308258 0.06272395 0
3.4714279 -0.93471348 0.18840946 0
3.501277 -0.94340605 0.31724688 0
3.5187902 -0.94944251 0.44750425 0
3.5184009 -0.95065522 0.57724321 0
3.5440247 -0.9582423 0.71362567 0
3.553231 -0.96206254 0.84986508 0
3.4707763 -0.94624227 0.062793761 0
3.4702363 -0.94674575 0.18851414 0
3.4806652 -0.95089638 0.31567809 0
3.5173693 -0.96224332 0.44774801 0
3.5209451 -0.96388203 0.57818186 0
3.5368712 -0.96956921 0.71286243 0
3.5611265 -0.97755504 0.85256451 0
3.4541268 -0.9540199 0.062549427 0
3.4803851 -0.96258008 0.18924683 0
3.4850049 -0.9651674 0.31637534 0
3.516072 -0.97443211 0.44799173 0
3.5251729 -0.97827947 0.57943332 0
3.531745 -0.98076731 0.71248084 0
3.5728853 -0.99353546 0.85616374 0
3.4411471 -0.96337569 0.062374901 0
3.4770041 -0.9747231 0.18924683 0
3.4913769 -0.97940952 0.31724688 0
3.5011828 -0.98347867 0.44652933 0
3.5331459 -0.99378794 0.58131051 0
3.5226307 -0.9914937 0.71133596 0
3.5618925 -1.0038866 0.8543641 0
3.4550774 -0.98029411 0.062689044 0
3.4735804 -0.98685408 0.18924683 0
3.5030944 -0.99656081 0.31864139 0
3.4939096 -0.99460703 0.44604182 0
3.5220568 -1.0039489 0.58005905 0
3.534076 -1.0087088 0.71438891 0
3.5581894 -1.0169348 0.8543641 0
3.4572268 -0.99460953 0.062793761 0
3.4643567 -0.99731565 0.18893282 0
3.4938512 -1.0071273 0.31811845 0
3.5054984 -1.0118102 0.44799173 0
3.5109398 -1.0140444 0.57880759 0
3.5343051 -1.0221298 0.71515214 0
3.5471306 -1.0271808 0.85256451 0
3.4558289 -1.0066279 0.06282866 0
3.4723585 -1.0127578 0.18956086 0
3.4788399 -1.0159658 0.3170726 0
3.5097456 -1.0256566 0.44896671 0
3.5130663 -1.027958 0.57974619 0
3.5346644 -1.0349476 0.71591538 0
3.5455749 -1.0394861 0.85301441 0
3.4407864 -1.0152893 0.062619232 0
3.4783792 -1.0277019 0.19008422 0
3.4754515 -1.0274965 0.3170726 0
3.5099509 -1.0390285 0.44945419 0
3.5151384 -1.0418988 0.58068478 0
3.5235014 -1.0450468 0.71438891 0
3.5624738 -1.0579587 0.85796332 0
3.4429693 -1.0290115 0.06272395 0
3.4766841 -1.04041 0.19018888 0
3.4794781 -1.041908 0.31776983 0
3.4948938 -1.0478536 0.44799173 0
3.5228317 -1.0575705 0.58256203 0
3.5198321 -1.0573397 0.71438891 0
3.558759 -1.0703876 0.85796332 0
3.4412706 -1.0416028 0.062758856 0
3.4634738 -1.0496432 0.18966553 0
3.49298 -1.059251 0.31933865 0
3.4931145 -1.0606234 0.44823548 0
3.5172288 -1.0692863 0.58224916 0
3.523633 -1.0719053 0.71591538 0
3.5512726 -1.0816679 0.85706353 0
3.449085 -1.0571246 0.062968284 0
3.4578798 -1.0611407 0.18956086 0
3.4873567 -1.0708524 0.31916434 0
3.498878 -1.075727 0.44945419 0
3.5059233 -1.0792326 0.58099771 0
3.5311275 -1.0876659 0.71820509 0
3.53444 -1.0900373 0.8539142 0
3.4511037 -1.0709357 0.063072994 0
3.4675057 -1.0773528 0.19029355 0
3.4664743 -1.0776956 0.31759554 0
3.5064743 -1.0914737 0.45091662 0
3.5021346 -1.091464 0.58099771 0
3.5216866 -1.098232 0.71706021 0
3.5510755 -1.108757 0.85886312 0
3.4244511 -1.075784 0.062654138 0
3.4713449 -1.0918469 0.19071224 0
3.4759946 -1.0939763 0.31881571 0
3.5045362 -1.1043036 0.45116034 0
3.5096061 -1.1072481 0.58287489 0
3.5197039 -1.1111094 0.71744186 0
3.5490417 -1.1217332 0.85931301 0
3.4359205 -1.0925788 0.062933378 0
3.4638987 -1.1021413 0.1905029 0
3.4835451 -1.1097316 0.31986156 0
3.4817476 -1.110498 0.44872296 0
3.5096791 -1.1200813 0.58350062 0
3.5120637 -1.1221935 0.71667862 0
3.5471585 -1.1340895 0.85976297 0
3.439893 -1.1064159 0.063072994 0
3.4602246 -1.113622 0.1905029 0
3.4893277 -1.1243324 0.32073313 0
3.4818244 -1.1232566 0.44921044 0
3.5097053 -1.1329274 0.58412635 0
3.5176637 -1.1368524 0.71858674 0
3.532253 -1.1422485 0.85706353 0
3.4476147 -1.1215286 0.063282423 0
3.4525182 -1.1244565 0.19029355 0
3.48558 -1.1358974 0.32073313 0
3.4969523 -1.1409539 0.45164782 0
3.4982181 -1.1427182 0.58287489 0
3.5213387 -1.1509509 0.72011316 0
3.5282443 -1.1545713 0.85706353 0
3.4512763 -1.136057 0.063422047 0
3.4599535 -1.1402521 0.19092159 0
3.4588876 -1.1405702 0.31864139 0
3.5004883 -1.1556429 0.45262277 0
3.4942081 -1.1549221 0.58287489 0
3.5247552 -1.1657013 0.72163963 0
3.5334425 -1.1699429 0.85931301 0
3.4340091 -1.1436744 0.063177712 0
3.4673204 -1.1561131 0.19154961 0
3.4737852 -1.1589423 0.3203845 0
3.496433 -1.1678548 0.45262277 0
3.497649 -1.1696182 0.58412635 0
3.5169415 -1.1767521 0.7208764 0
3.5496633 -1.1890786 0.86426198 0
3.4281013 -1.1550157 0.063142806 0
3.4727263 -1.171401 0.19207297 0
3.4772701 -1.1736097 0.32108176 0
3.4848127 -1.1775106 0.45164782 0
3.5122569 -1.1881502 0.58725506 0
3.509093 -1.1877624 0.72011316 0
3.545491 -1.201462 0.86426198 0
3.435405 -1.1708455 0.063352235 0
3.4516039 -1.1777114 0.19113094 0
3.4844651 -1.1896029 0.32212761 0
3.4788029 -1.1890258 0.45140409 0
3.5062189 -1.1997634 0.5869422 0
3.506783 -1.2006402 0.72049481 0
3.5357451 -1.211935 0.86291224 0
3.4331877 -1.1834821 0.063387141 0
3.4474719 -1.1897526 0.19113094 0
3.4821746 -1.2024089 0.32230192 0
3.4821358 -1.2037561 0.45237905 0
3.4889426 -1.2074727 0.58475208 0
3.5174122 -1.2180132 0.72354776 0
3.5296519 -1.2236315 0.86246234 0
3.438477 -1.1987503 0.063561663 0
3.4489551 -1.2037537 0.19144495 0
3.4817181 -1.2158704 0.32265055 0
3.4929037 -1.2211448 0.45432895 0
3.4958935 -1.2235595 0.58662933 0
3.5075803 -1.228337 0.72240293 0
3.534554 -1.2391684 0.86471182 0
3.4286139 -1.208751 0.063456953 0
3.454149 -1.2191089 0.19196831 0
3.4549086 -1.2200551 0.32055882 0
3.4886198 -1.2333297 0.45432895 0
3.4953253 -1.2370732 0.58725506 0
3.5051217 -1.2412287 0.72278452 0
3.537554 -1.2541034 0.86651146 0
3.4206064 -1.2193686 0.063387141 0
3.4557309 -1.2325697 0.19228233 0
3.4618869 -1.2361276 0.32160467 0
3.4730778 -1.2414907 0.45286649 0
3.500504 -1.2519834 0.58881938 0
3.497071 -1.2521325 0.72202128 0
3.533155 -1.2664441 0.86651146 0
3.4315948 -1.2361268 0.063666381 0
3.4401345 -1.2405597 0.19165429 0
3.4725428 -1.2536166 0.32299918 0
3.4764102 -1.2556986 0.45384148 0
3.4998274 -1.2655382 0.58944511 0
3.5039766 -1.26773 0.72431099 0
3.5216064 -1.275499 0.86471182 0
3.4310169 -1.2494663 0.063736185 0
3.4339063 -1.2518762 0.19154961 0
3.4590077 -1.2617112 0.32212761 0
3.4794643 -1.2705493 0.45481643 0
3.4879675 -1.2750344 0.58819366 0
3.5069051 -1.2826511 0.72583747 0
3.520793 -1.2891239 0.86561167 0
3.4303877 -1.2628167 0.063805997 0
3.4426343 -1.2686896 0.19228233 0
3.4545827 -1.2737778 0.32212761 0
3.4824572 -1.285437 0.45579138 0
3.4853485 -1.2878866 0.58850652 0
3.5024064 -1.2948844 0.72583747 0
3.5308919 -1.3068172 0.86921084 0
3.4184623 -1.271994 0.063666381 0
3.4437993 -1.2827905 0.19259633 0
3.4482486 -1.285133 0.32195333 0
3.4816687 -1.2989727 0.45627886 0
3.4900844 -1.3035007 0.59007084 0
3.4941869 -1.305728 0.72507423 0
3.5281341 -1.3198172 0.86966079 0
3.4140015 -1.2839189 0.063666381 0
3.4430392 -1.2962111 0.19280569 0
3.453064 -1.3006734 0.32282487 0
3.4659686 -1.306916 0.45481643 0
3.4947534 -1.3191634 0.59163523 0
3.4951177 -1.3199978 0.72621906 0
3.5307968 -1.3348811 0.87146038 0
3.4207141 -1.3000907 0.063875809 0
3.4478273 -1.3117729 0.19332905 0
3.4615369 -1.3176806 0.32404503 0
3.4669504 -1.3211269 0.45554763 0
3.493819 -1.3327625 0.59226096 0
3.5014939 -1.3363903 0.72850877 0
3.5188344 -1.3444158 0.86966079 0
3.4273558 -1.3163249 0.064085238 0
3.4376345 -1.3216498 0.19301502 0
3.4550567 -1.3290402 0.32387072 0
3.4678752 -1.3353609 0.45627886 0
3.478086 -1.340687 0.59038377 0
3.4968078 -1.3486047 0.72850877 0
3.5177557 -1.3580942 0.87056059 0
3.4246044 -1.3290042 0.064120144 0
3.4385855 -1.3358111 0.19332905 0
3.4615388 -1.3454233 0.3249166 0
3.4779928 -1.3532163 0.45822877 0
3.4770663 -1.3542535 0.5910095 0
3.4993963 -1.3636539 0.73003525 0
3.5166245 -1.3717816 0.87146038 0
3.4218061 -1.3416802 0.064155042 0
3.4431973 -1.3514544 0.19385241 0
3.4531124 -1.3560416 0.32456797 0
3.4677057 -1.3631697 0.45749757 0
3.4833472 -1.3707224 0.59288669 0
3.4909613 -1.3744224 0.72927201 0
3.5245061 -1.3890505 0.87460971 0
3.4096653 -1.3506703 0.064015426 0
3.4477422 -1.3671463 0.19437577 0
3.4520617 -1.3695564 0.3249166 0
3.461081 -1.3745332 0.45725381 0
3.4822125 -1.3843329 0.59351242 0
3.4861424 -1.3865997 0.72927201 0
3.5214462 -1.4020655 0.8750596 0
3.4123561 -1.3655359 0.064155042 0
3.4336786 -1.3754594 0.19385241 0
3.4602058 -1.3867865 0.32613677 0
3.4636314 -1.3895627 0.45822877 0
3.4883578 -1.4008964 0.59538966 0
3.4922111 -1.4031519 0.73156172 0
3.5165308 -1.4143493 0.8750596 0
3.4131305 -1.3796872 0.06425976 0
3.4288564 -1.3874367 0.19385241 0
3.4627311 -1.401847 0.32683402 0
3.4716382 -1.4068636 0.45993495 0
3.476124 -1.4100944 0.59413815 0
3.4945686 -1.4182868 0.7330882 0
3.4971287 -1.4207478 0.87146038 0
3.4212527 -1.3968841 0.064504094 0
3.4332368 -1.4031754 0.19437577 0
3.4430633 -1.4078928 0.32543954 0
3.4722176 -1.4212292 0.46066615 0
3.4711809 -1.4222196 0.59413815 0
3.4950461 -1.4327103 0.73423308 0
3.5119796 -1.4410839 0.87640929 0
3.3941722 -1.3996698 0.064085238 0
3.4377964 -1.4183614 0.19489913 0
3.4399693 -1.4206634 0.32561383 0
3.4745734 -1.4363744 0.4616411 0
3.4719217 -1.4359876 0.5950768 0
3.4024348 -1.4162968 0.064329572 0
3.4309804 -1.4295846 0.19479445 0
3.4405057 -1.4349632 0.32613677 0
3.4642951 -1.4455951 0.46090987 0
3.3993137 -1.4289398 0.064364478 0
3.4149239 -1.4369047 0.19416642 0
3.3998272 -1.443141 0.064469188 0
3.4117255 -1.4495971 0.19427109 0
