# .PCD v0.7 - Point Cloud Data file format
VERSION 0.7
FIELDS x y z intensity
SIZE 4 4 4 4
TYPE F F F F
COUNT 1 1 1 1
WIDTH 1333
HEIGHT 1
VIEWPOINT 0 0 0 1 0 0 0
POINTS 1333
DATA ascii
-1.4062243 1.2994449 0.16751333 64
-1.0502081 0.97080231 -0.22651713 12
-1.4239414 1.3167385 0.23813272 33
-1.4895272 1.3773867 -0.24910097 9
-1.3746908 1.2716409 0.29659978 31
-1.5091436 1.3965037 -0.17988946 45
-1.3571689 1.2563119 0.35948417 12
-1.5079468 1.3963737 -0.10770741 30
-1.4141207 1.3094898 0.44495317 3
-1.3555074 1.2556528 -0.032252047 63
-1.742909 1.6150814 0.63669485 8
-1.2554542 1.1662319 -0.45914501 7
-1.4033384 1.3040626 0.033438813 19
-1.4415776 1.3400648 -0.45440111 5
-1.4072531 1.3081574 0.1006944 91
-1.6907369 1.5722297 -0.44878277 69
-1.3989897 1.3013871 0.16716471 53
-1.0383064 0.96620548 -0.22463992 27
-1.4166609 1.3187481 0.23764524 23
-1.0650384 0.99142814 -0.17866047 12
-1.3776944 1.2829236 0.29816413 22
-1.5088778 1.4055748 -0.1804124 36
-1.3616132 1.2688364 0.36177388 8
-1.4974643 1.3959192 -0.10728873 29
-1.5893773 1.4815995 0.50164086 4
-1.3513359 1.2601409 -0.032252047 54
-1.7389562 1.6221701 0.63721251 10
-1.254993 1.1752236 -0.46069792 7
-1.3805801 1.2932799 0.033019952 27
-1.4432962 1.3525039 -0.45665067 5
-1.4063622 1.3178933 0.10100841 100
-1.0255435 0.96136653 -0.27323848 1
-1.4126481 1.3247094 0.16943076 55
-1.0228939 0.95955384 -0.22213697 31
-1.4214886 1.333933 0.23935141 32
-1.0478505 0.98365283 -0.17646682 28
-1.3854953 1.3006115 0.30097994 19
-1.487247 1.3966177 -0.17849496 32
-1.369387 1.2863896 0.36520842 7
-1.4918483 1.4019195 -0.10728873 29
-1.7563818 1.6510832 0.55652893 7
-1.3360676 1.2559679 -0.032007713 47
-1.7296159 1.626491 0.63617724 11
-1.2382338 1.1676683 -0.45603919 7
-1.3559159 1.2786438 0.032531288 36
-1.4430556 1.3612942 -0.45800033 5
-1.4061111 1.3269067 0.10132242 100
-0.99933952 0.94337738 -0.26713261 2
-1.4123607 1.3337365 0.16995369 94
-1.011089 0.95480305 -0.22025976 32
-1.4026271 1.3250079 0.23691402 34
-1.0503541 0.99257576 -0.17744178 46
-1.4067857 1.3298659 0.30661157 37
-1.4461724 1.367577 -0.17413718 16
-1.3736724 1.2990172 0.36749816 5
-1.4248023 1.3478388 -0.10278783 18
-1.7593893 1.6649352 0.5592283 8
-1.3244144 1.2537504 -0.03183319 49
-1.7211219 1.6298622 0.63514197 11
-1.2301517 1.167778 -0.45448625 7
-1.3340437 1.2668451 0.032112427 47
-1.4340565 1.3622967 -0.45665067 5
-1.401471 1.3318065 0.10132242 95
-0.99193615 0.94262886 -0.26598775 9
-1.4050424 1.3356671 0.16960508 100
-1.0077499 0.95832664 -0.22025976 30
-1.3994318 1.3312637 0.23715776 36
-1.0368166 0.98665714 -0.17573561 52
-1.4049965 1.3374926 0.30723733 43
-1.389448 1.3231528 -0.16786195 15
-1.3719733 1.3065119 0.36826137 4
-1.3752587 1.3100989 -0.099542998 32
-1.7606207 1.6777885 0.56147784 9
-1.3258197 1.2638847 -0.031972811 42
-1.7098302 1.6305268 0.63307142 12
-1.2426174 1.1883013 -0.46069792 7
-1.3209418 1.2632021 0.031902999 54
-1.4067621 1.3457406 -0.44945222 6
-1.3968136 1.3366905 0.10132242 71
-0.98847437 0.94625849 -0.26598775 12
-1.3986984 1.33943 0.16943076 100
-0.99852502 0.95654756 -0.21900828 30
-1.3818749 1.3237816 0.23496412 35
-1.031933 0.98889685 -0.17549187 58
-1.3974675 1.3396544 0.30661157 39
-1.0641406 1.0204737 -0.12899049 9
-1.5683551 1.5045241 0.42245111 4
-1.3445085 1.2902385 -0.097658902 29
-1.7530537 1.6828809 0.56102794 6
-1.3314976 1.2781991 -0.032217141 38
-1.7124887 1.644514 0.63617724 12
-1.2370706 1.1912912 -0.46018028 7
-1.3177434 1.2694221 0.031937905 58
-1.3779651 1.3278998 -0.44180387 18
-1.3748809 1.3249277 0.10006636 52
-0.98375201 0.9483403 -0.26560614 18
-1.3997512 1.3498362 0.17012802 93
-0.99517971 0.96002758 -0.21900828 31
-1.374157 1.3260807 0.23447664 35
-1.0211607 0.98577881 -0.17427318 65
-1.3927827 1.3445245 0.30661157 37
-1.0620049 1.0255663 -0.12916481 21
-1.728299 1.6695821 0.46710047 9
-1.3356884 1.29076 -0.09734489 27
-1.724751 1.6673188 0.55382949 6
-1.3169636 1.2731102 -0.031972811 36
-1.7109039 1.6545105 0.63773018 10
-1.2342914 1.1969471 -0.46069792 7
-1.3178333 1.2779614 0.032042619 70
-1.3623644 1.3216066 -0.43820465 23
-1.3616481 1.321373 0.099438325 40
-0.97480094 0.94629854 -0.26407966 28
-1.3893135 1.349162 0.16943076 48
-0.99482518 0.96607453 -0.21963401 31
-1.3811426 1.3416958 0.23642655 37
-1.0107681 0.98224241 -0.17305449 66
-1.3852478 1.3466245 0.30598584 28
-1.0427065 1.0139879 -0.12724738 35
-1.7326051 1.6848851 0.46977177 9
-1.3256741 1.2896115 -0.096926205 27
-1.7080396 1.6621566 0.55023026 9
-1.3010485 1.2665405 -0.03169357 34
-1.7051184 1.6604722 0.63773018 7
-1.2220211 1.1929368 -0.4575921 7
-1.3076415 1.2769653 0.031902999 72
-1.347985 1.3168219 -0.43505535 8
-1.3586874 1.3272769 0.099542998 38
-0.96182865 0.93992096 -0.26140836 31
-1.3691598 1.3384414 0.16751333 67
-0.99144655 0.96954143 -0.21963401 31
-1.387803 1.357614 0.23837645 40
-1.0101708 0.98854148 -0.17354195 68
-1.6066685 1.5722673 0.35604486 4
-1.0307957 1.0090775 -0.12620151 43
-1.7323244 1.6964169 0.47129822 15
-1.3183107 1.2914357 -0.096716851 27
-1.7091864 1.6749283 0.5524798 14
-1.2996978 1.2736472 -0.031763379 34
-1.6927049 1.6593556 0.63514197 8
-1.2123389 1.1917779 -0.45552155 7
-1.2948436 1.2728834 0.03169357 72
-0.97262442 0.95646238 -0.31493148 4
-1.3284174 1.3067999 0.097658902 42
-0.9641391 0.94878083 -0.2629348 33
-1.3573804 1.3362236 0.16664177 68
-0.98541099 0.97005194 -0.21900828 31
-1.3818789 1.3608159 0.23813272 35
-1.0125437 0.9974584 -0.17451692 72
-1.7629756 1.737317 0.39202482 6
-1.0187541 1.0042771 -0.12515564 55
-1.7141062 1.6897479 0.46786368 12
-1.1391027 1.1233076 -0.08384221 7
-1.7119465 1.6887984 0.55517924 15
-1.2952442 1.2781761 -0.031763379 42
-1.6841526 1.6625398 0.6341067 10
-1.2097533 1.1971506 -0.45603919 7
-1.2847081 1.2717679 0.03155395 72
-0.94712448 0.9379124 -0.30773303 9
-1.3153342 1.3029954 0.097030871 57
-0.95680332 0.94782788 -0.26178995 36
-1.3529418 1.3407176 0.16664177 54
-0.97921288 0.97070467 -0.21838254 30
-1.371482 1.3600402 0.23715776 54
-1.0062374 0.99819052 -0.17402944 68
-1.7695203 1.755983 0.39484066 8
-1.0180702 1.0106344 -0.12550427 56
-1.7095909 1.6971042 0.46824533 9
-1.0529772 1.0456513 -0.077771239 27
-1.7046589 1.6933903 0.55472928 13
-1.2907746 1.2826896 -0.031763379 19
-1.6838191 1.6738569 0.63617724 11
-1.2080939 1.204304 -0.45707443 7
-1.2845098 1.28048 0.031658668 78
-0.93418562 0.9315806 -0.30458373 16
-1.3022941 1.2991153 0.096402846 88
-0.94915384 0.94716799 -0.26064509 38
-1.3451984 1.3428525 0.16629316 56
-0.9812398 0.97987014 -0.21963401 30
-1.3582988 1.3564029 0.23569533 37
-0.99853349 0.99748832 -0.17329822 81
-1.7591881 1.7579602 0.39390203 8
-1.0173544 1.0169992 -0.1258529 56
-1.7005825 1.7005821 0.46748206 7
-1.0307811 1.0311409 -0.076410502 39
-1.7025733 1.7037621 0.55607903 9
-1.0488205 1.0495527 -0.025899371 19
-1.6888887 1.6906579 0.64031839 9
-1.2011557 1.2057768 -0.45603919 7
-1.2769858 1.2823455 0.031588856 63
-0.92939031 0.93361694 -0.30413383 21
-1.2904794 1.2968014 0.09587948 87
-0.94307214 0.94769216 -0.25988188 39
-1.3362871 1.3433024 0.16577022 52
-0.98199213 0.98749155 -0.22057262 27
-1.3561168 1.3641882 0.23618281 54
-0.99766928 1.0039576 -0.1737857 75
-1.7471644 1.7587905 0.39265057 7
-1.0137982 1.0205443 -0.1258529 58
-1.7070864 1.7190458 0.47091663 8
-1.0229543 1.0304805 -0.07609649 48
-1.7007338 1.7138447 0.55742872 12
-1.0224336 1.0306753 -0.025340894 40
-1.6976439 1.7119257 0.64601237 8
-1.1860707 1.1989747 -0.45189807 7
-1.1937612 1.2071704 0.029634187 13
-0.92886543 0.93962741 -0.30503362 28
-1.2873487 1.3027189 0.095984153 77
-0.93423843 0.94539267 -0.25835541 39
-1.3301902 1.346541 0.1655959 57
-0.98409086 0.99653572 -0.22182411 22
-1.3485575 1.3660882 0.23569533 57
-0.99694759 1.0102596 -0.17427318 78
-1.7479506 1.77191 0.39421493 8
-0.99903595 1.0127299 -0.1244584 65
-1.6983184 1.7221985 0.47015342 8
-1.0221554 1.0368894 -0.076305829 65
-1.7002121 1.725323 0.5592283 14
-1.0090063 1.024266 -0.025096562 58
-1.6794583 1.7054528 0.64135361 8
-1.1683401 1.1893264 -0.44672167 5
-1.0312151 1.0501047 0.025689943 32
-0.92421472 0.94147342 -0.30458373 32
-1.2886182 1.3126818 0.096402846 65
-0.93093288 0.9486478 -0.25835541 38
-1.3129245 1.3383754 0.16402711 42
-0.97645706 0.99573362 -0.22088549 21
-1.3368328 1.3636991 0.23447664 59
-0.9989723 1.019405 -0.17524813 81
-1.7462127 1.7819293 0.39515349 8
-0.99270618 1.0133643 -0.12410977 78
-1.6895494 1.7253102 0.46939012 8
-1.0143381 1.0361696 -0.075991817 61
-1.7023571 1.7396041 0.56192774 15
-1.0111985 1.0333233 -0.02523618 76
-1.6778468 1.7151555 0.64290655 7
-0.94564444 0.96937609 -0.36286432 3
-1.016556 1.0420673 0.025410704 46
-0.90884268 0.9319765 -0.30053461 34
-1.2909994 1.3243225 0.096926205 64
-0.93994749 0.96454597 -0.26178995 37
-1.3054638 1.3400964 0.16367848 39
-0.98004162 1.006041 -0.22244984 19
-1.3253784 1.3610139 0.23325793 62
-0.99558657 1.0227119 -0.17524813 81
-1.744115 1.7922608 0.39609212 8
-0.9933309 1.0211076 -0.12463271 82
-1.6810809 1.7280892 0.46862692 8
-1.0025421 1.0309364 -0.075363785 64
-1.6979373 1.7466371 0.56237763 14
-1.006192 1.0354124 -0.025201276 73
-1.6664646 1.7154595 0.64083594 7
-0.89402622 0.92256337 -0.34422934 11
-1.0143039 1.0470455 0.025445608 73
-0.90016145 0.9295435 -0.29873499 34
-1.2752553 1.3173407 0.096088827 49
-0.92172301 0.95214134 -0.25759214 32
-1.3093258 1.3530086 0.16472435 42
-1.0081135 1.0421104 -0.22964582 30
-1.3219995 1.367059 0.23350169 60
-0.98511183 1.019045 -0.17402944 68
-1.7309849 1.7912352 0.39452776 8
-0.98976052 1.0245688 -0.12463271 90
-1.6791306 1.7381828 0.46977177 7
-0.99477488 1.0301197 -0.075049765 71
-1.6891234 1.7497489 0.56147784 17
-1.0025716 1.0389184 -0.025201276 84
-1.6671726 1.7282178 0.64342415 8
-0.886621 0.92165732 -0.34267643 20
-1.0050974 1.0448154 0.025305988 81
-0.90366507 0.93970317 -0.3009845 36
-1.2651126 1.3160248 0.095670134 51
-0.9263891 0.9640066 -0.25988188 29
-1.3071188 1.3606718 0.16507298 42
-1.3039316 1.3578281 -0.29816413 34
-1.3295944 1.3845516 0.23569533 45
-0.98704785 1.0282055 -0.17500439 60
-1.7219864 1.7944162 0.39390203 7
-0.98755699 1.0294554 -0.12480702 73
-1.6890547 1.7613295 0.47435117 7
-0.99099284 1.0337585 -0.075049765 71
-1.6773053 1.7503006 0.55967826 14
-0.98648655 1.0294179 -0.024887133 81
-1.6704849 1.7437917 0.64704764 7
-0.87005395 0.91077763 -0.33750004 31
-1.0054042 1.0528309 0.025410704 83
-0.90694284 0.95005685 -0.30323401 36
-1.2729231 1.3334349 0.096612185 42
-0.92166293 0.96581417 -0.25950024 20
-1.289984 1.3522515 0.16350417 36
-1.3714365 1.4381382 -0.31474617 36
-1.3354683 1.4009101 0.23764524 18
-0.98756164 1.0359551 -0.17573561 84
-1.7157122 1.8004161 0.39390203 6
-0.96884114 1.0170276 -0.12288959 52
-1.6788343 1.7629493 0.47320631 6
-0.99288666 1.0429978 -0.075468451 79
-1.6916468 1.7770246 0.56642675 18
-0.98564446 1.0357521 -0.024956942 81
-1.6617248 1.7468128 0.64601237 8
-0.86303949 0.90945393 -0.33594716 39
-0.98952115 1.0431023 0.025096562 97
-0.89708292 0.94598877 -0.3009845 36
-1.2602487 1.3289531 0.095984153 22
-0.91980582 0.97029012 -0.25988188 9
-1.2909745 1.3623067 0.16420141 31
-1.3612262 1.4369416 -0.31349471 35
-0.83943731 0.88643956 0.1498993 4
-0.99367547 1.0493139 -0.17744178 90
-1.7110902 1.8075303 0.39421493 3
-0.96546316 1.0202349 -0.12288959 60
-1.6608365 1.755671 0.46977177 6
-0.98530567 1.0419313 -0.075154446 66
-1.6964563 1.7939519 0.57002598 20
-0.99044657 1.0477339 -0.02516637 88
-1.6532692 1.7495058 0.64497709 10
-0.85736865 0.90949947 -0.33491185 36
-0.98057085 1.0405566 0.024956942 97
-0.88592356 0.94044763 -0.2982851 35
-1.0392604 1.1036079 0.079445995 10
-1.2932781 1.3738339 0.16507298 23
-1.3618685 1.447202 -0.31474617 34
-0.84737444 0.90078551 0.15184921 2
-0.98728675 1.0498838 -0.1769543 62
-1.7724203 1.8854556 0.40985835 1
-0.95780271 1.0192431 -0.12236666 45
-1.657694 1.7640305 0.47053501 6
-0.97500765 1.0379145 -0.07463108 48
-1.6968542 1.8069652 0.57227546 20
-0.98815191 1.0526429 -0.025201276 84
-1.6630156 1.7721707 0.65118873 13
-0.85930949 0.9182778 -0.3369824 31
-0.97283393 1.0395926 0.024852226 92
-0.87997282 0.94068813 -0.29738528 32
-0.99856919 1.0678414 0.076619849 24
-1.2991166 1.3902105 0.16646746 6
-1.365994 1.4622887 -0.31693625 24
-0.84151477 0.90083677 0.15136175 2
-0.9700678 1.0388149 -0.17451692 21
-0.95016116 1.0182103 -0.12184373 15
-1.6632706 1.7830145 0.47396958 8
-0.95485139 1.0239527 -0.073375016 27
-1.6809182 1.8031946 0.56912619 11
-0.98174435 1.0531602 -0.025131466 73
-1.6752583 1.7977512 0.6584357 19
-0.85478377 0.91985661 -0.33646476 20
-0.97718275 1.0519422 0.025061656 80
-0.87651902 0.94390702 -0.29738528 26
-0.97834313 1.0539284 0.075363785 60
-1.5600687 1.6805973 -0.44572985 100
-0.91749865 0.98872966 0.11800887 1
-1.5382128 1.658213 -0.35823497 60
-0.84900558 0.91555935 0.15331164 2
-0.96085548 1.0365404 -0.17354195 6
-0.88615477 0.95628989 0.20649351 1
-0.94524705 1.0200591 -0.12166941 23
-1.6650411 1.7974514 0.47625926 8
-0.93634415 1.0111595 -0.072223626 25
-1.6719662 1.8061906 0.56822634 7
-0.96972877 1.0479453 -0.024922037 72
-1.6791521 1.8152248 0.66257679 13
-0.83846664 0.9086374 -0.3312884 13
-0.97486091 1.0568163 0.025096562 81
-0.88246626 0.95698929 -0.30053461 16
-0.98684126 1.070554 0.076305829 93
-1.5608457 1.6932507 -0.44763795 100
-0.84653515 0.91866714 0.1092933 2
-1.6769571 1.8204855 -0.39202482 26
-0.82697874 0.89807367 0.1498993 2
-0.96933144 1.0530325 -0.17573561 12
-0.84268349 0.91576928 0.19710746 1
-0.92009491 0.99989462 -0.11888044 29
-1.6587565 1.8032526 0.47625926 9
-0.92875326 1.0100111 -0.071909614 32
-1.660376 1.8062772 0.56642675 12
-0.96606487 1.0513239 -0.024922037 75
-1.6701922 1.8182293 0.66154152 8
-0.81832296 0.89304262 -0.32455909 8
-0.96441233 1.05284 0.024922037 100
-0.88438457 0.9658128 -0.30233422 6
-0.97905284 1.0695722 0.075991817 100
-1.5615541 1.7059292 -0.44954604 100
-0.84332329 0.92161655 0.1092933 2
-0.81312257 0.88923502 0.1479494 2
-0.96163189 1.0520142 -0.17500439 16
-0.83948153 0.91870546 0.19710746 1
-0.91256672 0.99868792 -0.11835749 33
-1.6564246 1.8133801 0.47740412 6
-0.92252851 1.0102973 -0.071700267 41
-1.6632569 1.8221375 0.56957608 18
-0.95969331 1.0517354 -0.024852226 77
-1.650816 1.8097755 0.6563651 10
-0.82040125 0.90160912 -0.32662967 8
-0.95265788 1.0473243 0.024712607 96
-1.287425 1.415854 -0.44180387 6
-0.97396988 1.0715053 0.075887144 91
-1.5529484 1.7084639 -0.44878277 100
-0.82804227 0.91128361 0.1077245 3
-1.0001179 1.1010438 -0.23559032 2
-0.81001359 0.89206803 0.1479494 2
-0.95795381 1.0553646 -0.17500439 17
-0.83626974 0.92163002 0.19710746 1
-0.91175312 1.0048182 -0.11870612 36
-1.6606367 1.8307843 0.48045707 7
-0.90960503 1.0031543 -0.070967562 53
-1.6699737 1.8423707 0.5740751 18
-0.97078645 1.0713792 -0.02523618 88
-1.6756142 1.8498906 0.66878843 5
-0.81336343 0.90016717 -0.32507673 8
-0.94363499 1.0447074 0.024572989 63
-1.3085946 1.4492669 -0.45080194 4
-0.94765681 1.0495287 0.074107721 66
-1.5417134 1.7080449 -0.4472563 100
-0.82085198 0.90973073 0.10720156 7
-0.98965323 1.0971941 -0.23402599 8
-0.80423599 0.89194143 0.14746192 2
-0.93299901 1.0351096 -0.17110457 21
-0.83849901 0.93026727 0.19835892 1
-0.91224098 1.0124352 -0.11922905 38
-1.6739448 1.8584511 0.48618135 9
-0.90342468 1.003355 -0.070758224 54
-1.6648366 1.849637 0.574525 16
-0.95786357 1.0641885 -0.024991846 95
-1.6927297 1.8812864 0.67810595 4
-0.80634606 0.89868695 -0.32352382 8
-0.94817811 1.0567613 0.024782417 87
-1.3141906 1.4652039 -0.45440111 4
-0.94398749 1.0528303 0.074107721 73
-1.5252593 1.7017201 -0.44420335 100
-0.81102365 0.90517104 0.10633 9
-0.97810012 1.0916425 -0.23214878 10
-0.7959761 0.88868874 0.14648695 2
-0.92558914 1.0337611 -0.17037337 25
-0.80362844 0.89786279 0.19085006 2
-0.9047159 1.0111589 -0.11870612 42
-1.6808635 1.8786231 0.48999751 9
-0.90009248 1.0063455 -0.070758224 56
-1.6872694 1.887108 0.58442283 14
-0.95547563 1.0690165 -0.02502675 100
-1.686152 1.8871841 0.67810595 4
-0.78922236 0.88549221 -0.31782979 9
-0.94847429 1.0645438 0.024887133 97
-1.3129566 1.474148 -0.45575082 5
-0.87124485 0.97855085 0.068664782 15
-1.5169969 1.7038363 -0.44344014 100
-0.79609597 0.89446098 0.1047612 9
-0.96246618 1.0817679 -0.22933295 8
-0.79814637 0.89739484 0.14746192 2
-0.92856961 1.0444036 -0.17159206 27
-0.79524034 0.89475662 0.18959859 1
-0.88794774 0.99941611 -0.116963 43
-7.5095568 8.4522676 2.1977382 6
-0.90320587 1.0169475 -0.071281582 59
-7.5119176 8.4608755 2.6121316 30
-0.94775635 1.0678582 -0.024922037 77
-1.6769905 1.890168 0.67707068 4
-0.78213108 0.88403851 -0.31627688 10
-0.92222667 1.0423877 0.024293751 81
-1.2974749 1.4670439 -0.4521516 5
-0.84533435 0.95614862 0.06688536 31
-0.99719328 1.1283119 -0.29270101 1
-0.78753573 0.89140004 0.10406395 9
-0.94018817 1.0645595 -0.22495279 15
-0.80026525 0.90612704 0.14843687 2
-0.93148732 1.0550792 -0.17281075 30
-0.81302631 0.92122406 0.1946045 1
-0.88445348 1.0025098 -0.116963 44
-7.4798241 8.4812098 2.1981196 19
-0.89551008 1.0157566 -0.070967562 58
-7.4976063 8.5073566 2.6179802 39
-0.94666702 1.0741607 -0.024991846 58
-1.6780444 1.9047076 0.68017644 4
-0.78796577 0.89692241 -0.31990036 9
-0.92631733 1.0547757 0.024503179 93
-1.2830892 1.4615387 -0.4490023 5
-0.83276761 0.9485873 0.066152655 33
-0.96993923 1.1052248 -0.28583187 2
-0.78704733 0.89713925 0.10441258 9
-0.92995393 1.0604092 -0.22338845 21
-0.78123546 0.89114159 0.145512 2
-0.91714746 1.0465425 -0.17086083 29
-0.80720168 0.92108512 0.19397876 1
-0.8809486 1.005591 -0.116963 47
-7.4592266 8.5176058 2.2007911 15
-0.88406575 1.0098597 -0.070339531 60
-7.4781308 8.5452089 2.6215794 39
-0.94554555 1.0804684 -0.025061656 47
-1.6815615 1.9221854 0.68431759 4
-0.79498982 0.91131365 -0.32404146 10
-0.93201637 1.0683901 0.024747513 81
-1.1527177 1.3218504 -0.40491191 2
-0.81632733 0.93643302 0.065105937 29
-0.96220589 1.1041635 -0.28468704 14
-0.78652811 0.90288585 0.1047612 6
-0.93421739 1.0724241 -0.22526565 28
-0.76523942 0.8787573 0.14307462 3
-0.90845841 1.0435891 -0.16988587 27
-0.82213575 0.94475955 0.19835892 1
-0.88266373 1.0146729 -0.11766025 44
-7.447691 8.5615511 2.2057521 15
-0.88333315 1.0158 -0.070548877 58
-7.4612598 8.5831976 2.6256287 37
-0.92734003 1.0671588 -0.024677703 52
-1.6976461 1.9542948 0.69363505 4
-0.79575866 0.91832489 -0.32559437 12
-0.92697191 1.0701255 0.024712607 87
-0.99501699 1.149084 -0.35092363 7
-0.8091321 0.93474656 0.064791918 29
-0.94440508 1.0910201 -0.28048924 24
-0.77831495 0.89946234 0.10406395 5
-0.93176055 1.0771726 -0.22557852 27
-0.77125633 0.89193398 0.1447808 4
-0.89961737 1.0407467 -0.16891092 27
-0.77492076 0.89680475 0.18772139 1
-0.87668866 1.0145793 -0.11731163 47
-7.4331622 8.6053238 2.2103314 15
-0.87717104 1.0158541 -0.070339531 58
-7.4439859 8.6239414 2.6301277 37
-0.91446453 1.0597913 -0.024433369 56
-1.6996461 1.9704493 0.69725859 5
-0.79884821 0.92841882 -0.32818255 13
-0.91931891 1.0688066 0.024607893 81
-0.98591781 1.1466397 -0.34912404 18
-0.80976993 0.94210929 0.065105937 31
-0.94315034 1.0972878 -0.28125247 29
-0.76997685 0.89612913 0.10336671 4
-0.92928219 1.0819168 -0.2258914 28
-0.75908601 0.88407815 0.14307462 4
-0.90373653 1.0529187 -0.17037337 29
-0.78464884 0.91449577 0.19085006 1
-0.873142 1.0176332 -0.11731163 44
-7.4248075 8.6565523 2.216819 15
-0.88142014 1.0280069 -0.070967562 60
-7.5165625 8.769721 2.6665697 15
-0.90685654 1.0584211 -0.024328655 52
-7.4207397 8.6640406 3.056653 8
-0.79811263 0.93413913 -0.32921785 15
-0.90129644 1.055283 0.024223939 46
-0.98570555 1.1545203 -0.35047373 22
-0.80777323 0.94644916 0.065210611 35
-0.94313812 1.1050531 -0.28239733 32
-0.76167119 0.89274871 0.10266946 4
-0.91780901 1.076136 -0.22401418 29
-0.76243502 0.89427519 0.14429331 5
-0.89748007 1.0530454 -0.16988587 30
-0.80707347 0.9473021 0.19710746 1
-0.86312425 1.0130917 -0.11644007 42
-10.464889 12.287514 3.1372819 4
-0.87782604 1.0310777 -0.070967562 61
-8.807023 10.34821 3.1371675 25
-0.90186048 1.0600574 -0.024293751 50
-7.4079709 8.7104959 3.0639 27
-0.80859417 0.95312417 -0.33491185 10
-0.85492587 1.008094 0.023072081 22
-0.9766286 1.1520084 -0.34867415 32
-0.80059046 0.94469213 0.064896591 33
-0.95450622 1.1263119 -0.28697675 32
-0.76370186 0.90148276 0.10336671 4
-0.91915309 1.0853631 -0.22526565 36
-0.7516129 0.88784093 0.14283088 6
-0.89379895 1.0561715 -0.16988587 32
-0.79355514 0.93804884 0.1946045 1
-0.86730307 1.025225 -0.11748594 39
-7.52139 8.8940611 2.2641397 15
-0.8639065 1.0219332 -0.070130184 63
-7.5193048 8.8978939 2.6895146 63
-0.90589756 1.0723643 -0.024503179 47
-7.3874931 8.7481079 3.0680408 26
-0.87122673 1.0342481 -0.36234668 8
-0.83336926 0.9896574 0.022583414 27
-0.98013139 1.1643553 -0.35137355 36
-0.79230875 0.94122982 0.064477906 33
-0.94677687 1.1251299 -0.28583187 29
-0.768246 0.91329104 0.10441258 4
-0.92298657 1.0976366 -0.22714287 34
-0.74595481 0.88741988 0.14234342 7
-0.88627583 1.0547255 -0.16915466 33
-0.79044032 0.94067502 0.1946045 1
-0.87268931 1.0389258 -0.11870612 38
-7.4650493 8.8901901 2.2565072 8
-0.85776609 1.0218829 -0.069920845 61
-7.4656506 8.8972187 2.6814167 70
-0.89719474 1.0692354 -0.024363559 50
-7.3869948 8.8066015 3.0799468 29
-0.95065367 1.1365659 -0.39702842 10
-0.82751673 0.98934805 0.022513606 35
-0.97876459 1.1705894 -0.35227334 39
-0.78901815 0.94398999 0.064477906 28
-0.94410223 1.129935 -0.28621352 25
-0.7624985 0.91290897 0.10406395 4
-0.92947233 1.11282 -0.22964582 31
-0.75064129 0.89903158 0.14380583 8
-0.88150108 1.0561349 -0.16891092 29
-0.76690334 0.91916037 0.18959859 2
-0.86395305 1.0358452 -0.11800887 35
-7.4518733 8.9344978 2.2614682 7
-0.85948843 1.030858 -0.070339531 57
-0.88449693 1.061606 -0.024119226 58
-7.3673382 8.8456917 3.0846055 29
-0.96292847 1.1590291 -0.40375772 8
-0.82022554 0.98761535 0.02240889 35
-0.97965199 1.1799961 -0.35407296 39
-0.78571844 0.94673824 0.064477906 24
-0.9441117 1.1375916 -0.28735834 20
-0.75183439 0.906232 0.10301808 5
-0.9268434 1.1175779 -0.22995868 24
-0.75256646 0.90775901 0.1447808 8
-0.879076 1.0607338 -0.16915466 23
-0.76369041 0.92183167 0.18959859 2
-0.85397822 1.0311821 -0.11713732 36
-0.85970592 1.0384672 -0.070653543 54
-7.4558554 9.0093832 2.6998627 5
-0.88206077 1.0662277 -0.02415413 60
-7.3425736 8.8787966 3.0871937 30
-0.97219396 1.1789454 -0.40945172 8
-0.79896206 0.9688732 0.021920223 22
-0.97304755 1.1804013 -0.35317314 39
-0.78494889 0.95255804 0.064687252 22
-0.93494296 1.1349826 -0.28583187 19
-0.75737315 0.91974801 0.10423827 7
-0.91897458 1.1163925 -0.22902009 18
-0.74686968 0.90731531 0.14429331 8
-0.88672024 1.0775913 -0.1713483 28
-0.74540895 0.90618521 0.18584417 3
-0.85543501 1.0403126 -0.11783457 46
-7.4637947 9.0801086 2.2847471 1
-0.8571617 1.0431545 -0.070758224 53
-7.4561834 9.0773058 2.7120099 2
-0.87960249 1.0708456 -0.024189034 64
-7.3237934 8.9193048 3.0923703 30
-0.98153496 1.1987741 -0.41514575 6
-0.78527278 0.95941567 0.021640982 26
-0.96871489 1.1839596 -0.35317314 48
-0.78414875 0.95838356 0.064896591 28
-0.94091892 1.1503971 -0.28888482 20
-0.75668049 0.92547089 0.10458689 13
-0.91257197 1.1165342 -0.22839434 14
-0.73600358 0.90082312 0.14283088 8
-0.88150865 1.0792968 -0.17110457 32
-0.7509883 0.91949093 0.18803425 4
-0.85809898 1.0510088 -0.11870612 44
-7.4395041 9.1152325 2.2870369 1
-0.84846509 1.0399499 -0.070339531 47
-7.4416971 9.1244183 2.7183084 1
-0.87459564 1.0723597 -0.02415413 70
-7.3097072 8.9657764 3.099617 32
-0.9773441 1.2021934 -0.41514575 4
-0.78460956 0.96511799 0.021710794 37
-0.96601266 1.1886775 -0.35362303 42
-0.76820529 0.94561291 0.063849874 48
-0.93318427 1.1491026 -0.28773996 22
-0.75093406 0.92501271 0.10423827 14
-0.91135472 1.1226214 -0.22902009 14
-0.73551381 0.90634179 0.14331836 8
-0.87292212 1.0760479 -0.17012961 40
-0.74279749 0.91596955 0.18678276 6
-0.86069793 1.0617365 -0.11957768 40
-7.4290137 9.1642542 2.2931426 1
-0.84375399 1.0412061 -0.070234857 43
-7.4187565 9.1581335 2.7210081 2
-0.87084675 1.0754063 -0.02415413 95
-7.3063197 9.025775 3.1115227 34
-0.98063427 1.2144457 -0.4182516 5
-0.78249204 0.96940672 0.021745699 55
-0.96675223 1.198109 -0.35542265 41
-0.76239175 0.94517976 0.063640527 54
-0.92443854 1.1460782 -0.28621352 25
-0.74911296 0.92904907 0.10441258 10
-0.91238886 1.131948 -0.23027156 14
-0.73857319 0.91663229 0.14453706 8
-0.87289649 1.083726 -0.17086083 42
-0.73092353 0.90778673 0.18459269 7
-0.85074061 1.0569739 -0.11870612 37
-7.4339123 9.2360125 2.3045912 1
-0.84887886 1.0550377 -0.070967562 37
-7.4038434 9.2052317 2.7273066 1
-0.86207575 1.0722057 -0.024014512 100
-7.2856631 9.0647736 3.1161816 32
-0.97617674 1.2180315 -0.4182516 6
-0.77660251 0.96901131 0.02167589 68
-0.96743816 1.2075596 -0.35722226 41
-0.76657891 0.95718867 0.064268559 56
-0.92145896 1.1509912 -0.28659514 31
-0.74321264 0.92867738 0.10406395 9
-0.90329754 1.1291146 -0.22902009 14
-0.73412865 0.91765481 0.14429331 9
-0.8691085 1.0867662 -0.17086083 37
-0.72898346 0.91187567 0.18490556 6
-0.84828943 1.0614938 -0.11888044 44
-7.4147162 9.281601 2.3091705 1
-0.85248381 1.0675062 -0.071595594 34
-7.3895049 9.2566748 2.7345049 2
-0.85957503 1.0767714 -0.024049416 100
-7.2648239 9.1037388 3.1208401 31
-0.97673029 1.2274785 -0.42032215 8
-0.76682127 0.96402651 0.021501366 56
-0.96421826 1.2126228 -0.35767215 38
-0.76571894 0.96298558 0.064477906 52
-0.9308731 1.1711067 -0.29079291 32
-0.73872715 0.92970598 0.10388964 9
-0.89566499 1.1276201 -0.22808148 16
-0.7332294 0.92344856 0.1447808 9
-0.87499225 1.1023834 -0.17281075 35
-0.72579616 0.91441458 0.18490556 6
-0.84210229 1.0613265 -0.1185318 41
-7.3773894 9.3012762 2.3076441 1
-0.85247517 1.0751703 -0.071909614 31
-7.3644133 9.2915745 2.7372043 1
-0.85705358 1.0813322 -0.024084322 75
-7.2461963 9.1457005 3.1265342 31
-0.97603208 1.2354283 -0.42187506 8
-0.75866139 0.96028787 0.021361746 46
-0.96019191 1.2158134 -0.35767215 36
-0.76606572 0.97035521 0.064791918 54
-0.92799544 1.1758902 -0.29117453 35
-0.74041373 0.93853581 0.10458689 9
-0.896815 1.1367874 -0.22933295 16
-0.72155869 0.91496384 0.14307462 8
-0.8750183 1.1099559 -0.17354195 32
-0.73482674 0.93245745 0.18803425 7
-0.85072207 1.0799104 -0.12027492 51
-0.76660258 0.97312868 0.24080098 1
-0.85261184 1.0826989 -0.072223626 27
-7.352849 9.3404436 2.7444029 2
-0.85451061 1.0858886 -0.024119226 55
-7.232141 9.193716 3.1342988 30
-0.98266369 1.2523359 -0.42653382 8
-0.77505141 0.9881047 0.021920223 45
-0.94632226 1.2068897 -0.35407296 32
-0.75281721 0.96044773 0.06395454 50
-0.94104749 1.2005929 -0.29651719 34
-0.74589884 0.95196432 0.10580707 13
-0.89771342 1.1461318 -0.23058443 17
-0.72447908 0.92529207 0.14429331 8
-0.87480932 1.1176931 -0.17427318 34
-0.7303499 0.93346125 0.18772139 8
-0.85204691 1.0890023 -0.12097216 48
-0.76320082 0.97579885 0.24080098 2
-0.85866898 1.0982558 -0.073060997 31
-7.3297973 9.3783379 2.7480021 2
-0.84702122 1.0841377 -0.024014512 43
-7.2166543 9.2402191 3.1415458 29
-0.98422217 1.2633786 -0.429122 8
-0.76668322 0.98449314 0.021780603 46
-0.94449806 1.2132609 -0.35497275 31
-0.75191307 0.96622241 0.064163886 43
-0.95011365 1.2209139 -0.300715 41
-0.73400807 0.94355386 0.10458689 16
-0.91795993 1.1804457 -0.23684181 18
-0.72124499 0.9278152 0.14429331 7
-0.88064706 1.1332794 -0.17622308 26
-0.71618092 0.9219647 0.18490556 6
-0.84579605 1.0888228 -0.12062354 39
-0.75015736 0.96605164 0.23774803 2
-0.86095381 1.1091348 -0.073584363 36
-7.2970185 9.4038649 2.7480021 2
-0.83097571 1.0712869 -0.023665464 40
-7.2044826 9.2913055 3.1503456 24
-0.97744185 1.2637504 -0.4280867 7
-0.77058113 0.99665517 0.021990033 45
-0.94740778 1.2258015 -0.35767215 32
-0.74487215 0.96409988 0.063849874 37
-0.95784885 1.239759 -0.30453119 47
-0.73801684 0.95557159 0.10563275 21
-0.93073398 1.2055333 -0.24122196 20
-0.72891724 0.94447088 0.14648695 7
-0.89123631 1.1552073 -0.17914794 28
-0.71537083 0.92758775 0.1855313 5
-0.84198993 1.0917687 -0.12062354 41
-0.75636983 0.98110324 0.24080098 2
-0.86682999 1.1247894 -0.074421734 34
-7.3033924 9.4802256 2.7628489 4
-0.81991029 1.0646752 -0.023456035 38
-7.1790738 9.3255835 3.1534514 26
-0.97420156 1.2686868 -0.42860436 7
-0.7634443 0.99458033 0.021885319 52
-0.9431228 1.2291013 -0.35767215 35
-0.75365824 0.98254138 0.064896591 40
-0.95112598 1.2399794 -0.30376795 42
-0.72376591 0.94391185 0.10406395 33
-0.91690677 1.1962322 -0.23871902 20
-0.72923827 0.95173657 0.14721818 8
-0.88719875 1.1583111 -0.17914794 22
-0.72653943 0.94890016 0.18928573 4
-0.83575165 1.0915372 -0.12027492 29
-0.74816775 0.97750133 0.2392745 2
-0.88110334 1.1516016 -0.075991817 29
-7.2951188 9.5381651 2.7722967 2
-0.82104737 1.073885 -0.023595655 40
-7.1640759 9.3736086 3.161216 31
-0.98147953 1.2874427 -0.43378076 8
-0.76239222 1.00042 0.021955127 52
-0.93410271 1.2261856 -0.35587254 33
-0.74659407 0.98039907 0.064582579 47
-0.95154983 1.2495391 -0.30529439 42
-0.72167319 0.94801807 0.10423827 38
-0.91511768 1.2025697 -0.23934476 19
-0.71870077 0.94479656 0.14575575 9
-0.88435137 1.1629814 -0.1793917 21
-0.73398119 0.96558416 0.19210154 3
-0.85605019 1.1261712 -0.12376115 25
-7.2337084 9.5196972 2.3240535 6
-0.87345356 1.1498991 -0.075677805 27
-7.2287803 9.5201168 2.7596996 24
-0.820921 1.0815226 -0.023700368 42
-7.144155 9.4154892 3.1669102 32
-0.98863757 1.3062651 -0.43895712 8
-0.75768864 1.0014806 0.021920223 42
-0.9462741 1.2511985 -0.3621712 27
-0.73955357 0.97821981 0.064268559 52
-0.94836605 1.2544196 -0.30567604 35
-0.72316492 0.95688939 0.10493552 37
-0.90853316 1.2026043 -0.23871902 20
-0.71180922 0.94254738 0.14502454 8
-0.87789458 1.1628923 -0.17890421 24
-0.73298627 0.97129381 0.1927273 3
-0.85931504 1.1386944 -0.12480702 20
-0.86582696 1.1481568 -0.075363785 29
-7.1743922 9.5172806 2.7516012 48
-0.81714052 1.0843817 -0.023700368 41
-7.1379814 9.4758587 3.1788156 27
-0.9794296 1.3035306 -0.43688658 7
-0.75058562 0.99932235 0.021815507 38
-0.97817302 1.3028035 -0.37611815 18
-0.73493528 0.97919822 0.064163886 54
-0.94280261 1.2561523 -0.30529439 27
-0.72221196 0.96259505 0.10528414 34
-0.90907085 1.2120893 -0.23997049 20
-0.71685004 0.95614451 0.14673071 8
-0.87621129 1.1691266 -0.1793917 21
-0.71774751 0.95803714 0.18959859 3
-0.86489207 1.1544433 -0.12620151 19
-7.1717753 9.5762558 2.3255801 20
-0.86061722 1.1495731 -0.075259112 27
-0.81095439 1.0840253 -0.023630559 41
-7.1106472 9.5084505 3.1814039 28
-0.98295921 1.3177809 -0.44051 6
-0.76263201 1.0227768 0.022269269 35
-1.0236976 1.3733957 -0.39546397 11
-0.73151296 0.98175752 0.064163886 61
-0.94075835 1.262584 -0.30605766 22
-0.71884722 0.96511036 0.10528414 31
-0.90837324 1.2200087 -0.2409091 21
-0.72180492 0.96978778 0.14843687 8
-0.88041914 1.1833265 -0.18109787 23
-0.71793532 0.96529198 0.1905372 5
-0.8763141 1.1782385 -0.12846756 20
-7.1898465 9.6705532 2.3423715 5
-0.85302466 1.1477613 -0.074945092 29
-7.1856384 9.6719418 2.7817447 11
-0.80478114 1.0836384 -0.023560748 41
-7.0946846 9.5564823 3.1891685 29
-1.0013466 1.3522544 -0.4508628 6
-0.75429851 1.0190035 0.022129651 32
-1.1626328 1.5712074 -0.4512518 5
-0.73045719 0.98751622 0.064373232 61
-0.93868071 1.2690167 -0.30682087 20
-0.70955139 0.95960367 0.10441258 30
-0.901761 1.2199948 -0.24028336 21
-0.71605629 0.96910828 0.1479494 7
-0.88571864 1.1991665 -0.18304777 22
-0.71221495 0.9646138 0.18991147 5
-0.87811339 1.1893042 -0.12933911 30
-7.1642094 9.7066469 2.3450427 13
-0.84782696 1.1491251 -0.074840426 31
-7.1691856 9.7204885 2.7884934 11
-0.79743391 1.0816123 -0.023456035 40
-7.0784721 9.6045179 3.1969328 24
-0.99890834 1.3588548 -0.45189807 7
-0.75073713 1.02163 0.022129651 25
-1.149065 1.5642629 -0.4481025 6
-0.73173386 0.9964996 0.064791918 61
-0.93308294 1.2707034 -0.30643925 19
-0.710913 0.9684993 0.10510983 30
-0.8951593 1.2199502 -0.23965763 17
-0.70797247 0.96519935 0.14697444 7
-0.88739592 1.2102555 -0.18426646 19
-0.72052109 0.98302662 0.19304016 5
-0.89397961 1.2196808 -0.13230242 35
-0.83909023 1.1456321 -0.074421734 32
-7.1432676 9.756464 2.7916427 5
-0.80310142 1.0972989 -0.023735272 47
-7.0631557 9.6541128 3.2052152 26
-1.0021307 1.3732568 -0.45552155 6
-0.76248658 1.0452466 0.022583414 18
-1.1435981 1.5682639 -0.4481025 6
-0.72001576 0.98774981 0.06405922 57
-0.93095493 1.2771256 -0.30720252 18
-0.71691495 0.98385668 0.10650431 30
-0.89671099 1.2310506 -0.24122196 19
-0.7045992 0.9676646 0.14697444 7
-0.88199806 1.2117405 -0.18402272 20
-0.71243662 0.9791463 0.19178867 5
-0.92253911 1.2679032 -0.13718314 43
-9.5629311 13.147756 3.1601787 2
-0.82451564 1.1340153 -0.07347969 30
-7.1114612 9.7844896 2.7925425 5
-0.79221362 1.090389 -0.023525843 50
-7.0487146 9.7052803 3.214015 28
-0.99053073 1.3673598 -0.4524157 6
-0.79636425 1.0997303 0.023700368 18
-1.1472586 1.5848746 -0.45170173 5
-0.71305066 0.98540318 0.063745201 56
-0.91958535 1.2708246 -0.30491278 19
-0.71697921 0.99119639 0.10702725 29
-0.90282583 1.2485797 -0.24403779 21
-0.7093569 0.98138005 0.14868061 6
-0.8859008 1.2260753 -0.18572889 18
-0.70438808 0.97522157 0.1905372 4
-0.91927457 1.2727308 -0.13735744 35
-9.5192719 13.184241 3.1609418 2
-0.82756513 1.1466037 -0.074107721 30
-7.0556016 9.7792253 2.7839942 2
-0.77904493 1.0801724 -0.023246605 51
-7.0283484 9.7486324 3.2202265 29
-0.98349631 1.3676721 -0.45138043 7
-0.81119585 1.1284826 0.024258846 27
-1.1405818 1.5872873 -0.4512518 5
-0.72242397 1.0057296 0.064896591 42
-0.9139986 1.272432 -0.30453119 21
-0.7135151 0.99369287 0.10702725 27
-0.89846158 1.2517239 -0.24403779 20
-0.71402806 0.99514019 0.15038678 5
-0.89434254 1.2469039 -0.18841003 20
-0.71594286 0.99854457 0.1946045 3
-0.90553838 1.2629784 -0.13596295 20
-7.1263413 9.9429617 2.377862 1
-0.82123154 1.1462382 -0.073898375 29
-7.0270934 9.811718 2.7862437 4
-0.78225434 1.0926409 -0.023456035 56
-7.0077705 9.7919569 3.2264383 31
-0.97534943 1.3663795 -0.44982749 6
-0.80725205 1.1313072 0.024258846 31
-1.1327705 1.5880864 -0.45035201 5
-0.72006869 1.0098712 0.065001264 29
-0.91183132 1.2788116 -0.30529439 21
-0.71004236 0.99617732 0.10702725 20
-0.89408648 1.2548527 -0.24403779 21
-0.70709532 0.99277568 0.14965557 4
-0.90725505 1.2742743 -0.1920661 27
-0.72619766 1.0203503 0.19835892 2
-0.88841575 1.2482762 -0.13404553 15
-9.4315567 13.256773 3.1624687 2
-0.81954014 1.1523532 -0.074107721 29
-7.0086069 9.8584261 2.7925425 8
-0.78191036 1.100255 -0.023560748 64
-6.9936833 9.8447084 3.2357559 28
-0.97727484 1.3792337 -0.45293337 6
-0.79983032 1.1292229 0.02415413 35
-1.1227162 1.5856687 -0.4485524 6
-0.73056519 1.0318141 0.066257328 19
-0.92097199 1.3012167 -0.30987382 24
-0.7146157 1.0100352 0.10824744 12
-0.89540422 1.2660296 -0.24560213 23
-0.70362532 0.99523801 0.14965557 3
-0.90646189 1.2821388 -0.1927973 36
-0.72965086 1.0324318 0.20023614 2
-0.87945485 1.2448605 -0.13334829 16
-7.0997887 10.053411 2.3923633 2
-0.80745 1.1437852 -0.073375016 27
-6.9938607 9.9070835 2.799741 6
-0.78517568 1.1126448 -0.023770178 66
-6.9799318 9.894681 3.2445557 27
-0.97603101 1.3872066 -0.45448625 7
-0.79723185 1.1335044 0.024189034 43
-1.1140896 1.5846003 -0.44720268 6
-0.75815523 1.0783452 0.069083467 29
-0.91326559 1.2994447 -0.30872896 25
-0.73646027 1.0482653 0.11208228 14
-0.89574242 1.275458 -0.24685362 27
-0.69804013 0.99431634 0.14916809 3
-0.89536196 1.2753894 -0.19133489 38
-6.9649358 9.9248161 1.9203898 9
-0.86273575 1.229828 -0.13143085 14
-9.3501186 13.333523 3.1655214 2
-0.7784307 1.1104767 -0.071072236 19
-6.9732704 9.9477758 2.8046896 2
-0.77918619 1.1119672 -0.023700368 86
-6.964817 9.9430885 3.2528379 28
-0.96921229 1.3872685 -0.45345098 7
-0.78888845 1.1295844 0.024049416 43
-1.1121749 1.59308 -0.4485524 6
-0.77038836 1.1039152 0.070548877 43
-0.9078275 1.3008564 -0.30834734 28
-0.74779898 1.0719447 0.11434833 27
-0.89941704 1.2897638 -0.2490437 32
-0.71517223 1.0259384 0.15355539 3
-0.8977136 1.2882792 -0.1927973 42
-6.9404082 9.9636574 1.9232055 25
-0.78690833 1.1296865 -0.12044924 17
-7.0621238 10.142166 2.4022853 1
-0.75078309 1.0786276 -0.068874128 32
-6.9585409 10.000849 2.812788 2
-0.7753002 1.1146802 -0.023700368 81
-6.941092 9.9832029 3.2580142 25
-0.96216244 1.387468 -0.4524157 6
-0.76899141 1.1093228 0.023560748 60
-1.1088275 1.6001559 -0.44945222 6
-0.78245246 1.1295831 0.07201428 45
-0.89880967 1.2975615 -0.30682087 29
-0.73838168 1.0663581 0.11347678 54
-0.896034 1.2945195 -0.24935657 37
-0.72288197 1.0447527 0.15599278 4
-0.89546931 1.2946706 -0.19328479 54
-6.9190693 10.007319 1.92696 32
-0.7523672 1.088178 -0.11574282 32
-9.2703066 13.41301 3.1693375 2
-0.74928361 1.0845283 -0.069083467 41
-6.9479532 10.060352 2.8226857 2
-0.76913261 1.1140884 -0.023630559 88
-6.9248533 10.034403 3.2668142 24
-0.95293248 1.3844527 -0.45034516 6
-0.76058018 1.1054109 0.023421129 73
-1.1054434 1.6072282 -0.45035201 4
-0.7807681 1.135599 0.072223626 45
-0.89761198 1.3055443 -0.30796573 31
-0.7267552 1.0574355 0.1122566 58
-0.88591647 1.2894988 -0.24779223 35
-0.72372615 1.0538149 0.15696773 6
-0.89319187 1.3010613 -0.19377227 50
-6.898623 10.052587 1.9310273 31
-0.7416116 1.0810704 -0.11469696 26
-9.2167692 13.435572 3.167048 1
-0.73871636 1.0772541 -0.068455435 42
-7.0251765 10.248497 2.8685758 1
-0.77202076 1.126664 -0.023839988 92
-6.9007034 10.07445 3.2719903 28
-0.95220929 1.3943175 -0.4524157 6
-0.75897264 1.1113616 0.023490939 75
-1.0976292 1.6078579 -0.44945222 5
-0.76666695 1.1234701 0.071281582 86
-0.89945865 1.3185567 -0.31025544 32
-0.72511971 1.0633841 0.11260521 41
-0.87895942 1.2894725 -0.24716648 34
-6.8974295 10.118835 1.5036241 4
-0.87746727 1.2877663 -0.19133489 34
-6.8924055 10.119054 1.9391619 28
-0.73446912 1.078712 -0.11417402 28
-6.969214 10.239498 2.4076281 1
-0.72465187 1.0650924 -0.067513391 48
-6.9634585 10.238724 2.8586779 1
-0.76246065 1.1210843 -0.023665464 63
-6.8937364 10.140013 3.285449 28
-0.95058852 1.4024301 -0.45396861 6
-0.75713784 1.1174468 0.023560748 75
-1.087357 1.6054165 -0.44765261 5
-0.75582576 1.1163492 0.070653543 100
-0.89264947 1.3184369 -0.3094922 37
-0.75043839 1.1088089 0.11713732 39
-0.87666643 1.2958053 -0.24779223 33
-6.8680778 10.15556 1.5053302 15
-0.78935885 1.1676322 -0.17305449 9
-6.8674345 10.162251 1.9426033 26
-0.73608667 1.0896518 -0.11504558 28
-6.9411192 10.275153 2.4102995 3
-0.71869391 1.0643052 -0.067304045 47
-6.9527507 10.30012 2.8690257 6
-0.7561093 1.1205562 -0.023595655 34
-6.8748875 10.19244 3.2942491 26
-0.94759768 1.4091113 -0.45500392 7
-0.76104361 1.1316987 0.023805084 100
-1.0882698 1.6189058 -0.45035201 5
-0.75415206 1.1222965 0.070862897 100
-0.87905318 1.3086622 -0.30643925 36
-0.76080781 1.1330554 0.11940337 56
-0.85099441 1.2678465 -0.24184772 9
-6.8536081 10.210788 1.5099612 21
-0.74988514 1.1176312 -0.16525485 14
-6.8440256 10.204206 1.9460449 25
-0.72784078 1.085595 -0.11434833 24
-6.9077854 10.307046 2.4118259 21
-0.71478844 1.066932 -0.067304045 50
-6.9008574 10.304483 2.8631771 50
-0.72771376 1.0866351 -0.022827748 24
-6.8521657 10.235639 3.3004606 28
-0.93623883 1.4027691 -0.45189807 6
-0.74801242 1.1211727 0.023525843 92
-1.0801669 1.6196409 -0.44945222 6
-0.7513383 1.1265836 0.070967562 100
-0.8712123 1.3068223 -0.30529439 30
-0.75242883 1.1290723 0.11870612 60
-0.83780193 1.2576575 -0.23934476 11
-6.8359399 10.265581 1.5143486 24
-0.74707925 1.1218944 -0.16549858 19
-6.8269753 10.255988 1.9513638 26
-0.70859432 1.064907 -0.11190797 26
-6.8804607 10.344175 2.4148786 46
-0.71105999 1.0694203 -0.067304045 56
-6.8860726 10.356519 2.8712754 17
-0.71838146 1.0808419 -0.022653224 21
-6.8270822 10.275587 3.3056369 25
-0.92731315 1.3994248 -0.44982749 7
-0.73766434 1.1136444 0.023316415 60
-1.0737137 1.6215893 -0.4490023 6
-0.75752187 1.1440568 0.071909614 100
-0.87987727 1.3293495 -0.30987382 23
-0.74977952 1.1332229 0.11888044 58
-0.8118329 1.2274764 -0.23308739 10
-6.8139052 10.306408 1.5170298 22
-0.73897588 1.1177418 -0.16452362 22
-6.81144 10.306588 1.9566824 31
-0.70176476 1.0622636 -0.11138504 29
-0.70530874 1.0684389 -0.067094706 56
-6.9150305 10.475253 2.8978195 6
-0.7147935 1.0832181 -0.022653224 25
-6.8131828 10.328809 3.3154721 22
-0.93116164 1.4154032 -0.45396861 7
-0.73506629 1.1177552 0.023351319 86
-1.055485 1.6056001 -0.44360349 6
-0.75023347 1.1416864 0.071595594 100
-0.86468291 1.3158528 -0.30605766 14
-0.752581 1.1456945 0.1199263 64
-0.77739942 1.1839272 -0.22432704 8
-6.7916694 10.347202 1.5197108 25
-0.72853601 1.110356 -0.1630612 23
-6.797091 10.363336 1.9629399 30
-0.69695973 1.0630406 -0.11121072 33
-8.9247532 13.612517 3.163995 3
-0.69300365 1.057408 -0.066257328 56
-6.9008512 10.533558 2.9072676 2
-0.71648544 1.0940713 -0.022827748 28
-6.7961349 10.38162 3.3247895 25
-0.92596734 1.4188068 -0.45396861 6
-0.73225266 1.1219889 0.023386225 83
-0.9710806 1.4884973 -0.41031075 4
-0.73642439 1.1292419 0.070653543 86
-0.85663748 1.3140793 -0.30491278 14
-0.750552 1.1517838 0.12027492 76
-0.75580382 1.1602858 -0.21932115 11
-6.7717648 10.395796 1.5233669 23
-0.7214058 1.1079018 -0.16232997 26
-6.7781138 10.41349 1.9679458 31
-0.6921584 1.063797 -0.11103641 35
-6.9095244 10.623489 2.4633443 4
-0.69130051 1.0632901 -0.066466674 56
-6.8770618 10.581657 2.9135661 6
-0.70612401 1.0865051 -0.022618318 24
-6.7787962 10.434443 3.3341072 25
-0.91890913 1.4187874 -0.45293337 6
-0.72813576 1.1246651 0.023386225 93
-0.8110345 1.2531884 -0.34462503 10
-0.7290262 1.1269026 0.070339531 100
-0.83711606 1.2939839 -0.29957014 15
-0.74219948 1.1477044 0.11957768 76
-0.75067681 1.1612579 -0.21900828 14
-6.7605529 10.462227 1.5294603 27
-0.71518642 1.1072035 -0.1618425 26
-6.7506189 10.454857 1.9710745 31
-0.68933547 1.0680004 -0.11121072 37
-8.8452225 13.704071 3.1704824 3
-0.68975055 1.0690531 -0.066676013 56
-6.8411412 10.607234 2.914016 5
-0.69563609 1.0790017 -0.02240889 28
-6.7551603 10.481951 3.3413541 26
-0.90639287 1.4107689 -0.44930989 7
-0.72744793 1.1322473 0.023490939 97
-0.79928327 1.2445341 -0.34147573 25
-0.73048341 1.1378438 0.070862897 100
-0.83236742 1.2970437 -0.29957014 17
-0.73691189 1.1487402 0.11940337 83
-0.74108374 1.1556875 -0.21744394 18
-6.7454195 10.519184 1.5343351 25
-0.71345937 1.1130358 -0.16232997 27
-6.7311325 10.504972 1.9760804 28
-0.67808074 1.0586562 -0.10999054 43
-6.8714375 10.732183 2.4770825 2
-0.69013399 1.078303 -0.067094706 54
-6.8263707 10.669994 2.9243639 27
-0.6929428 1.0831078 -0.022443794 27
-6.7310171 10.524998 3.3475657 24
-0.90403485 1.4168664 -0.45034516 7
-0.71938819 1.1279094 0.023351319 97
-0.79619974 1.2488208 -0.34192562 39
-0.72885263 1.1436287 0.071072236 100
-0.82301307 1.2913741 -0.29766205 14
-0.7247355 1.1376065 0.11800887 65
-0.73320532 1.1513448 -0.21619245 20
-6.7222281 10.559914 1.5370163 23
-0.71083051 1.1170703 -0.16257372 25
-6.7132249 10.553902 1.9810863 28
-0.67563558 1.0625801 -0.11016486 51
-8.7517376 13.763962 3.1704824 3
-0.68352914 1.0754088 -0.066780686 59
-6.8074484 10.714414 2.9306624 53
-0.69149166 1.0887758 -0.022513606 25
-6.7167888 10.579879 3.3579185 28
-0.89780217 1.4185382 -0.44982749 7
-0.71758521 1.1337932 0.023421129 98
-0.78454268 1.2400644 -0.33877629 45
-0.72805905 1.1512299 0.071386255 100
-0.79834187 1.2628523 -0.29041129 9
-0.72694737 1.1503607 0.11905474 46
-0.72476035 1.1473444 -0.21494098 20
-6.6938043 10.596743 1.5389662 22
-0.70374697 1.1145095 -0.1618425 26
-6.7027054 10.61903 1.9889081 26
-0.67404836 1.0683022 -0.11051348 51
-6.8128881 10.801953 2.482425 1
-0.67425728 1.0694592 -0.066257328 62
-6.7847533 10.765673 2.9378607 75
-0.69408369 1.1013336 -0.022723034 27
-6.697319 10.631048 3.3667183 22
-0.89695507 1.4282072 -0.45189807 6
-0.7187413 1.1448836 0.023595655 100
-0.77170533 1.2297267 -0.33517709 39
-0.71978927 1.1469975 0.070967562 100
-0.74072224 1.1808122 -0.2709488 16
-0.72504407 1.1562674 0.11940337 43
-0.72914422 1.1632571 -0.21744394 19
-6.6738949 10.651484 1.5433534 22
-0.69563657 1.1102304 -0.16086754 26
-6.6813231 10.667476 1.9936011 28
-0.67137271 1.0723372 -0.11068779 52
-8.6603107 13.837885 3.1731539 2
-0.67051977 1.0718064 -0.066257328 57
-6.7583208 10.80298 2.94191 71
-0.68811482 1.1003587 -0.022653224 27
-6.6837239 10.692038 3.378624 24
-0.85440004 1.3705167 -0.43274546 4
-0.71705616 1.1506549 0.023665464 80
-0.765562 1.228971 -0.33427727 39
-0.71492535 1.147683 0.070862897 100
-0.73265171 1.1765957 -0.26942232 26
-0.72647029 1.1671226 0.12027492 58
-0.72110808 1.1589599 -0.21619245 16
-6.6616039 10.710639 1.5487157 22
-0.68670928 1.1041027 -0.15964885 25
-6.6573863 10.708025 1.9970427 26
-0.66991609 1.0779424 -0.11103641 52
-8.6205931 13.87653 3.1754434 1
-0.67328399 1.0842043 -0.06688536 60
-6.7450786 10.861752 2.9518077 70
-0.68024319 1.0958387 -0.022513606 27
-6.6645303 10.740405 3.3869061 23
-0.77869046 1.2583499 -0.39651078 2
-0.71113229 1.1496254 0.023595655 83
-0.7645573 1.2364752 -0.33562699 36
-0.71196514 1.1518704 0.070967562 100
-0.72358447 1.170669 -0.26751423 31
-0.72154832 1.1678305 0.12010061 56
-0.71518511 1.1579834 -0.21556671 20
-6.6479459 10.768145 1.5538343 20
-0.68910587 1.116629 -0.16111128 25
-6.6375966 10.759781 2.0023613 25
-0.65796953 1.0665921 -0.10964192 52
-6.7547197 10.953919 2.5015061 2
-0.67282867 1.0915318 -0.067199372 58
-6.7255216 10.915095 2.9599061 71
-0.67641413 1.0982064 -0.022513606 30
-6.6432009 10.789927 3.3951886 23
-0.7581203 1.2347195 -0.3882286 4
-0.70188504 1.143579 0.023421129 78
-0.76329404 1.2441194 -0.33697668 38
-0.70794034 1.1543485 0.070967562 92
-0.72462583 1.1815554 -0.26942232 31
-0.71330255 1.1635474 0.11940337 42
-0.7018497 1.1453141 -0.2127509 28
-6.6320953 10.826831 1.5589528 22
-0.68416756 1.1173346 -0.16086754 27
-6.620625 10.81658 2.0086186 24
-0.65632302 1.072281 -0.10999054 52
-6.7061977 10.960682 2.4976897 2
-0.66901463 1.0938736 -0.067199372 58
-6.7097435 10.975081 2.9698038 71
-0.67779052 1.1090921 -0.022688128 28
-6.6236219 10.842726 3.4045057 25
-0.73269886 1.2027125 -0.37735817 9
-0.69060868 1.1340665 0.023176797 93
-0.74780017 1.2284659 -0.33202776 36
-0.6997534 1.1499879 0.070548877 100
-0.71743512 1.1790463 -0.26827747 31
-0.71751982 1.1796479 0.12079786 39
-0.69374233 1.1410058 -0.21149944 30
-6.6066313 10.870274 1.5618777 22
-0.6802628 1.1197162 -0.16086754 26
-6.6064081 10.87846 2.0158148 27
-0.65878087 1.0847833 -0.11103641 51
-6.7066073 11.047799 2.5121913 2
-0.66001135 1.0876651 -0.066676013 53
-6.6895823 11.02843 2.9779022 70
-0.68946654 1.1371003 -0.023211701 31
-6.6057615 10.898821 3.4148586 24
-0.66154265 1.0944909 -0.34267643 14
-0.69388425 1.1484512 0.023421129 100
-0.74048537 1.2260643 -0.33067805 38
-0.69676739 1.1541332 0.070653543 100
-0.71433002 1.1832241 -0.26865909 32
-0.71442688 1.1838515 0.12097216 41
-0.68975538 1.1434202 -0.21149944 31
-6.5819745 10.915367 1.5650463 20
-0.67225128 1.1152833 -0.15989259 27
-6.5877666 10.9336 2.0217593 28
-0.65499049 1.0870762 -0.11103641 51
-6.6740828 11.081232 2.5144811 2
-0.65312034 1.0848289 -0.066361994 48
-6.6510477 11.051712 2.9779022 50
-0.69992423 1.1634898 -0.023700368 55
-6.5955558 10.968168 3.4293525 20
-0.60903531 1.0156107 -0.31731215 17
-0.6950115 1.1594424 0.023595655 100
-0.74020785 1.235328 -0.33247766 39
-0.68657655 1.146278 0.070025519 94
-0.70111597 1.1705523 -0.26522452 35
-0.70414901 1.1760817 0.1199263 37
-0.69184679 1.1559907 -0.21337664 31
-6.5642118 10.972347 1.569921 21
-0.66937268 1.1193269 -0.16013633 28
-6.5637531 10.980266 2.0261395 28
-0.65119213 1.0893558 -0.11103641 51
-0.65547454 1.0973903 -0.066990033 48
-6.6284161 11.10163 2.9851005 56
-0.69380927 1.1624916 -0.023630559 76
-6.5691032 11.011033 3.435564 23
-0.58869451 0.98950648 -0.3085123 29
-0.68687183 1.1549863 0.023456035 80
-0.73389935 1.2345543 -0.33157787 45
-0.68665254 1.1555355 0.070444204 100
-0.69903171 1.1763678 -0.26598775 33
-0.69800466 1.1751063 0.11957768 38
-0.68579006 1.1550019 -0.2127509 31
-6.5522165 11.039577 1.5762583 24
-0.66343582 1.118242 -0.15964885 30
-6.5394883 11.026898 2.0305195 28
-0.64535266 1.088195 -0.11068779 51
-6.6145792 11.157954 2.5213501 66
-0.6577493 1.1099811 -0.067618065 47
-6.6055112 11.151529 2.9922991 63
-0.68872857 1.1631856 -0.023595655 75
-6.5444064 11.057171 3.4428113 23
-0.58425516 0.98989147 -0.30799466 33
-0.67572331 1.1453207 0.023211701 81
-0.72364551 1.2270372 -0.32887843 40
-0.68870068 1.1682483 0.071072236 100
-0.69492137 1.1788006 -0.26598775 32
