# .PCD v0.7 - Point Cloud Data file format
VERSION 0.7
FIELDS x y z intensity
SIZE 4 4 4 4
TYPE F F F F
COUNT 1 1 1 1
WIDTH 1368
HEIGHT 1
VIEWPOINT 0 0 0 1 0 0 0
POINTS 1368
DATA ascii
-6.4240527 11.372993 1.6038008 22
-0.6470868 1.1460545 -0.16159877 31
-6.4148755 11.36601 2.0671253 23
-0.63261688 1.1208837 -0.11260521 36
-6.4169478 11.374318 2.538523 26
-0.6131683 1.0873108 -0.06541995 48
-6.4210691 11.390912 3.0188432 28
-0.62826121 1.1149839 -0.022339081 61
-6.4174156 11.393725 3.5038924 24
-0.70287991 1.2514931 -0.38460511 15
-0.63336152 1.1281751 0.022583414 63
-0.51689434 0.92109454 -0.24384695 27
-0.6546703 1.1670855 0.070130184 68
-0.5138588 0.91605985 -0.20416564 36
-0.66846186 1.1921594 0.11957768 37
-0.53409457 0.95291364 -0.17301655 25
-6.3998408 11.423056 1.6077005 23
-0.6469624 1.155234 -0.16257372 26
-6.3954272 11.424528 2.0736954 25
-0.60728979 1.0848376 -0.10877036 29
-6.3925462 11.424059 2.5446289 26
-0.60839438 1.0877012 -0.065315276 53
-6.4059973 11.45748 3.0305407 28
-0.62631673 1.1206611 -0.02240889 70
-6.3945661 11.446412 3.5132098 23
-0.69662708 1.2505635 -0.38356987 8
-0.63039207 1.1321263 0.022618318 78
-0.51651895 0.92800158 -0.24519664 23
-0.64865065 1.1658729 0.069920845 65
-0.51447624 0.92471027 -0.20569211 35
-0.66332769 1.1927445 0.11940337 27
-0.53076476 0.95477235 -0.17301655 25
-6.3763218 11.474823 1.6118441 17
-0.63617831 1.1453379 -0.16086754 18
-6.37852 11.488235 2.0812044 25
-0.58995891 1.062564 -0.10633 34
-6.3678703 11.473771 2.5507348 25
-0.59296685 1.0688605 -0.06405922 53
-6.385807 11.515561 3.0399885 31
-0.62143129 1.1210917 -0.022373985 66
-6.3770394 11.509221 3.5256331 23
-0.70346785 1.273279 -0.3897815 5
-0.62933689 1.1395714 0.022723034 90
-0.50762588 0.91956258 -0.24249724 18
-0.64091957 1.1610236 0.06950216 77
-0.51409048 0.93165743 -0.20683697 35
-0.66589636 1.2072648 0.12062354 18
-0.53219771 0.96526849 -0.17458089 27
-6.3515558 11.524828 1.6157439 16
-0.56321198 1.022364 -0.14331836 7
-6.358501 11.542195 2.0871489 30
-0.58720762 1.0663621 -0.10650431 38
-6.353344 11.542365 2.5610385 23
-0.586344 1.0656741 -0.063745201 59
-6.3605995 11.565101 3.0471869 31
-0.61481941 1.1178896 -0.022269269 70
-6.3630385 11.574319 3.5390918 21
-0.69716209 1.2723386 -0.38874623 4
-0.62939775 1.148667 0.022862652 93
-0.51393521 0.93833238 -0.24699625 14
-0.63302666 1.1562461 0.069083467 85
-0.50518006 0.92311305 -0.20454726 34
-0.67124027 1.2270613 0.12236666 7
-0.52520198 0.96009588 -0.17332941 28
-6.3390141 11.592855 1.6223248 18
-0.54458517 0.99635619 -0.13941854 13
-6.3361692 11.597256 2.0930934 28
-0.57870662 1.0596625 -0.10563275 52
-6.3442006 11.616787 2.5728686 27
-0.58759153 1.0763781 -0.064268559 71
-6.3371506 11.613499 3.0543854 54
-0.60421044 1.1077405 -0.022024937 64
-6.3281436 11.606639 3.5421977 23
-0.69109386 1.2712488 -0.38771093 5
-0.62729412 1.1543709 0.022932461 87
-0.54042149 0.99491835 -0.26139313 12
-0.63300186 1.1653593 0.06950216 84
-0.50117952 0.92305773 -0.20416564 33
-6.3200307 11.644894 1.1591713 20
-0.52373111 0.96539605 -0.17395516 30
-6.3145981 11.644577 1.6264684 20
-0.53921217 0.99476063 -0.13893107 17
-6.2826118 11.590418 2.0880876 34
-0.56854564 1.0493132 -0.10441258 56
-6.2634101 11.564628 2.5564592 33
-0.58953613 1.0889608 -0.064896591 60
-6.2548347 11.558426 3.0341399 54
-0.5995822 1.1079792 -0.021990033 61
-6.2455039 11.545998 3.5173512 44
-0.69031948 1.2804551 -0.3897815 8
-0.61682022 1.1441233 0.022688128 81
-0.65822548 1.2214352 -0.32033029 17
-0.63366634 1.1763535 0.070025519 82
-0.50074685 0.92998725 -0.20531049 32
-6.2274117 11.57039 1.1495842 51
-0.51490986 0.95669079 -0.17207792 28
-6.2270398 11.574551 1.613794 56
-0.53685087 0.99829143 -0.1391748 20
-6.2178006 11.567039 2.079953 68
-0.56299293 1.0477813 -0.10406395 44
-6.2045798 11.54729 2.5480635 55
-0.58403194 1.0873907 -0.064687252 58
-6.2137074 11.573952 3.0327899 61
-0.59760183 1.1135895 -0.022059841 55
-6.202425 11.562619 3.5157981 42
-0.69062477 1.291255 -0.39236969 8
-0.61470801 1.1497966 0.022757938 78
-0.8477568 1.5863745 -0.41525963 7
-0.62882024 1.176687 0.069920845 78
-0.50135994 0.93856955 -0.20683697 29
-6.187129 11.587463 1.1492356 77
-0.50784647 0.95151162 -0.17082645 30
-6.177258 11.578702 1.6113566 50
-0.53056031 0.99490464 -0.13844359 24
-6.1821938 11.592826 2.0808916 54
-0.55482948 1.0408515 -0.1031924 36
-6.1808543 11.600062 2.5549326 39
-0.57272124 1.0753202 -0.063849874 58
-6.2382865 11.717704 3.064733 25
-0.59390593 1.1155649 -0.022059841 55
-6.2711353 11.784363 3.5768793 35
-0.70331156 1.3260844 -0.40220481 6
-0.610892 1.1518285 0.022757938 75
-0.89817113 1.6942037 -0.44270366 6
-0.62190366 1.1735803 0.069606826 82
-0.49991885 0.94378358 -0.20760021 29
-6.2119069 11.732244 1.1614374 25
-0.51393199 0.97064805 -0.17395516 30
-6.2484012 11.806153 1.6401178 20
-0.52540189 0.99314916 -0.13795611 26
-6.2525034 11.823884 2.1184359 25
-0.5521242 1.0445433 -0.10336671 35
-6.2552023 11.833985 2.6018715 23
-0.57101852 1.0807452 -0.06405922 57
-6.2558217 11.845162 3.0926273 27
-0.5900085 1.1176312 -0.022059841 49
-6.235374 11.816432 3.5799851 46
-0.74928188 1.4241511 -0.43119255 6
-0.61059046 1.1610336 0.022897556 72
-0.89678591 1.7059531 -0.44495317 6
-0.61594498 1.1722082 0.069397487 75
-0.49388233 0.94030863 -0.20645534 27
-6.2313304 11.863907 1.1724191 24
-0.51237732 0.97593397 -0.17458089 30
-6.2329774 11.877111 1.6469425 20
-0.5210095 0.9932192 -0.13771236 28
-6.2267833 11.87538 2.1237545 27
-0.54939926 1.048229 -0.10354102 33
-6.2354717 11.902049 2.6117938 25
-0.56334704 1.0757537 -0.063640527 54
-6.2316098 11.899729 3.1011751 30
-0.58053917 1.1090542 -0.021850415 48
-6.1663213 11.785064 3.5639384 49
-0.76460153 1.4662853 -0.44309825 6
-0.60355842 1.157944 0.022792844 70
-0.89592946 1.7195982 -0.44765261 6
-0.61810249 1.1868577 0.070130184 65
-0.49587205 0.95256102 -0.20874506 24
-6.2135673 11.936148 1.1772997 24
-0.51062024 0.98131013 -0.17520662 28
-6.213223 11.945664 1.6532797 20
-0.52286005 1.0056897 -0.1391748 27
-6.1996145 11.929671 2.1293862 23
-0.53269571 1.0254825 -0.10110066 34
-6.2080946 11.956185 2.6186628 24
-0.5575605 1.0742656 -0.063431181 54
-6.2130919 11.970919 3.1137726 33
-0.57278651 1.1040746 -0.021710794 55
-6.098187 11.759564 3.5494444 49
-0.77075201 1.4913888 -0.44982749 6
-0.59655714 1.1548182 0.022688128 72
-0.8860448 1.7159441 -0.44585299 6
-0.62037057 1.2014304 0.070862897 56
-0.49974725 0.96824288 -0.21179798 19
-6.1780019 11.974776 1.1788685 23
-0.50520915 0.97966391 -0.17458089 27
-6.189405 12.007176 1.6586419 21
-0.52298427 1.0145667 -0.14014976 27
-6.1796522 11.993382 2.1368952 23
-0.52820033 1.0255644 -0.10092635 35
-6.1815944 12.007458 2.6251502 22
-0.55380744 1.0762053 -0.063431181 56
-6.1926703 12.034118 3.1245701 31
-0.57441735 1.1167364 -0.021920223 61
-6.0323648 11.732676 3.5349507 50
-0.76580244 1.4939364 -0.44982749 6
-0.58998841 1.1514511 0.022583414 70
-0.87946087 1.7171386 -0.4454031 5
-0.6145618 1.1999258 0.070653543 47
-0.50011253 0.97688496 -0.21332446 16
-6.1627607 12.043088 1.183575 21
-0.49925917 0.97605777 -0.17364228 26
-6.1631112 12.054147 1.662298 18
-0.51780975 1.0127603 -0.13966228 30
-6.1686096 12.070097 2.1469069 28
-0.52932864 1.0361818 -0.10179791 36
-6.1578159 12.059362 2.6320195 21
-0.55023527 1.078036 -0.063431181 56
-6.1757607 12.099719 3.1362674 31
-0.57252878 1.1221976 -0.021990033 61
-5.972363 11.71131 3.5225275 53
-0.76259553 1.4999115 -0.4508628 6
-0.59250885 1.1658801 0.022827748 58
-0.87023175 1.7130957 -0.44360349 5
-0.61036921 1.2020639 0.070653543 21
-0.49598119 0.97678763 -0.21294285 8
-6.1552548 12.127417 1.1898502 25
-0.50138229 0.98827785 -0.1755195 25
-6.1419549 12.111699 1.6674166 16
-0.51247668 1.0110204 -0.1391748 27
-6.1434059 12.125035 2.1528513 25
-0.5312928 1.048595 -0.10284378 38
-6.1417379 12.127007 2.642323 24
-0.54665756 1.0798546 -0.063431181 53
-6.1458077 12.145544 3.1425662 27
-0.57131547 1.1295427 -0.022094747 58
-5.9122677 11.694159 3.5111394 53
-0.75735486 1.5025647 -0.4508628 6
-0.59203428 1.1750848 0.022967368 50
-0.86950529 1.7265662 -0.44630289 6
-6.1209674 12.159613 0.71344382 23
-0.49256873 0.97851282 -0.21294285 4
-6.1325836 12.187985 1.1936851 27
-0.5050298 1.0041399 -0.17802243 24
-6.1201501 12.173856 1.6730225 15
-0.50805283 1.0110296 -0.13893107 26
-6.117887 12.179945 2.1587958 22
-0.5240519 1.0433216 -0.10214653 38
-6.1222754 12.193988 2.652245 25
-0.54825968 1.0924668 -0.06405922 54
-6.1269636 12.213956 3.1547136 27
-0.56109518 1.1190171 -0.021850415 48
-5.8489084 11.669821 3.4976809 49
-0.75037867 1.5017427 -0.44982749 6
-0.59150314 1.1843001 0.023106987 43
-0.86521435 1.7330776 -0.44720268 6
-6.1070256 12.238092 0.71679336 35
-0.99846268 2.0008559 -0.43466291 91
-6.0953403 12.220013 1.1947309 28
-0.49975902 1.0023609 -0.1773967 23
-6.0988712 12.237784 1.6788722 16
-0.50806123 1.0199039 -0.13990602 27
-6.0955811 12.241899 2.1659918 20
-0.52022463 1.0452353 -0.10214653 38
-6.0962963 12.248678 2.6594958 23
-0.54444319 1.0943738 -0.06405922 54
-6.1077161 12.282383 3.1668611 27
-0.55985606 1.1263406 -0.021955127 40
-5.7823467 11.638265 3.4821515 52
-0.74315548 1.5010202 -0.44879225 6
-0.58204222 1.1756048 0.022897556 22
-0.85915905 1.7360874 -0.44720268 6
-6.0881758 12.307672 0.71961951 33
-0.9954738 2.0133014 -0.436571 100
-6.0734596 12.288713 1.199263 25
-0.49608156 1.004186 -0.1773967 22
-6.0789728 12.305274 1.6852095 15
-0.50889236 1.030571 -0.14112473 28
-6.0729241 12.303843 2.1731877 18
-0.5156911 1.045258 -0.10197222 37
-6.0695934 12.307918 2.6675098 19
-0.54219425 1.0999449 -0.064268559 48
-6.0824699 12.34489 3.1772087 25
-0.56210738 1.1408447 -0.022199461 32
-5.7229114 11.62025 3.4707637 32
-0.73876208 1.5053395 -0.44930989 7
-5.7024341 11.624701 0.22600867 6
-0.84850091 1.7304759 -0.44495317 6
-6.0597286 12.363977 0.72160828 30
-0.9918955 2.0238156 -0.43809745 100
-6.0515666 12.352778 1.2034465 23
-0.49431095 1.0094596 -0.17802243 18
-6.050415 12.361347 1.6898406 16
-0.50685668 1.0359954 -0.14161219 25
-6.0503526 12.372154 2.1813223 20
-0.51904184 1.0613705 -0.10336671 36
-6.0447021 12.366068 2.6755238 17
-0.53659809 1.0982418 -0.06405922 48
-6.0581522 12.404572 3.1871064 18
-0.5666948 1.1608672 -0.02254851 19
-5.6879096 11.656772 3.4754221 26
-0.73941797 1.52007 -0.45293337 7
-5.6898055 11.702084 0.22712563 23
-0.84160298 1.7316748 -0.44450328 6
-6.0296211 12.412004 0.72317833 30
-0.98482448 2.027266 -0.43809745 100
-6.0397429 12.438348 1.2097217 25
-0.49509665 1.0200646 -0.17958678 14
-6.0262876 12.421685 1.6952027 16
-0.49804059 1.0270412 -0.14014976 22
-6.0278044 12.435863 2.1888313 21
-0.51707149 1.0667616 -0.10371533 34
-6.0271769 12.440099 2.6869724 19
-0.53276092 1.1001083 -0.06405922 47
-6.0334973 12.46423 3.1970043 24
-6.0191908 12.440211 -0.24122716 8
-5.6513882 11.685252 3.4780104 26
-0.73326868 1.5209013 -0.4524157 7
-0.83724493 1.7381133 -0.4454031 6
-6.0083656 12.473315 0.72558576 31
-0.97263229 2.0200777 -0.43580776 100
-6.0170217 12.502444 1.2139051 27
-0.49752757 1.0342474 -0.18177687 6
-6.0078406 12.494526 1.7022711 19
-0.49807271 1.0358435 -0.14112473 25
-6.0045047 12.49317 2.1954014 24
-0.51507038 1.0721517 -0.10406395 34
-6.0058146 12.507075 2.6968944 21
-0.5323748 1.1091635 -0.064477906 47
-6.0073128 12.515792 3.2051027 25
-5.9969373 12.499767 -0.24199508 24
-5.6126094 11.703927 3.4780104 25
-0.72155589 1.5093811 -0.44827461 7
-5.6436434 11.810908 0.22848691 33
-0.83399564 1.7461556 -0.44675279 6
-5.9910679 12.543635 0.72851658 31
-0.96846604 2.0286071 -0.43695265 100
-5.9798222 12.531318 1.2147768 24
-0.49069315 1.02876 -0.18052539 1
-5.9928536 12.569929 1.7098271 18
-0.50146902 1.0518245 -0.14307462 29
-5.9808908 12.55046 2.2019718 22
-0.50808471 1.0666591 -0.10336671 33
-5.9828701 12.565921 2.7052901 21
-0.53470182 1.1235468 -0.065210611 41
-5.9900632 12.586672 3.2181499 22
-5.9769249 12.564731 -0.24286768 29
-5.5754228 11.725966 3.4790456 24
-0.71571875 1.5100201 -0.44775698 6
-5.6232781 11.869317 0.22925481 43
-0.828201 1.7489115 -0.44675279 6
-5.9669023 12.60599 0.73092401 28
-0.96089309 2.0300331 -0.436571 100
-5.9586802 12.594304 1.2189603 22
-1.1611938 2.4554148 -0.43019485 4
-5.9647131 12.618446 1.7137268 18
-0.50118673 1.0607476 -0.14404957 25
-6.0104332 12.726663 2.2291915 45
-0.50520903 1.0702277 -0.10354102 32
-5.9855876 12.679786 2.7255158 4
-0.53608644 1.1361516 -0.065838635 38
-5.9660382 12.649808 3.2289474 22
-5.9483805 12.618074 -0.24349597 27
-5.5361071 11.748851 3.4800811 26
-0.71428496 1.5213765 -0.45034516 6
-5.6005116 11.928695 0.23002271 21
-0.8154676 1.737679 -0.44315359 6
-5.943222 12.670137 0.73343617 31
-0.95678025 2.0406513 -0.43809745 100
-5.9386864 12.671988 1.2243638 22
-1.153863 2.4632318 -0.43082058 4
-5.9383168 12.67694 1.7188454 20
-0.4974812 1.0624905 -0.14404957 20
-5.9852271 12.788716 2.2363873 41
-0.50737995 1.0846174 -0.1047612 32
-5.9515505 12.728314 2.7312403 1
-0.52515316 1.1236339 -0.065001264 44
-5.9452057 12.72632 3.2428944 25
-5.928 12.689488 -0.24447331 26
-5.4983282 11.775106 3.4821515 27
-0.71141499 1.5291151 -0.45189807 6
-5.9184871 12.727016 0.24499689 27
-0.80909359 1.7406559 -0.44315359 6
-5.9135714 12.728065 0.7355296 33
-0.94882351 2.0421984 -0.43771586 96
-5.9179168 12.743236 1.2292446 22
-1.1444253 2.4654529 -0.43050769 4
-5.9068489 12.731034 1.7232326 20
-0.48940757 1.0553026 -0.14283088 16
-5.9565935 12.849996 2.2432706 41
-0.51532143 1.1116887 -0.10720156 31
-5.9285402 12.795328 2.7411623 1
-0.53297865 1.1508327 -0.066466674 30
-5.9154787 12.77883 3.2509925 25
-5.9016008 12.754688 -0.24531102 24
-5.4591908 11.803946 3.4847398 33
-0.7068814 1.5333436 -0.4524157 6
-5.8957868 12.794818 0.24590442 27
-0.80871969 1.7558595 -0.44630289 6
-5.8916597 12.797611 0.73835576 34
-0.93840563 2.0383644 -0.43618938 94
-5.8950562 12.810874 1.2337767 22
-1.1432419 2.4855845 -0.43332353 4
-5.8889098 12.809289 1.7310323 18
-0.48903665 1.0642196 -0.14380583 8
-5.9265399 12.903021 2.2489021 41
-0.51310068 1.1171019 -0.10755019 37
-5.9149694 12.883742 2.7556636 1
-3.1504266 6.8652887 -0.3958692 3
-5.8903317 12.841912 3.2617903 24
-5.8703794 12.804295 -0.2458695 25
-5.421176 11.829954 3.4868104 26
-0.69831371 1.5287732 -0.45034516 6
-5.8710241 12.858975 0.24674211 24
-0.80258518 1.7586719 -0.44630289 6
-5.8676705 12.863529 0.74097258 31
-0.93128407 2.0416279 -0.43618938 100
-5.8635225 12.86038 1.2365657 21
-1.1296427 2.478775 -0.43144631 4
-5.868022 12.882157 1.7381008 15
-0.48860878 1.0731468 -0.1447808 4
-5.9019227 12.968578 2.2567239 39
-0.50259614 1.1043787 -0.10615569 17
-5.8894672 12.947203 2.7648225 1
-3.1223083 6.8671546 -0.39534587 5
-5.8672414 12.910296 3.2739377 24
-5.8463211 12.870225 -0.24674211 26
-5.3702612 11.827698 3.4805987 31
-0.68978727 1.5241613 -0.44827461 6
-5.8401098 12.910366 0.24733551 22
-0.79563886 1.7596871 -0.44585299 6
-5.8441215 12.931252 0.74369401 30
-0.92496085 2.0466552 -0.436571 100
-5.8399243 12.927977 1.2410978 22
-1.1161064 2.4719009 -0.42956907 4
-5.8401699 12.940557 1.7432193 16
-1.4276435 3.1648233 -0.42629901 4
-5.879355 13.039521 2.2654841 39
-1.9564629 4.339139 -0.41643015 6
-5.8539195 12.989159 2.769402 2
-3.1048822 6.8925791 -0.39618322 4
-5.8485456 12.989335 3.2887845 25
-5.8251624 12.943437 -0.24775437 26
-5.3233976 11.834039 3.4769752 34
-0.68868214 1.5352536 -0.4508628 6
-5.8209939 12.982576 0.24834774 35
-0.78581381 1.7534244 -0.44360349 6
-5.8216157 12.99613 0.74631077 33
-0.91816819 2.0497115 -0.436571 100
-5.8222637 13.003643 1.2465014 23
-1.1087096 2.4773917 -0.42988196 5
-5.8150539 12.999721 1.7485815 17
-1.4171413 3.1695399 -0.42629901 4
-5.8610635 13.114855 2.2751832 40
-1.9421159 4.3477612 -0.41660443 8
-5.9004912 13.209267 2.8121431 3
-3.0754957 6.888247 -0.39534587 4
-5.8252902 13.05315 3.3000321 27
-5.8066435 13.01747 -0.2488015 26
-5.2833347 11.849864 3.4764576 8
-0.68148243 1.5342363 -0.44982749 6
-5.7951193 13.046678 0.24918546 45
-0.77810729 1.7525944 -0.44270366 5
-5.790801 13.049232 0.74819487 30
-0.912242 2.0566521 -0.43733424 100
-5.7987866 13.079538 1.2517307 23
-1.1028237 2.4886625 -0.43113342 6
-5.790554 13.067124 1.7549187 17
-1.3996367 3.1599476 -0.42434907 4
-5.834444 13.178584 2.282692 40
-1.9301536 4.3618016 -0.41730168 8
-5.8504515 13.227213 2.8113799 9
-3.0453813 6.8885136 -0.39471781 3
-5.7908015 13.104712 3.3076804 26
-5.7805696 13.081557 -0.24963923 27
-0.67923456 1.5436789 -0.45189807 5
-5.7706113 13.120914 0.25019771 24
-0.77638429 1.7661382 -0.4454031 5
-5.7677231 13.120559 0.75112569 30
-0.90189779 2.0526345 -0.43580776 100
-5.7675185 13.132535 1.2548684 23
-1.0957185 2.4961143 -0.43175918 5
-5.7641535 13.137342 1.7614996 18
-1.3896408 3.1686921 -0.42483655 4
-5.8074498 13.242286 2.2902007 30
-1.9149151 4.3685131 -0.41730168 8
-5.8507252 13.35365 2.8338952 3
-3.0237222 6.9045897 -0.39503184 3
-5.7684612 13.178404 3.3211775 26
-5.7525082 13.141958 -0.25040713 27
-5.7734909 13.196164 3.8595097 16
-0.67075485 1.5389565 -0.44982749 6
-5.747838 13.18764 0.25110522 24
-0.77519262 1.7794226 -0.4481025 5
-5.7442117 13.191889 0.75405657 31
-0.89472771 2.0557702 -0.43580776 100
-5.7407136 13.196438 1.2590519 26
-1.0858583 2.4961116 -0.43113342 5
-5.7443061 13.210998 1.7688118 18
-1.3886194 3.1951303 -0.42776144 4
-5.7816501 13.309586 2.2983353 11
-1.8933072 4.3605499 -0.4159072 8
-5.8243966 13.414396 2.8426726 1
-3.0016024 6.9164114 -0.39513651 3
-5.744894 13.243942 3.3328748 26
-5.7248974 13.204154 -0.25120994 26
-5.7389178 13.242825 3.8672743 17
-0.66258413 1.5340782 -0.44775698 7
-5.7192097 13.248013 0.25187314 24
-0.76588863 1.7749604 -0.44630289 5
-5.7250237 13.274212 0.75761539 34
-0.88790601 2.0587256 -0.43580776 100
-5.7197967 13.268458 1.2641069 25
-1.0724492 2.4890015 -0.42925623 5
-5.7177892 13.276548 1.7749053 18
-1.374319 3.1926644 -0.42678648 4
-5.7710648 13.413157 2.3127275 3
-1.8756858 4.3594842 -0.41520998 8
-5.7977057 13.481537 2.8525946 1
-2.9750767 6.9213414 -0.39482248 3
-5.7263188 13.328374 3.3490713 26
-5.700079 13.273668 -0.25215238 25
-5.715519 13.316031 3.8828034 19
-0.66026396 1.5434866 -0.44982749 7
-5.6965117 13.323058 0.25292027 26
-0.75815612 1.7740394 -0.4454031 5
-5.6959105 13.334525 0.75991815 28
-0.88148499 2.0636179 -0.43618938 94
-5.6953478 13.339652 1.2689875 23
-1.0653044 2.4963641 -0.42988196 5
-5.6893196 13.338423 1.7805113 18
-1.3569372 3.1828341 -0.42483655 4
-5.7675776 13.534986 2.3302481 2
-1.864363 4.3751693 -0.41608149 8
-5.7567616 13.516143 2.8556476 3
-2.941509 6.9096336 -0.39356643 3
-5.6973114 13.389524 3.3594191 24
-5.6795335 13.354211 -0.25330424 26
-5.6909161 13.387462 3.897815 17
-0.65788686 1.5528971 -0.45189807 7
-5.6718063 13.39442 0.25389761 21
-0.75271887 1.7784696 -0.44585299 6
-5.6680074 13.398471 0.76243031 27
-0.87427664 2.0666821 -0.43618938 94
-5.6704779 13.410833 1.2738683 22
-1.0550466 2.496428 -0.42925623 5
-5.6620388 13.403916 1.7866048 17
-1.3473638 3.1912086 -0.42532405 4
-5.713387 13.538655 2.3274322 41
-1.8506298 4.3853211 -0.41643015 8
-2.9173734 6.9198589 -0.39356643 3
-5.6641617 13.441651 3.3675172 26
-5.6553965 13.427398 -0.25431648 27
-5.6681323 13.464223 3.9143794 15
-0.64947301 1.5480582 -0.44982749 7
-5.6489854 13.471306 0.25497967 26
-0.74424589 1.7756946 -0.44450328 6
-5.6435862 13.471596 0.76546574 33
-0.86402333 2.0624781 -0.43466291 91
-5.6451735 13.482004 1.2787491 23
-1.0554768 2.5219626 -0.43301064 5
-5.6412654 13.485863 1.7948918 17
-1.3316209 3.1849039 -0.42386162 4
-5.699604 13.638713 2.3411984 3
-1.8322369 4.3844018 -0.41573292 8
-2.893199 6.9300008 -0.39356643 4
-5.6419687 13.520691 3.382364 26
-5.6238837 13.483971 -0.25501457 26
-5.6411719 13.532069 3.9283555 18
-0.6425826 1.5467479 -0.44879225 6
-5.6241693 13.544498 0.25599191 26
-0.74103147 1.785481 -0.44630289 6
-5.6156559 13.537335 0.76808256 29
-0.85757047 2.0672953 -0.43504456 92
-5.616395 13.545796 1.2829325 23
-1.0421301 2.5146821 -0.43113342 5
-5.621501 13.571498 1.8036665 17
-1.3280894 3.2078736 -0.42629901 3
-5.696527 13.766215 2.3596578 2
-1.8123513 4.3797245 -0.41468704 8
-5.7049522 13.79339 2.9014416 4
-2.8735709 6.9511318 -0.39419448 3
-5.616323 13.592533 3.3954113 26
-5.5951037 13.547877 -0.25585228 26
-5.6115956 13.594534 3.940779 17
-0.63570929 1.5454085 -0.44775698 6
-5.594348 13.606585 0.25679472 22
-0.73405409 1.7862542 -0.44585299 6
-5.594923 13.621518 0.77174604 29
-0.85482401 2.0811727 -0.43733424 77
-5.5864835 13.60771 1.2869416 23
-1.0303469 2.5109944 -0.42988196 5
-5.5861411 13.620424 1.8075663 16
-1.3168844 3.2124896 -0.42629901 3
-5.672401 13.84451 2.3696697 3
-1.7940292 4.3786497 -0.41398975 8
-5.6716461 13.849557 2.9090741 4
-2.8439946 6.9481797 -0.39346173 5
-5.5917125 13.667969 3.4093583 22
-5.5719948 13.626557 -0.25696924 28
-5.584568 13.664112 3.9552727 15
-0.63031125 1.547618 -0.44775698 6
-5.5618935 13.663074 0.25749281 22
-0.72414184 1.7797805 -0.44360349 5
-5.5661535 13.687218 0.77436286 29
-0.84755456 2.0841436 -0.43733424 77
-5.5622034 13.684346 1.2923454 21
-1.0208313 2.5127456 -0.42956907 6
-5.5579839 13.68766 1.8139035 17
-1.3026758 3.2097099 -0.42532405 3
-5.6492896 13.926462 2.3803072 3
-1.779484 4.3867316 -0.4141641 8
-5.6439257 13.920213 2.9197595 4
-2.8182216 6.9543643 -0.3932524 4
-5.5659194 13.74159 3.4228551 27
-5.5544138 13.720065 -0.25836542 24
-5.558579 13.737246 3.9708021 16
-0.62996256 1.5623505 -0.45138043 6
-5.5403314 13.747319 0.25871447 24
-0.71646899 1.778682 -0.44270366 5
-5.536993 13.752881 0.77697968 29
-0.83660865 2.0779831 -0.43542615 93
-5.534481 13.753587 1.2970518 20
-1.0113175 2.5144608 -0.42925623 6
-5.5294251 13.754864 1.8202407 17
-1.2877625 3.2050278 -0.42410538 4
-5.6241961 14.004758 2.3903189 3
-1.7649019 4.3947659 -0.41433838 8
-5.6230936 14.009063 2.9342608 4
-2.7939272 6.96416 -0.3932524 5
-5.5367713 13.807962 3.4345527 27
-5.5250888 13.785772 -0.25923806 20
-5.5335774 13.813952 3.9873664 17
-0.62164003 1.5573633 -0.44930989 6
-5.5197239 13.835299 0.26000595 24
-0.71386445 1.790223 -0.44495317 6
-5.5103936 13.825931 0.78001517 32
-0.82353461 2.0663011 -0.4323732 88
-5.5085607 13.828348 1.302281 20
-1.0069177 2.5289874 -0.43113342 6
-5.508532 13.842328 1.829259 17
-1.2758341 3.2076588 -0.42386162 7
-5.5971718 14.079372 2.3997049 3
-1.7502875 4.4027505 -0.41451269 10
-5.5930037 14.076043 2.9441829 4
-2.7666538 6.9664445 -0.39283374 4
-5.5072351 13.874298 3.4462502 26
-5.4916792 13.842153 -0.25993615 15
-5.5066891 13.887056 4.0028954 16
-0.61265081 1.5505402 -0.44672167 6
-5.4860892 13.891678 0.26070404 24
-0.70904237 1.7963291 -0.44585299 6
-5.482625 13.897102 0.78294599 27
-0.82208121 2.0837731 -0.43542615 93
-5.4770699 13.890122 1.3062903 20
-0.99736011 2.5306489 -0.43082058 6
-5.4812737 13.915034 1.8363274 16
-1.267539 3.2194808 -0.42483655 4
-5.5385909 14.074926 2.3956378 27
-1.7298024 4.3958549 -0.41329253 10
-5.5402384 14.086348 2.9422748 27
-2.7452435 6.9834943 -0.3932524 4
-5.483716 13.956918 3.4619966 26
-5.460866 13.90591 -0.26077387 14
-5.4779472 13.956546 4.0173893 14
-0.60864151 1.5562677 -0.44775698 7
-5.4564896 13.959169 0.26161158 24
-0.70134974 1.7951628 -0.44495317 6
-5.4612246 13.978456 0.78650481 29
-0.81551605 2.088459 -0.43580776 100
-5.4517274 13.968552 1.3118682 22
-0.98349577 2.5212326 -0.4286305 5
-5.4543033 13.989565 1.8436395 17
-1.2548509 3.2201867 -0.42434907 4
-5.539937 14.216535 2.4166 40
-1.7173386 4.4092927 -0.41398975 10
-5.5287833 14.202565 2.9625006 23
-2.7179511 6.98559 -0.39283374 6
-5.4582682 14.035912 3.4768434 26
-5.4371929 13.981717 -0.2618559 15
-5.4512281 14.025054 4.0318832 16
-0.60529774 1.5637875 -0.44930989 7
-5.4318275 14.033133 0.26265872 24
-0.69047058 1.7847567 -0.44180387 6
-5.4347234 14.055184 0.78974968 27
-0.80963689 2.0949554 -0.436571 100
-5.4273462 14.050685 1.3177948 22
-0.97441709 2.5226376 -0.42831761 6
-5.4271894 14.057576 1.8502206 15
-1.2463099 3.2298861 -0.4250803 4
-7.0391321 18.251812 3.0983415 24
-1.7048043 4.4226966 -0.41468704 10
-2.6919005 6.9871087 -0.39241502 5
-5.4327044 14.108491 3.4903405 26
-5.4170876 14.075259 -0.26325211 16
-5.4244356 14.101694 4.0484476 16
-0.59803426 1.5603746 -0.44775698 7
-5.4078488 14.117365 0.2638804 22
-0.68702382 1.7944354 -0.44360349 6
-5.4041829 14.12257 0.79247117 27
-0.80198306 2.0957954 -0.43618938 94
-5.4020777 14.124432 1.3230242 23
-0.96842617 2.5334044 -0.42956907 6
-5.3972111 14.126504 1.8568015 14
-1.2321945 3.2267992 -0.42410538 4
-1.6950353 4.4435129 -0.41608149 10
-5.5201468 14.470994 3.0105846 4
-2.6646464 6.9889984 -0.39199635 5
-5.4000735 14.171075 3.5011382 22
-5.3885598 14.148278 -0.26426435 12
-5.4012909 14.189151 4.0681176 14
-0.59505051 1.5697815 -0.44982749 7
-5.3805065 14.194122 0.26496243 24
-0.6821363 1.8004675 -0.44450328 6
-5.3718309 14.186174 0.79498327 26
-0.79151696 2.0913758 -0.43466291 91
-5.3728266 14.203772 1.3286021 23
-0.96123058 2.54248 -0.43050769 6
-5.3724408 14.210245 1.8653324 15
-1.220924 3.2310805 -0.42410538 4
-1.6788117 4.4475389 -0.4159072 10
-2.6361954 6.9912424 -0.39157766 6
-5.3707805 14.250948 3.515985 24
-4.587389 12.17228 -0.2270558 8
-5.3687558 14.253114 4.081059 15
-0.58685386 1.5646138 -0.44775698 7
-5.350904 14.273665 0.2660794 24
-0.67621678 1.8047802 -0.44495317 6
-5.3517141 14.28339 0.79937947 27
-0.78145736 2.0867722 -0.43313646 89
-5.3399711 14.267224 1.3327856 23
-0.94958192 2.5384188 -0.42925623 5
-5.3474307 14.302358 1.8748381 16
-1.2069879 3.2299554 -0.42337415 4
-5.3872299 14.416477 2.4375622 47
-1.6507299 4.419775 -0.41276959 8
-5.3869309 14.431035 2.994175 34
-2.6159623 7.0116296 -0.39220569 6
-5.3441544 14.331689 3.5312817 26
-4.5490665 12.199461 -0.22726524 18
-5.3425794 14.335126 4.0991759 15
-0.57802773 1.5575972 -0.44516876 7
-5.3202424 14.336326 0.26691711 24
-0.66887236 1.8033588 -0.44405338 6
-5.3233404 14.36004 0.80262429 29
-0.77485085 2.0913279 -0.43351805 100
-5.3081288 14.334354 1.3373177 23
-0.9404723 2.5397017 -0.42894334 5
-5.3172011 14.366553 1.8809316 15
-1.2017806 3.2488344 -0.42532405 4
-5.3430424 14.451867 2.440378 30
-1.6159544 4.3731818 -0.40788889 10
-5.330883 14.42672 2.9895957 21
-2.5850868 6.9996562 -0.3910543 6
-5.3208885 14.415146 3.547478 26
-4.4912248 12.173993 -0.22649734 25
-5.3105564 14.402627 4.1131525 15
-0.57752174 1.5721992 -0.44879225 7
-5.2901559 14.409246 0.26792935 37
-0.66123116 1.8020235 -0.44315359 6
-5.2896829 14.423538 0.80513644 28
-0.77061486 2.101259 -0.43504456 100
-5.2886806 14.428575 1.3444644 22
-0.92888391 2.5355496 -0.42769188 4
-5.2833967 14.429765 1.8867813 15
-1.189069 3.2492807 -0.42483655 4
-5.2878165 14.457443 2.4381878 20
-1.6199225 4.4290371 -0.41259527 8
-5.2825103 14.450773 2.9907403 16
-2.5613244 7.0105128 -0.39115897 6
-5.2879205 14.481225 3.5591755 21
-4.445271 12.180204 -0.2263228 34
-5.285408 14.49004 4.1328225 15
-0.57466966 1.5814682 -0.4508628 7
-5.2616658 14.487772 0.26904631 54
-0.65427238 1.8024887 -0.44270366 6
-5.2611027 14.501996 0.80848593 29
-0.7639454 2.1057816 -0.43542615 100
-5.2600126 14.506887 1.3500425 20
-0.92406493 2.5499198 -0.42956907 4
-5.2559829 14.511578 1.8950685 15
-1.1716375 3.2366128 -0.42264292 4
-5.2568045 14.529683 2.4472611 17
-1.6119076 4.4552746 -0.41451269 8
-5.2554049 14.533742 3.004097 16
-2.5327628 7.0081415 -0.39053094 6
-5.2591825 14.560081 3.5740223 21
-4.3905072 12.16179 -0.22569451 31
-5.2610188 14.58109 4.1535282 17
-0.56849277 1.5816464 -0.45034516 7
-5.2340517 14.570037 0.27023306 24
-0.64929307 1.80843 -0.44360349 6
-5.232039 14.580426 0.81183547 29
-0.75128585 2.093652 -0.4323732 100
-5.2301965 14.583298 1.3554461 20
-0.91449243 2.5512702 -0.42925623 5
-5.2307391 14.600848 1.9043305 15
-1.1610024 3.2425518 -0.42288667 4
-5.2233624 14.5963 2.4553957 17
-1.5950044 4.4571223 -0.4141641 8
-5.2251391 14.609303 3.0159271 15
-2.5096271 7.0207019 -0.39074031 6
-5.2266874 14.629733 3.5866196 19
-4.3265128 12.116777 -0.22457758 32
-5.2295651 14.653952 4.1690574 16
-0.55908531 1.5726998 -0.44723931 7
-5.2039175 14.646629 0.2713151 22
-0.64558446 1.8180312 -0.4454031 6
-5.2024841 14.658834 0.81518495 28
-0.74528587 2.0999625 -0.43313646 100
-5.1985703 14.655921 1.3605011 15
-0.9069007 2.5581708 -0.42988196 5
-5.2016149 14.680765 1.9123739 14
-1.1510012 3.2503273 -0.42337415 4
-5.1934657 14.674035 2.4654076 18
-1.5800999 4.464541 -0.41433838 8
-5.1970224 14.692236 3.0292838 16
-2.4864378 7.0331845 -0.39094964 6
-5.2009034 14.719549 3.6041658 26
-4.2855196 12.135579 -0.22464737 21
-5.1944585 14.717659 4.1819983 14
-0.55551469 1.5801091 -0.44879225 7
-5.1752949 14.728852 0.27250186 26
-0.63794339 1.8165962 -0.44450328 6
-5.1790671 14.756056 0.81958115 29
-0.73925185 2.106256 -0.4338997 90
-5.1704659 14.739779 1.3666019 20
-0.8940447 2.5501356 -0.42800474 5
-5.1713467 14.758781 1.9201735 14
-1.139649 3.2543249 -0.42337415 4
-5.1657076 14.759194 2.4766707 18
-1.564507 4.4700294 -0.41433838 8
-5.1638594 14.762175 3.0399692 16
-2.4605556 7.0380507 -0.39074031 5
-5.1719923 14.802001 3.6199124 15
-4.2207193 12.086274 -0.22346061 42
-5.1653366 14.799539 4.2001157 16
-0.54872656 1.5783894 -0.44775698 7
-5.1474733 14.81483 0.27375844 24
-0.62776315 1.8077663 -0.44180387 6
-5.1491337 14.836311 0.82303536 29
-0.73640054 2.1218069 -0.436571 95
-5.1424847 14.825505 1.3728772 20
-0.88513821 2.5532408 -0.42800474 5
-5.1386404 14.831141 1.927242 15
-1.1282816 3.2582836 -0.42337415 4
-5.1387105 14.848072 2.4885597 17
-1.5482436 4.4735804 -0.4141641 8
-5.1321888 14.837628 3.0517991 15
-2.4314034 7.0333829 -0.39000759 5
-5.1425686 14.884429 3.635659 21
-4.1745853 12.089594 -0.22325119 34
-5.1375895 14.886873 4.2197857 15
-0.54572594 1.5876027 -0.44982749 6
-5.1139235 14.88566 0.27473578 20
-0.62271422 1.8136331 -0.44270366 6
-5.112227 14.897643 0.82544273 28
-0.72389215 2.1095085 -0.43351805 90
-5.1126814 14.907441 1.3788038 20
-0.87878174 2.5637898 -0.42925623 5
-5.1054983 14.903446 1.9343103 14
-1.1156158 3.258446 -0.42288667 4
-5.1085896 14.929465 2.4991972 20
-1.5358423 4.4883828 -0.41503564 7
-5.1070495 14.933473 3.0678272 14
-2.4055471 7.0380473 -0.38979825 5
-5.1075854 14.952084 3.6478064 24
-4.1310697 12.100307 -0.22318138 32
-5.1099257 14.976021 4.2399735 14
-0.54080278 1.5913271 -0.45034516 7
-5.0889459 14.982945 0.27620178 24
-0.61700565 1.8176411 -0.44315359 6
-5.082655 14.981595 0.82910633 29
-0.71400166 2.1045859 -0.43199161 87
-5.0868473 15.002558 1.3859506 22
-0.87109435 2.5705841 -0.42988196 5
-5.0795555 14.998265 1.9443036 15
-1.1029626 3.2585595 -0.42239916 4
-5.0817614 15.022058 2.5117123 22
-1.5214413 4.4974918 -0.41538426 7
-5.0775309 15.018161 3.0815656 15
-2.3835206 7.0539703 -0.39021692 5
-5.0802979 15.043674 3.6658025 22
-4.0574746 12.021812 -0.22147104 26
-5.077991 15.054174 4.2570558 16
-0.53155291 1.5822176 -0.44723931 7
-5.058888 15.066969 0.27742347 22
-0.61375725 1.8290212 -0.4454031 6
-5.0519166 15.063628 0.83266515 29
-0.70852321 2.1126497 -0.43313646 89
-5.0496407 15.065563 1.3901341 22
-0.85897934 2.5642433 -0.42831761 4
-5.051115 15.087437 1.9535657 16
-1.0915806 3.2623897 -0.42239916 4
-1.5019428 4.4914374 -0.41433838 8
-5.0449858 15.095379 3.0937772 15
-2.3614156 7.0698242 -0.39063561 6
-5.048121 15.122314 3.6806493 24
-4.0104198 12.020728 -0.22119181 33
-5.0468025 15.135952 4.2751732 14
-0.52420056 1.5785631 -0.44568643 6
-5.0239034 15.137676 0.27840078 20
-0.60675597 1.8293027 -0.44495317 6
-5.0225596 15.151316 0.83653802 30
-0.70423347 2.1244273 -0.43504456 74
-5.0139422 15.134163 1.3948406 21
-0.84691918 2.5578494 -0.42675328 5
-5.0196261 15.169051 1.9618529 15
-1.08268 3.2737191 -0.42337415 4
-1.487507 4.5004363 -0.41468704 8
-5.0119638 15.172551 3.1059887 15
-2.3329673 7.0666442 -0.39000759 6
-5.0227833 15.22312 3.7008948 22
-3.9590387 12.006168 -0.22066824 30
-5.0102582 15.203015 4.2891493 13
-0.52230126 1.5913966 -0.44879225 6
-4.9922185 15.219725 0.27958754 23
-0.59672409 1.8202989 -0.44225377 7
-4.992023 15.237084 0.84030622 30
-0.69620174 2.1250072 -0.43466291 91
-4.9920788 15.246247 1.403556 22
-0.83675611 2.5570357 -0.42612755 5
-4.9839191 15.239312 1.9686776 15
-1.0663114 3.2623837 -0.42142424 4
-5.0701609 15.521349 2.586175 1
-1.4705499 4.5018134 -0.41433838 7
-4.9809089 15.257141 3.1197271 14
-2.3064256 7.0690494 -0.38969359 6
-4.9871292 15.294288 3.7139418 19
-3.9524248 12.128287 -0.2226578 27
-4.9822898 15.297561 4.3108902 16
-0.51793545 1.5968851 -0.44982749 6
-4.9600291 15.301733 0.28077433 23
-0.58916563 1.818663 -0.44135398 7
-4.9597244 15.31902 0.84386504 30
-0.69059443 2.1330278 -0.43580776 100
-4.9584599 15.32424 1.409134 21
-0.830257 2.5674589 -0.42737901 5
-4.9551148 15.33217 1.9784272 14
-1.0549177 3.2660856 -0.42142424 4
-5.0499282 15.644226 2.6036956 1
-1.4560497 4.5107121 -0.41468704 7
-4.9505296 15.345435 3.1342287 15
-2.2774475 7.0637503 -0.38896087 6
-4.9534316 15.372816 3.7287886 21
-3.9039381 12.122974 -0.22230875 33
-4.952538 15.388417 4.3315954 11
-0.51117849 1.5950041 -0.44879225 6
-4.9309888 15.395129 0.2821705 21
-0.58518964 1.8281326 -0.44315359 6
-4.9277697 15.394354 0.84710985 26
-0.6765638 2.1148565 -0.43160996 86
-4.9273906 15.411668 1.4155835 16
-0.82249159 2.5741048 -0.42800474 5
-4.9220924 15.413668 1.9867141 14
-1.045288 3.2733481 -0.42191169 3
-5.0208545 15.732392 2.6155846 1
-1.4402964 4.5157671 -0.41468704 7
-4.9231639 15.444924 3.1510198 16
-2.2539871 7.0754638 -0.3891702 6
-4.9260893 15.463428 3.7467847 22
-3.8236737 12.010096 -0.22000504 27
-4.9231496 15.472872 4.3507485 14
-0.50121886 1.5819573 -0.44465113 6
-4.9034472 15.485746 0.28353179 21
-0.58206421 1.8393526 -0.4454031 6
-4.901402 15.488681 0.85140145 28
-0.67132342 2.122704 -0.43275481 71
-4.8942652 15.484917 1.4208128 16
-0.81454659 2.5787017 -0.42831761 4
-4.8990417 15.518877 1.9981698 15
-1.0356233 3.2805824 -0.42239916 3
-1.4217199 4.5091166 -0.41364115 7
-4.8913941 15.522959 3.1636131 13
-2.2299132 7.0809941 -0.38906553 6
-4.8976154 15.552168 3.7643311 19
-3.7520111 11.921613 -0.21815509 37
-4.8944206 15.56098 4.3709359 14
-0.49712449 1.587298 -0.44568643 6
-4.8711853 15.562991 0.28464878 21
-0.57479829 1.8375527 -0.44450328 6
-4.8723321 15.585761 0.85579765 28
-0.6677947 2.1361618 -0.43504456 74
-4.8642817 15.569525 1.4270881 16
-0.80187017 2.5681896 -0.42612755 5
-4.8658791 15.593782 2.0057259 14
-1.0253483 3.2879674 -0.42288667 3
-4.9377489 15.843526 2.628412 5
-1.4055746 4.5100017 -0.41329253 7
-4.8591533 15.600951 3.1762066 14
-2.2093887 7.0978842 -0.38958889 5
-4.8681855 15.649186 3.7836769 24
-3.6961229 11.888809 -0.21731737 32
-4.8601308 15.642543 4.3890533 13
-0.49329391 1.5945601 -0.44723931 6
-4.8374996 15.646767 0.28587043 21
-0.5655036 1.8302387 -0.44225377 6
-4.8332219 15.652289 0.85851914 24
-0.65917599 2.134728 -0.43428129 91
-4.8363371 15.672081 1.4349321 21
-0.79464638 2.5766358 -0.42706612 4
-4.8289609 15.667583 2.0130382 15
-1.0132796 3.2896295 -0.42264292 3
-4.9074011 15.94185 2.6418655 2
-1.3927529 4.5244021 -0.4141641 8
-4.8266063 15.689122 3.1907082 15
-2.1757932 7.0769176 -0.38801882 5
-4.8347101 15.735004 3.8003232 22
-3.6575382 11.911196 -0.21749189 27
-4.8276052 15.731438 4.4092417 14
-0.48998314 1.6036624 -0.44930989 6
-4.7997923 15.719022 0.28688267 17
-0.55911183 1.8322014 -0.44225377 6
-4.804194 15.753121 0.86312467 30
-0.65077555 2.1352515 -0.4338997 90
-4.8030972 15.759383 1.4413816 19
-0.78564787 2.5793936 -0.42706612 4
-4.7973676 15.760307 2.0227876 14
-0.9983232 3.2817516 -0.42118049 3
-4.8534431 15.964554 2.6428041 9
-1.3796368 4.5409145 -0.41520998 8
-4.7924523 15.783731 3.2063546 11
-2.1544778 7.1001348 -0.3888562 4
-4.7967262 15.807729 3.8138201 20
-3.5880854 11.832034 -0.21581645 33
-4.7973118 15.829542 4.4320173 14
-0.48242858 1.5998989 -0.44775698 6
-4.7006001 15.598653 0.2843695 46
-0.5523923 1.8342384 -0.44225377 6
-4.7654142 15.833738 0.86657882 24
-0.64181358 2.1338625 -0.43313646 89
-4.7659588 15.845569 1.4476569 18
-0.77732533 2.58604 -0.42769188 4
-4.7624106 15.853831 2.0325372 10
-0.98743057 3.289191 -0.42166796 3
-4.7931981 15.976558 2.6418655 34
-1.3624109 4.5440321 -0.41503564 7
-4.7593675 15.883935 3.2231457 12
-2.1261499 7.1003304 -0.38843751 5
-4.7627974 15.905479 3.8331659 24
-3.5441184 11.843191 -0.21578155 31
-4.7602987 15.91735 4.4516878 14
-0.47435805 1.5942497 -0.44568643 6
-4.6399803 15.604276 0.28416011 31
-0.54622126 1.8381186 -0.44270366 5
-4.7328753 15.926854 0.87076569 24
-0.63212585 2.1285613 -0.43160996 86
-4.7276864 15.929783 1.4537578 21
-0.76615727 2.5831897 -0.42675328 4
-4.7302246 15.958727 2.0437491 13
-0.97368735 3.2850049 -0.42069301 3
-1.3425832 4.535387 -0.41381544 6
-4.7250605 15.971991 3.2376471 11
-2.1036155 7.1153698 -0.3888562 5
-4.7310009 16.002365 3.8525119 20
-3.4931266 11.822888 -0.21518818 28
-4.7233119 15.996864 4.4692879 14
-0.46797866 1.5921072 -0.44465113 5
-4.5572147 15.51405 0.28224033 14
-0.54341573 1.8511391 -0.4454031 5
-4.7059078 16.030619 0.87558067 26
-0.62837923 2.1419494 -0.4338997 90
-4.6950254 16.0142 1.4600329 21
-0.7553646 2.5781338 -0.42550179 4
-4.6984701 16.046721 2.0530112 13
-0.96836573 3.3072667 -0.42313039 3
-4.7730975 16.312155 2.6919246 4
-1.3275347 4.5398145 -0.41381544 6
-4.6896873 16.047876 3.2498591 13
-2.0788901 7.1184721 -0.38864684 5
-4.7003098 16.094658 3.8709576 22
-3.4331691 11.763382 -0.21389669 41
-4.6897058 16.079205 4.4879222 12
-0.46377411 1.5973608 -0.44568643 5
-4.4879079 15.467624 0.28112337 48
-0.53239024 1.836086 -0.44135398 4
-4.6677132 16.108334 0.87893015 24
-0.62345886 2.1515639 -0.43542615 93
-4.6640577 16.106232 1.4670054 17
-0.74790972 2.5844195 -0.42612755 4
-4.6612282 16.117516 2.0600796 11
-0.95516241 3.3049054 -0.42239916 4
-4.7424431 16.419809 2.7069423 2
-1.3168967 4.559505 -0.41520998 5
-4.6593137 16.142559 3.265887 13
-2.0508461 7.1099744 -0.38780949 4
-4.666234 16.187738 3.8894038 20
-3.3859994 11.754155 -0.21351273 28
-4.6592073 16.184586 4.5127692 11
-0.46298531 1.6156838 -0.45034516 6
-4.4449019 15.521643 0.28182146 46
-0.5275858 1.8435539 -0.44270366 4
-4.6361651 16.210941 0.88364035 28
-0.61378491 2.1461771 -0.4338997 90
-4.6340923 16.214369 1.4753724 17
-0.7405107 2.5927126 -0.42706612 4
-4.6278176 16.21386 2.0703166 12
-0.94253045 3.3044019 -0.42191169 4
-4.699173 16.485659 2.7150769 3
-1.3004254 4.5621581 -0.41503564 7
-4.6265988 16.241806 3.2826781 10
-2.0227323 7.1055646 -0.38718143 5
-4.6267586 16.263908 3.9038005 18
-3.3427591 11.758211 -0.21337312 36
-4.6259093 16.282516 4.5355449 11
-0.45629087 1.6135722 -0.44930989 6
-4.4086356 15.600566 0.28297332 44
-0.52114779 1.8453841 -0.44270366 5
-4.597455 16.290457 0.88709456 26
-0.60202414 2.1331909 -0.43084675 85
-4.5969296 16.299479 1.4816475 14
-0.7314564 2.5952814 -0.42706612 4
-4.5937991 16.310165 2.0805535 10
-0.92722619 3.2942958 -0.42020553 4
-4.6629968 16.578022 2.7275918 3
-1.2839541 4.5647511 -0.41486132 6
-4.5953798 16.348576 3.3009958 13
-2.0016994 7.1260414 -0.38791415 6
-4.592083 16.358761 3.9226966 18
-3.2849538 11.71012 -0.21229108 32
-4.5899067 16.372971 4.5562506 12
-0.44702172 1.6021297 -0.44568643 6
-4.3745575 15.689057 0.2842997 48
-0.51679569 1.8547008 -0.44450328 5
-4.5619965 16.383366 0.89128143 24
-0.59510136 2.1371703 -0.43122834 86
-4.5613661 16.392202 1.4886199 14
-0.72345185 2.6016254 -0.42769188 4
-4.5634084 16.421734 2.0927405 11
-0.91625148 3.2994251 -0.42044926 4
-4.6294026 16.681757 2.7419839 4
-1.2669477 4.5653653 -0.41451269 6
-4.5603161 16.443975 3.3170238 12
-1.980011 7.1445341 -0.38854218 6
-4.5578413 16.457325 3.9424922 16
-3.237654 11.698389 -0.21187221 31
-4.5528059 16.461512 4.5764384 11
-0.4414261 1.6036804 -0.44568643 6
-4.334619 15.758219 0.28527704 42
-0.51031792 1.8564936 -0.44450328 5
-4.5312281 16.495489 0.89651501 24
-0.58711702 2.1373417 -0.43084675 85
-4.5252194 16.48488 1.4955926 16
-0.71227503 2.5965149 -0.42644039 4
-4.5254798 16.508396 2.1017587 10
-0.90892535 3.3179195 -0.42239916 4
-3.461736 12.645299 2.0765114 8
-1.2483724 4.5601521 -0.41364115 7
-4.5184326 16.516603 3.3284721 11
-1.9503212 7.1340623 -0.38760012 6
-4.5286083 16.576529 3.967237 18
-3.1957486 11.705761 -0.21180241 31
-4.5161667 16.553715 4.5976615 12
-0.43886292 1.6163976 -0.44879225 6
-4.303153 15.8601 0.28684777 44
-0.49975431 1.8432171 -0.44090405 5
-4.4960837 16.594099 0.90101594 26
-0.58376056 2.1545374 -0.4338997 90
-4.489522 16.581347 1.5029136 14
-0.70423824 2.6027992 -0.42706612 4
-4.4870014 16.594995 2.1107774 10
-0.89526767 3.3134065 -0.42142424 4
-3.480907 12.891878 2.1149943 23
-1.2314069 4.5606356 -0.41329253 7
-4.4827476 16.613781 3.3448818 11
-1.9222888 7.1292567 -0.3869721 6
-4.4894719 16.661856 3.9838831 20
-3.1351137 11.64347 -0.21047603 33
-4.4844613 16.666384 4.6245785 12
-0.43371719 1.6197858 -0.44930989 7
-4.2720542 15.965815 0.28848827 42
-0.49432442 1.8487155 -0.44180387 5
-4.4587502 16.686874 0.90520281 28
-0.57674247 2.1584587 -0.43428129 100
-4.4567962 16.69124 1.5114548 19
-0.69209349 2.5937901 -0.42518893 4
-4.4505224 16.691118 2.1210144 12
-0.87960654 3.3011661 -0.4194743 4
-4.4941001 16.878212 2.7663872 30
-1.2185566 4.5764575 -0.41433838 7
-3.3292692 12.512312 2.5167708 9
-1.8973894 7.1359239 -0.3869721 6
-4.4488025 16.743343 3.9996297 18
-3.0846982 11.61762 -0.20981283 27
-4.4485478 16.765963 4.6478724 13
-0.42608815 1.6138184 -0.44723931 7
-4.2387462 16.065704 0.29002407 34
-0.48786861 1.8504297 -0.44180387 5
-4.4198151 16.775728 0.90918034 24
-0.56170219 2.1319816 -0.42855701 81
-4.4193072 16.78569 1.5186017 15
-0.68605137 2.6076519 -0.42706612 4
-4.4149494 16.792944 2.1319826 12
-0.87009621 3.3118961 -0.42044926 4
-3.3030457 12.581503 2.0602422 27
-1.2025753 4.5806828 -0.41433838 7
-4.4134822 16.823175 3.380754 11
-1.8704442 7.1347752 -0.38655341 6
-4.4115696 16.83983 4.0189757 20
-3.0658996 11.711503 -0.21131374 53
-4.4149356 16.876705 4.6742721 8
-0.4194794 1.6115568 -0.44620407 7
-4.1977382 16.138462 0.29107124 10
-0.48630819 1.8709822 -0.44630289 5
-4.3868399 16.889641 0.91451859 30
-0.55820566 2.1491308 -0.43160996 86
-4.3807039 16.878155 1.5255742 15
-0.67744005 2.6119432 -0.42737901 5
-4.3816991 16.906254 2.1444132 12
-0.85952485 3.3187568 -0.42093676 4
-3.2660339 12.619731 2.0646224 16
-1.1855789 4.5809951 -0.41398975 7
-4.3753715 16.918308 3.3967817 11
-1.8470252 7.1470618 -0.3868674 6
-4.3771195 16.949469 4.041471 18
-3.0240033 11.71826 -0.21124394 30
-3.6053922 13.981275 3.8688273 7
-0.41289079 1.6092688 -0.44516876 7
-4.3474832 16.95689 0.30555674 22
-0.47880742 1.8688928 -0.4454031 5
-4.3481622 16.98418 0.91881019 24
-0.55264753 2.1586742 -0.43313646 89
-4.3429985 16.976341 1.5330694 15
-0.66293728 2.5932398 -0.42393744 6
-4.3428068 17.000303 2.1544065 11
-0.85088152 3.333277 -0.42239916 4
-3.2190361 12.619569 2.0627451 13
-1.1685971 4.5812445 -0.41364115 7
-3.1747863 12.455172 2.4984531 20
-1.8215746 7.1515298 -0.38676277 6
-4.3424463 17.060961 4.0644155 14
-2.9623806 11.647348 -0.20977792 33
-3.5484796 13.961944 3.8600273 10
-0.40869117 1.6163192 -0.44672167 7
-4.3108029 17.061144 0.30716234 21
-0.46655574 1.8478794 -0.44000426 5
-4.3122973 17.092211 0.92383438 28
-0.54462814 2.1586866 -0.43275481 71
-4.3070965 17.084131 1.5414364 15
-0.65532821 2.6012845 -0.42487606 5
-4.3037872 17.09621 2.1646435 10
-0.83778894 3.3304515 -0.42166796 4
-3.134511 12.469804 2.0364642 20
-1.1545401 4.5930252 -0.41433838 7
-3.1384609 12.49474 2.5041773 26
-1.791253 7.1365356 -0.38561139 6
-4.3041949 17.161072 4.0846615 18
-2.9090629 11.607185 -0.2088704 22
-3.4931545 13.948009 3.8527803 22
-0.40351483 1.6196101 -0.44723931 7
-4.274889 17.171173 0.30887267 21
-0.46198478 1.8570611 -0.44180387 5
-4.2704396 17.178877 0.92770731 26
-0.53851092 2.1662903 -0.4338997 90
-4.2704864 17.191877 1.5498035 15
-0.64909983 2.6150594 -0.42675328 6
-3.343276 13.479276 1.705196 8
-0.82281464 3.3198681 -0.41996178 4
-3.0387304 12.26975 2.0020485 18
-1.1394593 4.6008949 -0.41468704 7
-3.074544 12.423673 2.4877679 9
-1.7639316 7.1330509 -0.385088 6
-3.4691839 14.039326 3.3387237 11
-2.8680463 11.615329 -0.2088355 23
-3.4453673 13.96387 3.8538156 30
-0.39785841 1.6210089 -0.44723931 6
-4.2396884 17.286982 0.31068772 21
-0.4582831 1.8700187 -0.44450328 5
-4.2294545 17.271276 0.93189418 20
-0.52627665 2.1490877 -0.43008351 84
-4.2331753 17.299572 1.5581703 15
-0.64090657 2.6211469 -0.42737901 5
-3.3023322 13.515932 1.7083646 19
-0.81404519 3.334291 -0.42142424 4
-3.0394199 12.458758 2.0311453 20
-1.1224465 4.6009736 -0.41433838 7
-2.8163488 11.553109 2.3114603 25
-1.7394927 7.1411057 -0.38519266 5
-3.4178483 14.041883 3.3364739 32
-2.8118963 11.561148 -0.20768364 24
-3.405724 14.013356 3.8641684 7
-0.39128932 1.6186323 -0.44620407 6
-4.2028084 17.398863 0.31243297 21
-0.45083776 1.8678185 -0.44360349 6
-4.1953597 17.394663 0.93775576 26
-0.5206123 2.1585457 -0.43160996 86
-4.1905136 17.387846 1.5647942 15
-0.63175243 2.6233683 -0.42737901 5
-3.2532713 13.519658 1.7073896 26
-0.80193955 3.3351815 -0.42118049 4
-2.9765327 12.388621 2.0180049 24
-1.1026567 4.5893655 -0.41294393 7
-2.7810421 11.58387 2.3156581 31
-1.7159576 7.1529593 -0.38550669 5
-4.1855803 17.461037 4.1453981 17
-2.7696567 11.563113 -0.20754401 24
-2.9628732 12.379341 3.4107175 14
-0.38518986 1.618109 -0.44568643 6
-4.6714268 19.638985 0.35236409 46
-0.44296274 1.8636931 -0.44225377 6
-4.6644268 19.640005 1.0579191 76
-0.51307487 2.1603498 -0.43160996 86
-4.6533151 19.60844 1.7631607 67
-0.61894441 2.6101811 -0.42487606 5
-2.9030766 12.252205 1.5460347 11
-0.79212123 3.3456876 -0.42215544 4
-2.9546411 12.489285 2.0327096 32
-1.0880049 4.5990033 -0.41346684 8
-1.6895994 7.1530743 -0.38519266 5
-4.148325 17.576063 4.1692429 19
-2.7182636 11.526001 -0.20670632 19
-2.9209812 12.395247 3.4122705 26
-0.37953883 1.6194438 -0.44568643 6
-4.5914416 19.606499 0.35149148 68
-0.43601182 1.8633302 -0.44180387 6
-4.5844688 19.607548 1.0553024 94
-0.50553012 2.1621275 -0.43160996 86
-4.5766764 19.589642 1.760023 76
-0.60983121 2.6123252 -0.42487606 5
-2.8445046 12.194603 1.5375037 3
-0.77818388 3.3387661 -0.42093676 4
-2.9123802 12.505293 2.0336483 18
-1.0705923 4.596951 -0.41294393 7
-4.2205806 18.136862 3.6196468 12
-1.6623566 7.1492028 -0.3846693 5
-3.2825339 14.128154 3.3486214 17
-2.6730361 11.513992 -0.20632236 24
-0.37735787 1.635818 -0.44982749 6
-4.5162406 19.593176 0.35096788 79
-0.42775491 1.8572447 -0.44000426 6
-4.5046339 19.558413 1.0518482 96
-0.49797925 2.1638792 -0.43160996 86
-4.4984493 19.562778 1.7561883 81
-0.60247749 2.6221392 -0.42612755 5
-3.1252832 13.612963 1.7149456 31
-0.76386225 3.3298528 -0.4194743 4
-2.8483663 12.416689 2.0176921 17
-1.0580992 4.6161962 -0.41433838 7
-1.6365016 7.1510682 -0.38445997 5
-2.8861132 12.621661 2.9891498 9
-2.6370709 11.53254 -0.20649688 20
-2.8373961 12.418611 3.4133058 20
-0.36993515 1.6295896 -0.44775698 6
-4.4432783 19.572943 0.35033962 79
-0.42374858 1.8681555 -0.44225377 6
-4.4292755 19.542852 1.0501734 100
-0.48565456 2.1445415 -0.42741215 80
-4.4208956 19.537556 1.7525277 85
-0.59726584 2.6395361 -0.4286305 5
-3.1374807 13.876894 1.7468753 23
-0.75237912 3.3304312 -0.41923055 4
-2.7732518 12.285893 1.9948525 32
-1.0402246 4.6120877 -0.41364115 7
-2.6331563 11.674737 2.3263433 28
-1.6136583 7.1603518 -0.3846693 5
-2.8956099 12.859299 3.0431378 37
-2.6046965 11.576792 -0.20712517 21
-2.8020833 12.46425 3.4231408 27
-0.36368594 1.6270367 -0.44672167 6
-4.3627195 19.533691 0.34936228 79
-0.41849864 1.875329 -0.44360349 6
-4.3514628 19.515308 1.0478706 100
-0.47896701 2.1480567 -0.4277938 80
-4.3417888 19.487932 1.7467754 78
-0.58504438 2.6281073 -0.42644039 4
-2.674391 12.02366 1.5123987 11
-0.74419361 3.3485398 -0.42118049 4
-2.7170765 12.235718 1.9851536 17
-1.0257893 4.6194015 -0.41398975 7
-2.6013207 11.724106 2.3343573 55
-1.5877877 7.1620412 -0.38445997 5
-3.1415098 14.182136 3.3535705 30
-2.5383446 11.468665 -0.20503086 22
-2.757726 12.470181 3.4221058 28
-0.35551485 1.6169757 -0.44361585 6
-4.2837849 19.499969 0.34848964 68
-0.41153258 1.8748751 -0.44315359 6
-4.2743249 19.48941 1.0456725 99
-0.47483003 2.1650569 -0.43084675 85
-4.2660642 19.467936 1.7436377 83
-0.57375503 2.6204851 -0.42487606 5
-3.0273674 13.838346 1.7393193 10
-0.73165345 3.3472385 -0.42069301 4
-2.6806686 12.274076 1.9898466 32
-1.0066813 4.6093287 -0.41276959 6
-2.5666556 11.761888 2.3400817 26
-1.5610775 7.1597342 -0.38404128 5
-2.9559247 13.568477 3.2060025 15
