# .PCD v0.7 - Point Cloud Data file format
VERSION 0.7
FIELDS x y z rgba
SIZE 4 4 4 4
TYPE F F F U
COUNT 1 1 1 1
WIDTH 934
HEIGHT 1
VIEWPOINT 0 0 0 1 0 0 0
POINTS 934
DATA ascii
2.7612486 -1.8387399 0.17386007 0
2.6776094 -1.7843935 0.28151307 0
2.6803939 -1.7876005 0.39558792 0
2.6521757 -1.7694502 0.50497049 0
2.6434498 -1.7649622 0.61783957 0
2.6511497 -1.7707722 0.73603982 0
2.6386828 -1.7631116 -0.055393942 0
2.6371975 -1.7627848 0.84996176 0
2.6303113 -1.7648315 0.055289224 0
2.6430724 -1.7747322 0.16684705 0
2.6317718 -1.7811737 0.27802682 0
2.6313746 -1.7822447 0.39022568 0
2.6358635 -1.7866275 0.50434476 0
2.6258776 -1.7805276 0.61669469 0
2.633261 -1.786876 0.73469019 0
2.627342 -1.7835294 -0.055428844 0
2.6146157 -1.7755572 0.84685594 0
2.622885 -1.7865286 0.055393942 0
2.6210282 -1.7859339 0.16621901 0
2.6271844 -1.7914721 0.27820113 0
2.623498 -1.7902997 0.38998193 0
2.621767 -1.7897897 0.50278044 0
2.6115413 -1.7841454 0.61478662 0
2.6237898 -1.7938572 0.73379034 0
2.6247149 -1.7944896 -0.055498652 0
2.6278484 -1.7973051 0.85306764 0
2.6202438 -1.7974793 0.05546375 0
2.611485 -1.7928112 0.16600966 0
2.6225574 -1.8017597 0.27837545 0
2.6208186 -1.8012388 0.39046943 0
2.6122484 -1.7966915 0.50215465 0
2.6169322 -1.8005855 0.61745793 0
2.6114066 -1.7981274 0.73199075 0
2.6069071 -1.7957 -0.055254318 0
2.6231494 -1.8075631 0.85358524 0
2.6123085 -1.8054773 0.055428844 0
2.6101387 -1.8053246 0.16632369 0
2.613291 -1.8081791 0.27802682 0
2.6243072 -1.8171566 0.39193183 0
2.6027136 -1.8035486 0.50152892 0
2.610631 -1.8097094 0.61745793 0
2.6131201 -1.8127859 0.73424023 0
2.6071949 -1.8093494 -0.055393942 0
2.6041284 -1.8078949 0.84944409 0
2.5945029 -1.8065863 0.05518451 0
2.6054599 -1.8155663 0.16642836 0
2.6020601 -1.8138723 0.27750388 0
2.614692 -1.8240345 0.39144436 0
2.6061203 -1.8194075 0.50340617 0
2.5930309 -1.8109425 0.61478662 0
2.6163599 -1.8285944 0.73693967 0
2.6025016 -1.819585 -0.055428844 0
2.6009681 -1.8191885 0.85047942 0
2.5914552 -1.8179287 0.055254318 0
2.6023757 -1.8269454 0.1666377 0
2.6022344 -1.8275243 0.27820113 0
2.6018128 -1.8285846 0.39046943 0
2.6062164 -1.833039 0.50465763 0
2.5866938 -1.8199831 0.61478662 0
2.6067743 -1.8354722 0.73603982 0
2.6010389 -1.8321129 -0.055533558 0
2.6009188 -1.8327076 0.85254997 0
2.5948918 -1.8338881 0.05546375 0
2.5894601 -1.8314053 0.16621901 0
2.5987713 -1.8393517 0.27854973 0
2.5921736 -1.8353611 0.38998193 0
2.599802 -1.8421253 0.50465763 0
2.5896149 -1.8362651 0.61707634 0
2.5984402 -1.8438866 0.73558998 0
2.5978892 -1.8434957 -0.055603366 0
2.6039574 -1.8484849 0.85565579 0
2.5930393 -1.846867 0.055568464 0
2.5830514 -1.8404329 0.16621901 0
2.5972018 -1.8518819 0.27907267 0
2.6015882 -1.8563802 0.39241934 0
2.5837095 -1.8443033 0.50278044 0
2.5943718 -1.8532815 0.61974764 0
2.5951588 -1.855212 0.73648977 0
2.5881851 -1.8502266 -0.055533558 0
2.594346 -1.8553156 0.85462052 0
2.5934002 -1.8601174 0.055708081 0
2.5847242 -1.8552611 0.16674237 0
2.5810122 -1.8539625 0.27802682 0
2.5986421 -1.8673139 0.39290681 0
2.5772562 -1.8533108 0.50278044 0
2.5882118 -1.8618745 0.61974764 0
2.5889924 -1.8638078 0.73648977 0
2.5768425 -1.8557441 -0.055428844 0
2.5721796 -1.8530679 0.84944409 0
2.5739243 -1.8597895 0.055428844 0
2.5834138 -1.8673323 0.16705638 0
2.5716217 -1.8601761 0.27767819 0
2.5888922 -1.8740453 0.39241934 0
2.5742958 -1.8641641 0.50340617 0
2.5753381 -1.86629 0.61822122 0
2.5919359 -1.8796982 0.73918921 0
2.5771499 -1.8689752 -0.055568464 0
2.5722754 -1.8661251 0.8515147 0
2.5661263 -1.8671385 0.055393942 0
2.5784945 -1.8775145 0.16716106 0
2.5699434 -1.8726612 0.27820113 0
2.5746424 -1.8767732 0.3912006 0
2.5821359 -1.8836164 0.50622195 0
2.5691352 -1.8748196 0.61822122 0
2.5856886 -1.8882829 0.73918921 0
2.5770693 -1.882678 -0.055708081 0
2.5688653 -1.8773723 0.85254997 0
2.5757217 -1.8879058 0.055742987 0
2.5687039 -1.8841411 0.16695172 0
2.57657 -1.8906027 0.27959561 0
2.5712757 -1.8880991 0.39168811 0
2.5819128 -1.897297 0.50747347 0
2.5673203 -1.8872644 0.61936599 0
2.5728023 -1.8926779 0.73738956 0
2.5672607 -1.8892916 -0.055638272 0
2.5747421 -1.8954905 0.85669106 0
2.5723333 -1.899261 0.055812798 0
2.555686 -1.8883486 0.16653302 0
2.5699551 -1.899585 0.27959561 0
2.5694575 -1.9006045 0.39241934 0
2.5625722 -1.8968956 0.50497049 0
2.5701838 -1.9032247 0.62165576 0
2.5630484 -1.8993268 0.73648977 0
2.5542243 -1.893478 -0.055498652 0
2.5650067 -1.9021649 0.85565579 0
2.5592697 -1.9034548 0.055673175 0
2.5602944 -1.9056053 0.16726573 0
2.5553181 -1.9025948 0.27872407 0
2.5675826 -1.91312 0.39315054 0
2.5543513 -1.9046485 0.50465763 0
2.5603774 -1.9098371 0.62089252 0
2.5657732 -1.915256 0.73918921 0
2.5508037 -1.9047755 -0.055568464 0
2.5583513 -1.9111069 0.85565579 0
2.5494089 -1.909979 0.055603366 0
2.5648127 -1.9229175 0.16799843 0
2.5438795 -1.9079168 0.27820113 0
2.5640643 -1.9244543 0.39363801 0
2.5571644 -1.9206713 0.50653487 0
2.5442777 -1.9116867 0.61860281 0
2.5637445 -1.9277141 0.74053884 0
2.5441391 -1.9136679 -0.055568464 0
2.5454898 -1.9153792 0.85358524 0
2.5363417 -1.9140481 0.05546375 0
2.5469284 -1.9234331 0.16726573 0
2.5483322 -1.9251919 0.2794213 0
2.5462468 -1.9250127 0.39193183 0
2.5630469 -1.9391204 0.50903779 0
2.54072 -1.9229258 0.61936599 0
2.5585532 -1.9378281 0.74098879 0
2.5486012 -1.93099 -0.055812798 0
2.5418675 -1.9265869 0.85462052 0
2.5423808 -1.9325711 0.055742987 0
2.5433781 -1.9347301 0.16747507 0
2.5463531 -1.9376951 0.27994424 0
2.5442493 -1.937497 0.39266306 0
2.551549 -1.9444633 0.5080992 0
2.5371151 -1.9341636 0.62012929 0
2.5424774 -1.9396553 0.73828936 0
2.5386658 -1.9374484 -0.055742987 0
2.5443399 -1.9424819 0.85772634 0
2.5514967 -1.9535905 0.056092035 0
2.5302677 -1.9387375 0.16705638 0
2.5411553 -1.9477838 0.28011855 0
2.5421963 -1.9499907 0.39339426 0
2.5369115 -1.9473442 0.50653487 0
2.5459194 -1.9549651 0.62394547 0
2.5387819 -1.9508933 0.73918921 0
2.5255458 -1.9414232 -0.055603366 0
2.5344813 -1.9489962 0.85669106 0
2.535161 -1.9551576 0.055882607 0
2.5329716 -1.9548796 0.16768442 0
2.524878 -1.9493366 0.27907267 0
2.5400867 -1.9624939 0.39412549 0
2.5300984 -1.9561877 0.50653487 0
2.535974 -1.9614375 0.62318224 0
2.5442848 -1.9692855 0.74278837 0
2.5266593 -1.9563487 -0.055777889 0
2.5276625 -1.9578311 0.85669106 0
2.5204246 -1.9578614 0.055708081 0
2.5324397 -1.9686127 0.16810311 0
2.521204 -1.9605844 0.2794213 0
2.5316541 -1.9701295 0.39388174 0
2.5326056 -1.9722898 0.50841206 0
2.5213678 -1.9642452 0.62127411 0
2.5435426 -1.9829473 0.74458802 0
2.5182383 -1.9639266 -0.055742987 0
2.517767 -1.9642659 0.85565579 0
2.5182998 -1.9703443 0.055812798 0
2.5318429 -1.9823656 0.16852181 0
2.517482 -1.9718302 0.27976993 0
2.5185122 -1.9740562 0.39290681 0
2.5257058 -1.9811182 0.50841206 0
2.5129516 -1.9718226 0.62089252 0
2.5304747 -1.9869996 0.74278837 0
2.5239477 -1.9825867 -0.056022223 0
2.523047 -1.9825915 0.85979694 0
2.5114067 -1.9791226 0.055812798 0
2.5107932 -1.9800603 0.16757976 0
2.5215333 -1.9892442 0.28099012 0
2.5147223 -1.9852953 0.39339426 0
2.5218749 -1.9923714 0.50903779 0
2.515295 -1.9878863 0.62318224 0
2.5174093 -1.9909854 0.74098879 0
2.5138752 -1.9889034 -0.055952415 0
2.5206552 -1.9949832 0.86134982 0
2.5076156 -1.9903634 0.055882607 0
2.5054302 -1.9900548 0.16768442 0
2.516134 -1.9992731 0.28116441 0
2.5139921 -1.9990031 0.39436921 0
2.5071764 -1.9950126 0.50747347 0
2.5098767 -1.9978769 0.62356383 0
2.5104442 -1.9997607 0.74098879 0
2.4990981 -1.9914356 -0.055777889 0
2.5076337 -1.998953 0.85927927 0
2.5060372 -2.001976 0.055987321 0
2.5085258 -2.005399 0.16831245 0
2.5020607 -2.0009463 0.28029287 0
2.5231984 -2.0192945 0.3968066 0
2.5008965 -2.0028794 0.50747347 0
2.5020556 -2.0045247 0.62318224 0
2.5147924 -2.01617 0.74413806 0
2.4928293 -1.9992768 -0.055777889 0
2.4983282 -2.0044034 0.858244 0
2.4881279 -2.0019367 0.055742987 0
2.5061774 -2.0179007 0.16862647 0
2.4966123 -2.0109177 0.28046718 0
2.506861 -2.0206156 0.3953442 0
2.5000401 -2.0165577 0.50872493 0
2.4919875 -2.0107801 0.62241894 0
2.5138042 -2.0298333 0.74593771 0
2.4967244 -2.016762 -0.056022223 0
2.4913161 -2.0131118 0.858244 0
2.487339 -2.0156455 0.055882607 0
2.4991183 -2.0266368 0.16862647 0
2.4957669 -2.0246408 0.28116441 0
2.4936278 -2.0243495 0.39436921 0
2.4991186 -2.0302544 0.50997645 0
2.4849532 -2.0194666 0.62241894 0
2.5051913 -2.0373662 0.74548781 0
2.4927721 -2.0279887 -0.056092035 0
2.4932637 -2.0291123 0.86134982 0
2.488034 -2.0306375 0.056057129 0
2.4858418 -2.0302942 0.16820778 0
2.4994848 -2.0421648 0.2823846 0
2.4896197 -2.0355544 0.39485672 0
2.495074 -2.0414674 0.51060218 0
2.4839659 -2.0331028 0.62394547 0
2.4935415 -2.0423942 0.74413806 0
2.485678 -2.0366781 -0.056092035 0
2.492142 -2.0427017 0.86342037 0
2.4886546 -2.0456593 0.056231655 0
2.4775527 -2.0372579 0.16810311 0
2.4908025 -2.0496113 0.28221029 0
2.4916937 -2.0518034 0.39631912 0
2.4791424 -2.0421941 0.50872493 0
2.4844284 -2.0480049 0.62585354 0
2.4818871 -2.0473654 0.74278837 0
2.4711971 -2.038547 -0.055917513 0
2.4883347 -2.0534141 0.86445564 0
2.4818573 -2.0539007 0.056231655 0
2.4781172 -2.052263 0.16862647 0
2.4728944 -2.0493937 0.28099012 0
2.4848759 -2.060055 0.39631912 0
2.475039 -2.0533581 0.50935066 0
2.4821558 -2.0599935 0.62699842 0
2.4870775 -2.0655448 0.7463876 0
2.4656045 -2.0484385 -0.055952415 0
2.4692659 -2.0522089 0.86031455 0
2.4669921 -2.0561497 0.056057129 0
2.4816749 -2.0698559 0.16935916 0
2.4706745 -2.0614123 0.28151307 0
2.4837651 -2.0738056 0.3972941 0
2.4708886 -2.0645182 0.50997645 0
2.462899 -2.0585728 0.62394547 0
2.4858315 -2.079215 0.74818724 0
2.4676414 -2.0647321 -0.056161843 0
2.4635687 -2.0620558 0.86083221 0
2.4597998 -2.0647488 0.056057129 0
2.4759641 -2.0797906 0.16946384 0
2.4726157 -2.0777142 0.28255892 0
2.4673951 -2.0747972 0.39583167 0
2.4697127 -2.078218 0.51122791 0
2.455698 -2.0671575 0.62394547 0
2.4785585 -2.0878797 0.74818724 0
2.4634771 -2.0759103 -0.056231655 0
2.4652181 -2.0781133 0.86393797 0
2.457159 -2.0771954 0.056161843 0
2.4610651 -2.0819709 0.16894048 0
2.4714317 -2.091481 0.28325617 0
2.4616525 -2.0846803 0.3960754 0
2.4684715 -2.0919349 0.51247936 0
2.4574525 -2.0833342 0.62623513 0
2.4623394 -2.0889542 0.74548781 0
2.459265 -2.0870848 -0.056301463 0
2.4579489 -2.0867059 0.86393797 0
2.462074 -2.0961306 0.056441084 0
2.4522619 -2.0892537 0.1688358 0
2.4671488 -2.10268 0.28360477 0
2.4619126 -2.0997012 0.3972941 0
2.4536414 -2.0941269 0.51091504 0
2.4621103 -2.1020975 0.62928808 0
2.4579954 -2.1000686 0.7463876 0
2.4428442 -2.0878611 -0.056092035 0
2.4521186 -2.0965285 0.86445564 0
2.4547422 -2.104712 0.056441084 0
2.4434388 -2.0965006 0.16873114 0
2.4507229 -2.103493 0.28255892 0
2.456074 -2.1095755 0.39753783 0
2.4478147 -2.1039665 0.51122791 0
2.4502914 -2.1068392 0.62814325 0
2.4580359 -2.1149909 0.74863708 0
2.4355414 -2.0963752 -0.056092035 0
2.4447856 -2.1050754 0.86445564 0
2.4398129 -2.1067333 0.056266561 0
2.4466841 -2.1141574 0.16946384 0
2.4433653 -2.1120348 0.28255892 0
2.4531991 -2.1220322 0.39826906 0
2.4434426 -2.1150837 0.51185364 0
2.4369857 -2.110239 0.62661678 0
2.4550567 -2.1273868 0.74998683 0
2.4327419 -2.1087937 -0.056196753 0
2.4330435 -2.1097996 0.8629027 0
2.4324443 -2.115237 0.056266561 0
2.4438097 -2.1266186 0.16977786 0
2.4419892 -2.1257837 0.28325617 0
2.4442806 -2.1292784 0.39802533 0
2.4420009 -2.1287923 0.51310509 0
2.4340436 -2.1226037 0.62776166 0
2.4505522 -2.1385062 0.75088662 0
2.432898 -2.1238482 -0.056371275 0
2.4343951 -2.1259036 0.86600858 0
2.4370809 -2.1342542 0.056545798 0
2.4258568 -2.1259217 0.16904517 0
2.4465394 -2.1448021 0.28465065 0
2.4263871 -2.1286335 0.39631912 0
2.4375238 -2.13991 0.51373082 0
2.4280946 -2.1323824 0.62814325 0
2.4328258 -2.1380422 0.74773729 0
2.4254696 -2.1323278 -0.056371275 0
2.4298608 -2.1369398 0.86704385 0
2.4326155 -2.1453936 0.056615606 0
2.4292777 -2.1432037 0.16977786 0
2.4405315 -2.1546478 0.28482497 0
2.4278681 -2.1449764 0.39778158 0
2.4244938 -2.1427488 0.51247936 0
2.4309309 -2.1499498 0.63081461 0
2.4326441 -2.1529789 0.74998683 0
2.4168875 -2.1390338 -0.056336369 0
2.4242077 -2.1462667 0.86756152 0
2.4329646 -2.1600871 0.056790132 0
2.4173024 -2.1476908 0.16946384 0
2.4210835 -2.1525629 0.28343046 0
2.428158 -2.1596117 0.39900026 0
2.4199507 -2.1538253 0.51310509 0
2.4252543 -2.1593046 0.6311962 0
2.4240365 -2.1597378 0.74953693 0
2.4094064 -2.1474571 -0.056336369 0
2.4066072 -2.145716 0.86393797 0
2.4149745 -2.1592364 0.056545798 0
2.4276521 -2.1720967 0.17071991 0
2.4109628 -2.157922 0.28308186 0
2.419126 -2.16675 0.3987565 0
2.4153595 -2.1648962 0.51373082 0
2.4103937 -2.1612041 0.62928808 0
2.4237354 -2.1746931 0.75178647 0
2.403384 -2.1571903 -0.056371275 0
2.3991024 -2.1541035 0.86393797 0
2.4029644 -2.1636391 0.056441084 0
2.4215391 -2.1818945 0.17082457 0
2.418215 -2.1796641 0.28482497 0
2.4115481 -2.1751812 0.3987565 0
2.4195189 -2.183903 0.5162338 0
2.3999207 -2.1669731 0.62852484 0
2.4204669 -2.1870596 0.7531361 0
2.4002895 -2.1695893 -0.056475986 0
2.4030323 -2.1728301 0.86807907 0
2.4072485 -2.1827595 0.056720324 0
2.4005961 -2.1782548 0.16988252 0
2.4164929 -2.1934488 0.28552222 0
2.4039404 -2.1835859 0.3987565 0
2.4089575 -2.1896782 0.51560807 0
2.4054151 -2.1872246 0.63195944 0
2.4056113 -2.1889377 0.75088662 0
2.3971384 -2.1819925 -0.0565807 0
2.4011467 -2.1864078 0.87014967 0
2.4025681 -2.1938457 0.056790132 0
2.3944523 -2.1879687 0.1699872 0
2.411763 -2.2045588 0.28587085 0
2.4050922 -2.2000029 0.40021896 0
2.3998425 -2.1967397 0.51529521 0
2.4006612 -2.1982596 0.63272268 0
2.3950822 -2.1946883 0.74998683 0
2.3850846 -2.1862931 -0.056475986 0
2.3963478 -2.1973875 0.87118495 0
2.406671 -2.2130473 0.057069372 0
2.3970881 -2.2057803 0.17071991 0
2.3996551 -2.2089157 0.28534791 0
2.4076185 -2.2177992 0.40192512 0
2.3863499 -2.1997478 0.51404375 0
2.3944163 -2.207957 0.63310426 0
2.398864 -2.213608 0.75358605 0
2.3774385 -2.1946056 -0.056475986 0
2.3815665 -2.1991858 0.86859673 0
2.3827915 -2.2064893 0.056685418 0
2.402559 -2.2263522 0.17166196 0
2.3890076 -2.2145698 0.28499928 0
2.3954964 -2.2221398 0.40119389 0
2.3916867 -2.2201598 0.51685953 0
2.3809402 -2.2109575 0.63157779 0
2.3896949 -2.2206416 0.7531361 0
2.3785512 -2.2110598 -0.056685418 0
2.3767047 -2.2101166 0.86963201 0
2.3750751 -2.2147934 0.056685418 0
2.3903921 -2.2306371 0.17134793 0
2.3870885 -2.2283337 0.28569651 0
2.3877249 -2.2304883 0.40119389 0
2.3868082 -2.2311926 0.51748526 0
2.3760757 -2.2219369 0.63234103 0
2.3861976 -2.2329643 0.75448585 0
2.3751984 -2.223449 -0.056790132 0
2.3746159 -2.2236814 0.87170261 0
2.3731604 -2.2285459 0.056825034 0
2.3767695 -2.2334964 0.17092925 0
2.386554 -2.2434759 0.28656808 0
2.3755867 -2.2347291 0.40046272 0
2.3833203 -2.2435725 0.51842386 0
2.3740227 -2.2356017 0.63386756 0
2.3783886 -2.2412798 0.75448585 0
2.3746982 -2.2385848 -0.056964654 0
2.3752723 -2.2399092 0.87480837 0
2.382802 -2.2533038 0.057243895 0
2.3718598 -2.244525 0.1711386 0
2.3772614 -2.2504234 0.28639376 0
2.3749776 -2.2498338 0.40168139 0
2.3668728 -2.2437241 0.51654667 0
2.3776009 -2.2546823 0.63692045 0
2.376205 -2.2549341 0.75628549 0
2.3596182 -2.2399766 -0.056790132 0
2.3646371 -2.2455261 0.87377316 0
2.3662333 -2.2533333 0.057034463 0
2.3669024 -2.2555463 0.17134793 0
2.3650651 -2.2545836 0.28587085 0
2.3757277 -2.2663314 0.40314382 0
2.3590262 -2.2519724 0.51654667 0
2.3697162 -2.2629678 0.63692045 0
2.3697281 -2.2645614 0.75673532 0
2.3488936 -2.245436 -0.056720324 0
2.3511999 -2.248426 0.87170261 0
2.3540235 -2.257427 0.056929749 0
2.3723814 -2.2758267 0.17228998 0
2.3600554 -2.2655849 0.28621945 0
2.362076 -2.2691097 0.40216887 0
2.3629401 -2.2707329 0.51904958 0
2.3504817 -2.2603393 0.63386756 0
2.3660214 -2.2768731 0.75808507 0
2.3486392 -2.2601459 -0.056894846 0
2.3492978 -2.2615695 0.87377316 0
2.3465247 -2.2652209 0.056929749 0
2.3615499 -2.2813189 0.17208064 0
2.3549976 -2.2765789 0.28656808 0
2.3516843 -2.2741702 0.40168139 0
2.3578386 -2.2817147 0.51967537 0
2.3514366 -2.2763143 0.63615721 0
2.3598576 -2.2860627 0.75853497 0
2.3507879 -2.2780716 -0.057139181 0
2.3469374 -2.275135 0.87584364 0
2.3443387 -2.2789736 0.057069372 0
2.3449826 -2.2811923 0.17145261 0
2.363142 -2.2996604 0.2884855 0
2.3465762 -2.285135 0.40216887 0
2.3555183 -2.2954454 0.52092683 0
2.346288 -2.2872496 0.63692045 0
2.3448889 -2.2874823 0.75628549 0
2.3428214 -2.2862635 -0.057139181 0
2.3458934 -2.2900608 0.87843186 0
2.3463719 -2.2969351 0.057313703 0
2.3412855 -2.2935567 0.17176662 0
2.3494079 -2.3023171 0.28778824 0
2.3470891 -2.3016515 0.4036313 0
2.3362122 -2.2925854 0.51842386 0
2.3466959 -2.3036776 0.63921016 0
2.3396699 -2.2983847 0.75718528 0
2.3262687 -2.2860179 -0.056929749 0
2.339263 -2.2995899 0.87894952 0
2.3454604 -2.3121307 0.057488225 0
2.3375306 -2.3059232 0.17208064 0
2.3371027 -2.3063061 0.28726533 0
2.3475151 -2.3181992 0.40509373 0
2.3338156 -2.3062804 0.51967537 0
2.3358479 -2.3090944 0.63844693 0
2.3399453 -2.3147607 0.75988466 0
2.3239603 -2.2997506 -0.057069372 0
2.3298488 -2.3063822 0.87843186 0
2.3316987 -2.3146687 0.057348609 0
2.339386 -2.3239217 0.17281334 0
2.3318646 -2.3172586 0.28761396 0
2.3450391 -2.3319788 0.40606871 0
2.3299513 -2.3185928 0.52061397 0
2.3249905 -2.3144641 0.63768369 0
2.3387539 -2.3297913 0.76213419 0
2.320168 -2.312083 -0.057174087 0
2.3245199 -2.3172288 0.87946719 0
2.3250189 -2.3242073 0.057383511 0
2.3256118 -2.3264234 0.17239466 0
2.3308032 -2.3324311 0.2884855 0
2.3242607 -2.327508 0.40387502 0
2.3316114 -2.3364995 0.52280408 0
2.3224437 -2.3281252 0.63921016 0
2.3347347 -2.3420808 0.76348388 0
2.3177292 -2.3258338 -0.057313703 0
2.319144 -2.3280661 0.88050246 0
2.3168917 -2.332309 0.057383511 0
2.3216982 -2.3387797 0.17270868 0
2.3338745 -2.3518665 0.28988001 0
2.3189175 -2.3384261 0.4043625 0
2.3276124 -2.3488336 0.52374262 0
2.3198295 -2.3417971 0.64073664 0
2.3169484 -2.3405218 0.76033455 0
2.3053768 -2.3296459 -0.057208989 0
2.3245897 -2.3498809 0.88567883 0
2.315758 -2.3475001 0.057558037 0
2.3149221 -2.3482919 0.17281334 0
2.3242524 -2.3585799 0.28970569 0
2.3163123 -2.3521643 0.40533748 0
2.3152428 -2.3527203 0.52280408 0
2.3226552 -2.3610766 0.64378959 0
2.3114965 -2.3513746 0.76123434 0
2.2972307 -2.3376789 -0.057208989 0
2.3136654 -2.3552248 0.88464355 0
2.3131471 -2.3612835 0.057697657 0
2.3122995 -2.3620672 0.17323203 0
2.3146117 -2.3652546 0.28953138 0
2.3178029 -2.3701701 0.40704364 0
2.3042548 -2.3579619 0.52217829 0
2.3116558 -2.3663614 0.64302635 0
2.3114421 -2.3677959 0.76393378 0
2.2946432 -2.3514085 -0.057348609 0
2.2973359 -2.3549895 0.88153768 0
2.2965243 -2.360743 0.057488225 0
2.3072388 -2.3725858 0.17344138 0
2.3007872 -2.3676043 0.28883412 0
2.3067493 -2.3753982 0.40655616 0
2.3019266 -2.3712597 0.52342981 0
2.3006473 -2.371598 0.64226311 0
2.3103609 -2.3824425 0.76618326 0
2.2937925 -2.3661838 -0.057523135 0
2.2922027 -2.3653696 0.88257295 0
2.2886832 -2.3683457 0.057488225 0
2.3062971 -2.3874059 0.17396474 0
2.3012259 -2.3838217 0.28988001 0
2.2933466 -2.3773196 0.40558121 0
2.3050206 -2.3902557 0.52593273 0
2.2900455 -2.3763866 0.64149988 0
2.3037999 -2.3914945 0.76663321 0
2.283159 -2.3708961 -0.057453319 0
2.2897053 -2.3785248 0.88464355 0
2.2891257 -2.3845778 0.057697657 0
2.2938011 -2.391118 0.17365071 0
2.2974453 -2.3957539 0.29040295 0
2.2854507 -2.3849115 0.40558121 0
2.2993953 -2.4011405 0.52655846 0
2.2930136 -2.3953133 0.64455283 0
2.2873552 -2.3910728 0.76393378 0
2.2845435 -2.3889682 -0.057697657 0
2.2920682 -2.3976743 0.88878465 0
2.2835479 -2.3954487 0.057767466 0
2.2854404 -2.3991103 0.17365071 0
2.2945645 -2.4095299 0.29110017 0
2.2853227 -2.4015028 0.40704364 0
2.2855546 -2.4034264 0.525307 0
2.2900491 -2.4089944 0.6460793 0
2.2843635 -2.4046938 0.76573336 0
2.2706826 -2.3911281 -0.057558037 0
2.283685 -2.4056604 0.88878465 0
2.2820458 -2.4106662 0.057941992 0
2.2852874 -2.4157789 0.17427875 0
2.2806642 -2.4117346 0.29040295 0
2.2851064 -2.4181225 0.4085061 0
2.2744386 -2.4085171 0.52468127 0
2.2816262 -2.4169736 0.6460793 0
2.2813046 -2.4183233 0.767533 0
2.2650659 -2.4019492 -0.057627846 0
2.2726233 -2.4108059 0.88774931 0
2.2667689 -2.4113324 0.057767466 0
2.282311 -2.429564 0.17469743 0
2.2695038 -2.4167759 0.29005429 0
2.2793684 -2.4289794 0.40899354 0
2.2781787 -2.4294105 0.52749711 0
2.2758608 -2.4277878 0.64684254 0
2.2835073 -2.4376495 0.77113223 0
2.2621355 -2.4156795 -0.057767466 0
2.2681549 -2.422955 0.88930225 0
2.2569733 -2.4177682 0.05773256 0
2.2751787 -2.4389765 0.17480211 0
2.2692068 -2.4334261 0.29110017 0
2.2681692 -2.4340165 0.4085061 0
2.2737231 -2.4416847 0.52843571 0
2.2633593 -2.4314063 0.64569765 0
2.2723298 -2.4427519 0.77023244 0
2.2645833 -2.4352765 -0.058046706 0
2.267575 -2.4393475 0.89240813 0
2.2607553 -2.4388306 0.058046706 0
2.2625792 -2.442508 0.1744881 0
2.2683933 -2.4504995 0.29214606 0
2.2650521 -2.447747 0.40948102 0
2.2665274 -2.451057 0.52874857 0
2.2597623 -2.4454529 0.64722413 0
2.2567511 -2.4439056 0.7679829 0
2.2506421 -2.43729 -0.057907082 0
2.2642879 -2.4529257 0.89447862 0
2.2572174 -2.4529862 0.058186322 0
2.2563157 -2.4537244 0.17469743 0
2.2625225 -2.4613366 0.29249465 0
2.2587512 -2.4589562 0.4099685 0
2.2521853 -2.453527 0.52749711 0
2.2591765 -2.4620054 0.64951384 0
2.2534747 -2.4575133 0.76978248 0
2.2322354 -2.4352038 -0.057662752 0
2.2578924 -2.4640572 0.89551395 0
2.24999 -2.4623268 0.058221228 0
2.2531238 -2.4674852 0.17511612 0
2.2458575 -2.4603901 0.2914488 0
2.2621944 -2.4800251 0.41216215 0
2.2462687 -2.4642932 0.52812284 0
2.2492461 -2.4684253 0.64913225 0
2.2527549 -2.47401 0.77248192 0
2.2264132 -2.4459386 -0.05773256 0
2.2466769 -2.4690659 0.89447862 0
2.23735 -2.4657228 0.058116514 0
2.2525465 -2.4842129 0.17574416 0
2.2466221 -2.478548 0.292669 0
2.2535236 -2.4879065 0.41216215 0
2.2509091 -2.4867647 0.53125149 0
2.2379818 -2.47335 0.64836901 0
2.2493331 -2.4876401 0.7742815 0
2.2232256 -2.4596293 -0.05787218 0
2.238045 -2.4768929 0.89447862 0
2.2327449 -2.4779744 0.058221228 0
2.2451975 -2.4935448 0.17584883 0
2.2432883 -2.4922984 0.29336622 0
2.2434978 -2.4942818 0.4119184 0
2.2435358 -2.4960756 0.53156441 0
2.2293346 -2.4811471 0.64836901 0
2.2419381 -2.4969265 0.77473146 0
2.2226405 -2.4763038 -0.058081608 0
2.235836 -2.4918797 0.89706683 0
2.2240815 -2.4857533 0.058221228 0
2.2311549 -2.4954112 0.17543015 0
2.2412133 -2.5075414 0.29423779 0
2.2321327 -2.4991372 0.41143093 0
2.238755 -2.5083132 0.53250295 0
2.2298093 -2.4991682 0.65104032 0
2.2280209 -2.498919 0.77293181 0
2.2219665 -2.4930041 -0.058291037 0
2.2309792 -2.5039964 0.89861977 0
2.2246883 -2.5039656 0.058465563 0
2.2224309 -2.5031841 0.17543015 0
2.2337694 -2.5168395 0.29441211 0
2.2299814 -2.514339 0.41264963 0
2.2234344 -2.5087209 0.53093863 0
2.2288837 -2.5157533 0.65333003 0
2.2283268 -2.5168946 0.77608109 0
2.2026482 -2.4887652 -0.0580118 0
2.2273457 -2.5175562 0.90069032 0
2.2238724 -2.5207133 0.058674991 0
2.2194018 -2.5165319 0.17584883 0
2.2183838 -2.517148 0.29354054 0
2.2264392 -2.5280666 0.41362458 0
2.2177138 -2.5190456 0.53156441 0
2.216198 -2.5190964 0.6521852 0
2.2246745 -2.5305119 0.77788073 0
2.1957033 -2.4975581 -0.058046706 0
2.2177098 -2.5234773 0.90017265 0
2.206275 -2.5175464 0.058430657 0
2.2211308 -2.536284 0.17668621 0
2.212208 -2.5278747 0.29388916 0
2.2206576 -2.538424 0.41411206 0
2.2141075 -2.5327201 0.53281587 0
2.2078326 -2.5264316 0.6521852 0
2.2278073 -2.5510855 0.78192985 0
2.1935475 -2.5127389 -0.058221228 0
2.2076173 -2.5297475 0.89965498 0
2.1961613 -2.5237241 0.058395755 0
2.2109535 -2.5425143 0.17658153 0
2.2129629 -2.5457225 0.29510933 0
2.2104812 -2.5446613 0.41386834 0
2.2130229 -2.5493839 0.53469306 0
2.1989999 -2.5341229 0.6521852 0
2.2163353 -2.5559018 0.78103006 0
2.1913118 -2.5279357 -0.058395755 0
2.2025685 -2.5418184 0.90120792 0
2.1977978 -2.5434797 0.058674991 0
2.2046757 -2.5532401 0.17679088 0
2.2105722 -2.5609729 0.2959809 0
2.2015855 -2.5523617 0.41386834 0
2.2066898 -2.5600858 0.53531879 0
2.200393 -2.5536821 0.65523815 0
2.2010422 -2.5562391 0.77878052 0
2.1955197 -2.5507255 -0.058744799 0
2.2075429 -2.5655994 0.90690196 0
2.1941147 -2.5572062 0.058814611 0
2.1961966 -2.5605369 0.17679088 0
2.2055094 -2.5732119 0.29650384 0
2.1965368 -2.5645545 0.41459954 0
2.1930492 -2.5613875 0.53406733 0
2.2003999 -2.5717895 0.65790945 0
2.1912868 -2.5620432 0.77833068 0
2.1753535 -2.5443127 -0.058430657 0
2.1927471 -2.565563 0.9043138 0
2.1921079 -2.5720778 0.058989134 0
2.1928744 -2.5738869 0.17720957 0
2.1905062 -2.5729263 0.29563227 0
2.1983106 -2.5839198 0.41654944 0
2.1871028 -2.5716553 0.53469306 0
2.1905882 -2.5775757 0.6575278 0
2.1878257 -2.5752361 0.78013027 0
2.1669042 -2.5515125 -0.058430657 0
2.1892283 -2.5787113 0.90638429 0
2.1771061 -2.5717018 0.058814611 0
2.1916163 -2.5906749 0.1778376 0
2.1832485 -2.5816972 0.29580659 0
2.1922925 -2.5942278 0.41703692 0
2.1895831 -2.5928569 0.5375089 0
2.1739805 -2.5762045 0.65523815 0
2.1964142 -2.6037109 0.78642887 0
2.1657195 -2.5682333 -0.058640085 0
2.1727431 -2.5774748 0.90327853 0
2.1728117 -2.5857878 0.058954231 0
2.1769688 -2.592572 0.1774189 0
2.1827385 -2.6003642 0.29702678 0
2.1776667 -2.5961623 0.416062 0
2.1813343 -2.6023788 0.53782177 0
2.1695662 -2.5901752 0.65676457 0
2.1843545 -2.6087554 0.78552908 0
2.1652763 -2.5868878 -0.05888442 0
2.1756785 -2.6002374 0.9084549 0
2.1697242 -2.6014125 0.059128754 0
2.1679056 -2.6001551 0.1774189 0
2.1770189 -2.6129394 0.29754972 0
2.1694067 -2.6056516 0.41630572 0
2.1785553 -2.6175687 0.53938609 0
2.1655331 -2.6037703 0.65829104 0
2.1690056 -2.6088717 0.78327954 0
2.163902 -2.6036577 -0.059093848 0
2.1702924 -2.6122739 0.91000783 0
2.1700156 -2.6193726 0.059373088 0
2.1618192 -2.6104064 0.17762825 0
2.1746933 -2.6278188 0.29842126 0
2.1670794 -2.6204801 0.4175244 0
2.1635699 -2.6171663 0.53782177 0
2.1643889 -2.6200185 0.66058075 0
2.1566198 -2.6115425 0.78192985 0
2.1412528 -2.5938556 -0.058709893 0
2.1665363 -2.6254163 0.91207838 0
2.1676707 -2.634275 0.059547611 0
2.1628423 -2.6302781 0.17846562 0
2.1583762 -2.6257811 0.29737538 0
2.1671977 -2.6383896 0.41923055 0
2.1569276 -2.6277564 0.5384475 0
2.1606703 -2.6332524 0.66210729 0
2.1610825 -2.6356308 0.78687876 0
2.1372561 -2.6075006 -0.058849517 0
2.1585832 -2.6344573 0.91259599 0
2.1432793 -2.6232431 0.059128754 0
2.1574371 -2.6424534 0.17877965 0
2.1487379 -2.6336741 0.29737538 0
2.1617386 -2.6505535 0.41996178 0
2.1552298 -2.6444569 0.54032475 0
2.1423256 -2.6304982 0.65943593 0
2.1612484 -2.6556256 0.79047799 0
2.1357145 -2.6242507 -0.059058942 0
2.1493738 -2.6419761 0.91259599 0
2.1386883 -2.6372936 0.059268374 0
2.1577973 -2.6627567 0.17961702 0
2.1495645 -2.6535437 0.29876989 0
2.1407688 -2.6445727 0.41776815 0
2.1554618 -2.6646249 0.54282767 0
2.1355999 -2.6410136 0.66019917 0
2.1568646 -2.6692164 0.79227757 0
2.1361341 -2.6445055 -0.059338182 0
2.1396763 -2.6498361 0.91259599 0
2.1319776 -2.6478579 0.059338182 0
2.138473 -2.6578238 0.17877965 0
2.1502783 -2.6734512 0.30016437 0
2.1364987 -2.6582184 0.4187431 0
2.1436732 -2.6690521 0.54220194 0
2.1349714 -2.6591682 0.66287047 0
2.1414368 -2.6691289 0.7900281 0
2.1243882 -2.6488261 -0.059268374 0
2.1388721 -2.6678398 0.91621947 0
2.1364572 -2.6724648 0.059722137 0
2.1284008 -2.6633403 0.17867498 0
2.1396899 -2.6793838 0.29999006 0
2.1383505 -2.6796246 0.42093676 0
2.1323469 -2.6730578 0.54157621 0
2.1354663 -2.6788862 0.66592342 0
2.1321068 -2.6765876 0.7900281 0
2.1131008 -2.6527281 -0.059198562 0
2.1324203 -2.6779401 0.91725475 0
2.1325572 -2.6857991 0.059861753 0
2.1302636 -2.684835 0.17961702 0
2.1303241 -2.6868365 0.29999006 0
2.135618 -2.694479 0.42215544 0
2.1230032 -2.6804848 0.54157621 0
2.1290085 -2.6890311 0.66668665 0
2.1292646 -2.6912847 0.79227757 0
2.1075494 -2.6647935 -0.05930328 0
2.1242578 -2.686883 0.91777241 0
2.1169789 -2.685375 0.059687231 0
2.1287661 -2.7012966 0.18024506 0
2.1214025 -2.693886 0.29999006 0
2.1286547 -2.7050371 0.42264292 0
2.1238732 -2.6999307 0.54407912 0
2.1171825 -2.6933594 0.66592342 0
2.1258762 -2.706363 0.79452711 0
2.103642 -2.6780577 -0.059442896 0
2.116529 -2.6954319 0.91829002 0
2.1055968 -2.6892314 0.059617419 0
2.1230161 -2.7134297 0.18055905 0
2.1156678 -2.7059836 0.300513 0
2.1135609 -2.7042611 0.42142424 0
2.1168675 -2.7104416 0.54470485 0
2.1106555 -2.7034607 0.66668665 0
2.11689 -2.713398 0.79452711 0
2.1028893 -2.6964223 -0.059687231 0
2.115422 -2.7134686 0.9219135 0
2.106015 -2.7091954 0.059896659 0
2.1074052 -2.7129374 0.1800357 0
2.1201246 -2.7302949 0.30243042 0
2.1041081 -2.7116222 0.42142424 0
2.1170769 -2.730303 0.54720783 0
2.1012061 -2.7108114 0.66668665 0
2.1085989 -2.7223115 0.79497701 0
2.0910158 -2.7005844 -0.059617419 0
2.1038761 -2.7260284 0.060106091 0
2.0979223 -2.7202773 0.1800357 0
2.1064546 -2.7333128 0.30190748 0
2.1043217 -2.7315311 0.42337415 0
2.0990987 -2.7267196 0.54501772 0
2.1032267 -2.7340558 0.67050284 0
2.1033576 -2.7362015 0.79677659 0
2.0815763 -2.7078669 -0.059617419 0
2.0987341 -2.7400713 0.060245708 0
2.0976496 -2.7406363 0.18087308 0
2.0993221 -2.7438138 0.30225611 0
2.1051474 -2.753418 0.42556778 0
2.0878913 -2.732825 0.54470485 0
2.0960536 -2.7445011 0.67126608 0
2.0973403 -2.7481744 0.79812634 0
2.0716374 -2.7154779 -0.059617419 0
2.0818944 -2.7378299 0.060036276 0
2.0941122 -2.7558932 0.18139644 0
2.0892515 -2.7514896 0.30225611 0
2.0979235 -2.763912 0.42605525 0
2.0962455 -2.7637045 0.54939789 0
2.0800507 -2.7443421 0.66935802 0
2.0966663 -2.768271 0.80172557 0
2.0742195 -2.7386339 -0.059966467 0
2.0747347 -2.7482724 0.060106091 0
2.0825555 -2.7596338 0.18118709 0
2.0921118 -2.7743106 0.30399922 0
2.0834844 -2.7648771 0.4250803 0
2.0870693 -2.7706404 0.54939789 0
2.078023 -2.7606359 0.67164773 0
2.0921607 -2.7814381 0.80352521 0
2.0747428 -2.7582817 -0.060245708 0
2.080004 -2.7743368 0.060524948 0
2.0776999 -2.7732804 0.18160579 0
2.0836089 -2.7831914 0.30417353 0
2.076683 -2.7749496 0.42556778 0
2.0797515 -2.7810729 0.55002367 0
2.073559 -2.7738013 0.67317414 0
2.0794268 -2.7836766 0.80217546 0
2.0674949 -2.7687113 -0.060315516 0
2.073889 -2.7863932 0.060629662 0
2.0715823 -2.7853234 0.1819198 0
2.0826893 -2.8012779 0.30539373 0
2.0705354 -2.7869618 0.42629901 0
2.0676761 -2.7851434 0.54939789 0
2.0767341 -2.7983646 0.67737198 0
2.0685365 -2.7893529 0.80172557 0
2.0530546 -2.769486 -0.060175899 0
2.07128 -2.8032651 0.060839087 0
2.0642202 -2.7957513 0.18212914 0
2.0705318 -2.8053246 0.3050451 0
2.0737557 -2.8117461 0.42898014 0
2.0614572 -2.7971146 0.55033648 0
2.0657885 -2.8040161 0.67699033 0
2.0691853 -2.8106806 0.80577469 0
2.0457451 -2.7798567 -0.060245708 0
2.0567515 -2.8040283 0.06069947 0
2.0608428 -2.8106346 0.1826525 0
2.0524838 -2.801285 0.3038249 0
2.0662735 -2.8221707 0.42946759 0
2.0568371 -2.8103113 0.551588 0
2.0513525 -2.8048713 0.67546391 0
2.0639608 -2.8241796 0.80757427 0
2.0471349 -2.801156 -0.060559854 0
2.0474415 -2.8108335 0.06069947 0
2.0521946 -2.8194258 0.18275717 0
2.0591004 -2.8309901 0.30626526 0
2.0557361 -2.8274019 0.42922387 0
2.0539811 -2.8270626 0.55346519 0
2.0478084 -2.8196008 0.67737198 0
2.0568733 -2.8341627 0.80847406 0
2.0373447 -2.8082845 -0.060559854 0
2.0434761 -2.8260653 0.060873993 0
2.0423403 -2.8265722 0.18275717 0
2.0613673 -2.8539543 0.3080084 0
2.0446923 -2.8329508 0.42898014 0
2.0498781 -2.8422258 0.55502951 0
2.042546 -2.8331017 0.67889845 0
2.0458288 -2.8397441 0.80802423 0
2.0357096 -2.8267381 -0.060804185 0
2.0429273 -2.8461776 0.061153233 0
2.0359535 -2.838553 0.1830712 0
2.0513923 -2.8611324 0.3080084 0
2.0394156 -2.8465252 0.42995507 0
2.0341947 -2.8413329 0.55346519 0
2.0429275 -2.8545835 0.68233299 0
2.0370371 -2.8484533 0.80847406 0
2.0188522 -2.8240662 -0.060594756 0
2.0283382 -2.846777 0.061013613 0
2.0283494 -2.8488965 0.18328053 0
2.0321505 -2.8552897 0.30661389 0
2.0398214 -2.8681865 0.43214872 0
2.0231199 -2.8468063 0.55315232 0
2.0386355 -2.8696997 0.68424112 0
2.0338502 -2.8650808 0.8111735 0
2.0124538 -2.8359885 -0.06069947 0
2.0172341 -2.8522072 0.060978711 0
2.0345304 -2.8787942 0.18474595 0
2.0129058 -2.8577094 -0.061013613 0
