# .PCD v0.7 - Point Cloud Data file format
VERSION 0.7
FIELDS x y z intensity
SIZE 4 4 4 4
TYPE F F F F
COUNT 1 1 1 1
WIDTH 1374
HEIGHT 1
VIEWPOINT 0 0 0 1 0 0 0
POINTS 1374
DATA ascii
12.827857 -4.1111665 1.1785198 37
2.6052198 -0.83544147 -0.43332353 4
12.819138 -4.113307 1.653036 32
3.2981634 -1.0589243 -0.42532405 13
12.824554 -4.1199832 2.1334534 39
4.4804926 -1.4393915 -0.41172373 3
12.80121 -4.1149483 2.6137018 36
6.9569635 -2.2376554 -0.38299456 5
12.831287 -4.129559 3.1119728 40
12.598835 -4.0571747 -0.23103496 24
12.424457 -4.0034132 3.4976809 4
1.6064365 -0.51979387 -0.4524157 7
12.835961 -4.1558008 0.23550276 43
1.8446175 -0.59757334 -0.44765261 4
12.813173 -4.1533647 0.70590746 50
2.1570652 -0.69920844 -0.44076881 81
12.813428 -4.1559191 1.1785198 37
2.6098032 -0.84696943 -0.43457499 4
12.799037 -4.1561899 1.6523046 32
3.2925587 -1.0698172 -0.4250803 18
12.798823 -4.1610594 2.1315763 40
4.4868097 -1.4587187 -0.41276959 5
12.794236 -4.1620374 2.6152282 36
6.9396148 -2.2588351 -0.3824712 3
12.807529 -4.1713061 3.1097233 42
12.586496 -4.1017475 -0.23106986 21
12.412244 -4.0473576 3.4981983 3
1.5991045 -0.5235948 -0.4508628 7
12.825178 -4.2018266 0.23557259 42
1.8554828 -0.60825801 -0.45080194 3
12.794802 -4.1968207 0.70569807 50
2.1415532 -0.70245045 -0.43809745 78
12.800736 -4.2012424 1.1786942 36
2.6105843 -0.85730672 -0.43520072 4
12.795768 -4.2045598 1.6537671 33
3.2925758 -1.0825437 -0.42556778 11
12.772962 -4.2020063 2.129699 40
4.4741197 -1.471881 -0.41207233 3
12.790818 -4.2103548 2.6175179 36
6.94876 -2.2886686 -0.38341326 4
12.785488 -4.2135477 3.1079237 42
12.551211 -4.1387691 -0.2306859 24
12.39804 -4.0906596 3.4981983 3
1.6027685 -0.53099614 -0.4524157 6
12.808535 -4.2459402 0.23553768 46
1.8496488 -0.61350405 -0.44990209 4
12.787656 -4.2439737 0.7061168 49
2.1353617 -0.70868486 -0.43733424 96
12.770866 -4.2408757 1.1772997 36
2.6057012 -0.86579132 -0.43488789 4
12.779128 -4.2485733 1.6535234 31
3.2850099 -1.0927773 -0.4250803 3
12.758216 -4.2465668 2.129699 40
4.4765167 -1.4900067 -0.41276959 3
12.772318 -4.2537374 2.6167548 36
6.944519 -2.3141732 -0.38362259 4
12.776248 -4.2600012 3.1092734 40
12.534792 -4.1819224 -0.23065101 25
12.37269 -4.1302409 3.4950926 2
1.589915 -0.53290397 -0.44930989 6
12.78226 -4.286809 0.23532824 48
1.8511912 -0.62119675 -0.45080194 3
12.772764 -4.2885852 0.7061168 49
2.138458 -0.71800905 -0.4384791 78
12.755984 -4.285429 1.1772997 36
2.5970459 -0.87299347 -0.43394926 4
12.767983 -4.2944202 1.6540109 32
3.313159 -1.1150013 -0.42922387 3
12.750803 -4.2935967 2.1309505 40
4.4675117 -1.5043517 -0.41242099 3
12.74251 -4.2932801 2.6137018 38
6.9477539 -2.3422279 -0.38425064 4
12.770533 -4.3076863 3.1115229 42
12.522013 -4.2262912 -0.2306859 24
12.358197 -4.1734052 3.4950926 2
1.5953635 -0.54093188 -0.45138043 6
12.76343 -4.3301167 0.23525845 49
1.8416301 -0.62514913 -0.4490023 4
12.753935 -4.3318605 0.70590746 50
2.1489513 -0.72988904 -0.4411504 82
12.737175 -4.3286471 1.1769512 35
2.5921123 -0.88141751 -0.43363637 4
12.728484 -4.3306503 1.6508422 33
3.3092468 -1.1265595 -0.42922387 3
12.745088 -4.3412642 2.132515 38
4.4622331 -1.5199373 -0.41242099 3
12.723728 -4.3364668 2.6129384 36
6.9357553 -2.3651769 -0.38404128 4
12.748041 -4.3497205 3.1097233 42
12.512861 -4.271914 -0.23079063 24
12.350868 -4.2190156 3.4971633 2
1.600775 -0.54900438 -0.45345098 6
12.752021 -4.3759408 0.23532824 49
1.8320643 -0.62904251 -0.44720268 4
12.734958 -4.3750548 0.70569807 49
2.1352503 -0.73355854 -0.43886071 98
12.733293 -4.3769679 1.177997 37
2.58902 -0.89046025 -0.43363637 4
12.720798 -4.3776388 1.6518172 32
3.2865248 -1.1316411 -0.42678648 3
12.722385 -4.3831525 2.1312635 39
4.4795051 -1.5432919 -0.41451269 3
12.71965 -4.3846941 2.6152282 37
6.9274569 -2.3893726 -0.38404128 4
12.719884 -4.3897429 3.1065741 40
12.497873 -4.3155656 -0.23079063 21
12.332413 -4.2608409 3.4961278 2
1.5951984 -0.55332255 -0.4524157 6
12.740447 -4.4217386 0.23539807 49
1.8335391 -0.63671231 -0.4481025 4
12.717722 -4.4188266 0.70559341 52
2.1234043 -0.73778582 -0.43695265 95
12.712291 -4.419426 1.177474 37
2.5914931 -0.90143931 -0.43457499 4
12.709189 -4.4233208 1.6523046 33
3.2750561 -1.1404951 -0.42581153 2
12.697681 -4.4242854 2.129699 39
4.4628024 -1.5549858 -0.41346684 3
12.719098 -4.434237 2.6182814 36
6.9228458 -2.414855 -0.38425064 4
12.697125 -4.4315481 3.1047745 36
12.469518 -4.3545504 -0.2305463 17
12.306521 -4.3000398 3.493022 3
1.5843364 -0.55513722 -0.44982749 6
12.730267 -4.4630647 0.23546787 52
1.8480797 -0.64827484 -0.4521516 3
12.705661 -4.4594197 0.70569807 49
2.1247807 -0.74575329 -0.43771586 96
12.690825 -4.4567008 1.1767769 37
2.5942395 -0.91154069 -0.43551362 4
12.69523 -4.4632258 1.6523046 30
3.2826927 -1.1547307 -0.42727396 2
12.679993 -4.4628425 2.1290734 40
4.4576216 -1.5697763 -0.41346684 3
12.693994 -4.4702611 2.6159916 37
6.913341 -2.4359279 -0.38414595 3
12.694168 -4.4753032 3.1074739 40
12.453889 -4.3930378 -0.23051138 19
12.285666 -4.3361087 3.4909515 3
1.5786495 -0.55964935 -0.44879225 6
12.690108 -4.4987888 0.23501411 49
1.8366225 -0.65146452 -0.44990209 4
12.693782 -4.5050797 0.70590746 50
2.1257331 -0.75484991 -0.4384791 98
12.668773 -4.501183 1.1762538 37
2.5722685 -0.91442621 -0.43238491 4
12.683314 -4.5088434 1.6527921 32
3.2711606 -1.1635214 -0.42629901 2
12.671782 -4.5097265 2.1303248 40
4.4408526 -1.5813166 -0.41242099 3
12.666429 -4.5128031 2.6137018 36
6.9156542 -2.4652739 -0.38477397 3
12.690527 -4.526382 3.1106234 37
12.446013 -4.4391704 -0.23065101 26
12.281372 -4.382863 3.4940574 3
1.5821421 -0.56711203 -0.45034516 5
12.692357 -4.552021 0.23536316 51
1.8268856 -0.655559 -0.4481025 4
12.68738 -4.5527349 0.70643085 52
2.1378675 -0.76757288 -0.44153205 100
12.662359 -4.5487461 1.1771255 38
2.5746377 -0.92540407 -0.43332353 4
12.653628 -4.5505972 1.651086 31
3.281817 -1.1808797 -0.42824891 2
12.661538 -4.5559373 2.1312635 39
4.4390554 -1.5981581 -0.41276959 3
12.648751 -4.556324 2.6133201 34
6.905128 -2.4887221 -0.3846693 4
12.66915 -4.5686698 3.1092734 39
12.430442 -4.4825878 -0.23065101 24
12.258728 -4.4230843 3.4919868 3
1.5856016 -0.57460588 -0.45189807 6
12.671552 -4.5920415 0.23525845 45
1.8283657 -0.66294211 -0.4490023 4
12.660145 -4.592907 0.7058028 52
2.1314843 -0.773691 -0.44076881 100
12.65764 -4.5969987 1.1781713 37
2.5696981 -0.93326241 -0.43301064 4
12.640333 -4.5932112 1.6513296 31
3.262958 -1.1863298 -0.42629901 2
12.64927 -4.6014576 2.1318891 37
4.4521718 -1.6204579 -0.41451269 3
12.637261 -4.599587 2.6140833 35
6.9080973 -2.5157075 -0.38529736 4
12.631959 -4.6026511 3.1038747 31
12.416596 -4.5266356 -0.2306859 17
12.24866 -4.467834 3.4935398 5
1.5836874 -0.57986069 -0.45189807 6
12.662957 -4.6389966 0.23539807 34
1.8296998 -0.67066151 -0.44990209 4
12.634659 -4.6336327 0.70527941 49
2.1178477 -0.77669907 -0.4384791 98
12.640456 -4.6382618 1.177997 36
2.5775509 -0.94631153 -0.43488789 4
12.624223 -4.6373062 1.6513296 30
3.2625234 -1.1990821 -0.42678648 2
12.618299 -4.6401296 2.1293862 38
4.4427485 -1.6346133 -0.4141641 3
12.628498 -4.6463828 2.6156096 35
6.9142685 -2.5453253 -0.38613471 4
12.619473 -4.6480637 3.1047745 25
12.387587 -4.5651097 -0.23044157 29
12.238426 -4.5125675 3.4950926 3
1.5779283 -0.58431959 -0.4508628 7
12.536047 -4.6421995 0.23333868 19
1.8273475 -0.67704433 -0.44990209 4
12.627772 -4.681179 0.7058028 48
2.1241903 -0.78786999 -0.44038719 81
12.614031 -4.6810942 1.1771255 37
2.5722132 -0.95506477 -0.43457499 4
12.615403 -4.6841087 1.6523046 27
3.2732048 -1.2159935 -0.42873639 3
12.602025 -4.6841478 2.1293862 39
4.4295464 -1.6473335 -0.41346684 3
12.613225 -4.6933227 2.6159916 38
6.8974056 -2.5678632 -0.38571605 4
12.620614 -4.701088 3.1092734 31
12.369702 -4.607625 -0.23040667 20
12.204498 -4.5485134 3.4899161 2
1.5650233 -0.58576101 -0.44775698 8
12.414077 -4.6488428 0.23138401 42
1.823029 -0.68305361 -0.44945222 6
12.610529 -4.7274308 0.7058028 45
2.1103971 -0.79114491 -0.43809745 58
12.592018 -4.7229981 1.1766025 33
2.5633154 -0.96195537 -0.43363637 4
12.603726 -4.7324085 1.653036 28
3.2687259 -1.2279822 -0.42873639 2
12.586621 -4.7310004 2.129699 40
4.4163089 -1.6599814 -0.41276959 3
12.58574 -4.7331753 2.6137018 42
6.8884006 -2.591924 -0.38571605 4
12.598656 -4.7430534 3.1079237 28
12.356473 -4.6543407 -0.23047648 20
12.198591 -4.597302 3.493022 1
1.5683898 -0.59327078 -0.44930989 4
12.416476 -4.6992264 0.23173305 42
1.8188112 -0.68872285 -0.4490023 4
12.59395 -4.7714214 0.7058028 42
2.1168022 -0.80198467 -0.44000554 60
12.594086 -4.7739859 1.1783456 38
2.5488601 -0.9666943 -0.43175918 3
12.56857 -4.7693319 1.6505985 31
3.2532847 -1.2351571 -0.42727396 1
12.584804 -4.7805185 2.1322021 40
4.4179378 -1.6782171 -0.41346684 3
12.5618 -4.7742891 2.6121752 44
6.8494415 -2.6045949 -0.38404128 5
12.582024 -4.7870021 3.1079237 24
12.345758 -4.6995788 -0.23058119 24
12.204134 -4.6481066 3.4992335 1
1.5771363 -0.60288066 -0.4524157 3
12.558756 -4.8032589 0.23469996 31
1.8145759 -0.6943711 -0.4485524 3
12.570597 -4.8103023 0.70538408 38
2.1048224 -0.80585885 -0.43809745 58
12.577345 -4.8179183 1.1783456 31
2.5694489 -0.98477572 -0.43582645 3
12.559258 -4.8160186 1.6515735 32
3.2602916 -1.2502031 -0.42873639 1
12.567038 -4.821517 2.1318891 40
4.4139128 -1.6943424 -0.41364115 2
12.552389 -4.8209248 2.6137018 39
6.8514938 -2.6327868 -0.3846693 5
12.558804 -4.8259039 3.1061242 21
12.324506 -4.7383399 -0.23047648 26
12.167016 -4.6802278 3.493022 2
1.5733262 -0.6074115 -0.45189807 3
12.583797 -4.8607297 0.23546787 39
1.826805 -0.70600456 -0.4521516 2
12.558302 -4.8534017 0.70559341 42
2.1003075 -0.81212628 -0.43771586 58
12.566874 -4.8617568 1.1788685 36
2.569854 -0.99471718 -0.43645221 3
12.552474 -4.8612247 1.6527921 33
3.2450211 -1.2567066 -0.42727396 1
12.53256 -4.8560276 2.1287606 41
4.430562 -1.7176121 -0.41573292 2
12.547317 -4.8667827 2.6159916 37
6.8501735 -2.6583827 -0.385088 6
12.540915 -4.8668184 3.1056743 24
12.31059 -4.7799072 -0.23051138 15
12.155031 -4.7219491 3.4940574 3
1.560504 -0.60841507 -0.44879225 3
12.565746 -4.9017062 0.23543297 36
1.8208231 -0.71064156 -0.4512518 2
12.539424 -4.896482 0.70548874 33
2.1085756 -0.82337135 -0.44000554 60
12.539546 -4.8990526 1.1778227 30
2.5610218 -1.0010762 -0.43551362 2
12.541831 -4.9049921 1.6535234 34
3.2295232 -1.2636858 -0.42581153 2
12.521051 -4.9019051 2.129699 39
4.4134088 -1.7287073 -0.41468704 2
12.531109 -4.9083648 2.6159916 31
6.8506179 -2.6847277 -0.38561139 6
12.525663 -4.9112759 3.1061242 18
12.290107 -4.8213897 -0.23044157 7
12.140272 -4.7650552 3.494575 1
1.5582635 -0.61413056 -0.44879225 3
12.541117 -4.942606 0.23529334 40
1.8056412 -0.7119891 -0.4481025 2
12.540835 -4.9475532 0.70653552 37
2.0982389 -0.82821083 -0.4384791 58
12.508535 -4.939857 1.1766025 24
2.5463121 -1.0061004 -0.43363637 3
12.526481 -4.949471 1.6537671 32
3.2509372 -1.2851685 -0.42922387 1
12.505701 -4.9463081 2.1300118 40
4.3962317 -1.7397038 -0.41364115 5
12.502082 -4.949924 2.6137018 28
6.8407321 -2.7098184 -0.38561139 5
12.518448 -4.9614592 3.1088235 21
12.27692 -4.8657341 -0.23051138 7
12.12536 -4.808115 3.4950926 2
1.5632896 -0.62242454 -0.4508628 3
12.517345 -4.9863181 0.23518863 45
1.8102604 -0.72148824 -0.44990209 2
12.517051 -4.9912648 0.70622146 37
2.0953352 -0.8355301 -0.4384791 58
12.518974 -4.9945641 1.1792172 28
2.5537925 -1.0193766 -0.43551362 2
12.497194 -4.9909325 1.6523046 25
3.2388315 -1.2941289 -0.42824891 1
12.502163 -4.9979773 2.132515 34
4.3827324 -1.7520806 -0.41294393 2
12.48108 -4.9920759 2.6129384 28
6.8256688 -2.7314546 -0.38529736 5
12.501054 -5.005127 3.1088235 22
12.260861 -4.9114432 -0.2305463 6
12.127382 -4.8604307 3.5007865 1
1.5575229 -0.62643594 -0.44982749 3
12.510994 -5.034461 0.23539807 48
1.8005 -0.72489172 -0.4481025 2
12.493995 -5.0326881 0.70590746 33
2.1106167 -0.85017443 -0.44229528 62
12.505158 -5.0397224 1.1795658 36
2.5465546 -1.0268073 -0.43488789 2
12.481537 -5.0352678 1.6525484 22
3.219568 -1.2994828 -0.42629901 1
12.479145 -5.0393682 2.1315763 25
4.3728943 -1.7658762 -0.41259527 2
12.47086 -5.0385547 2.614465 30
6.8197956 -2.7567608 -0.38550669 6
12.474473 -5.0450802 3.1065741 19
12.251056 -4.957211 -0.2306859 6
12.10676 -4.9012833 3.4997511 1
1.5660654 -0.63623166 -0.45293337 4
12.500753 -5.0811133 0.23553768 48
1.8124002 -0.73704505 -0.45170173 1
12.479087 -5.0748444 0.70601213 37
2.0912697 -0.85087776 -0.43886071 39
12.491182 -5.0848455 1.1799145 36
2.5466137 -1.0371805 -0.43551362 3
12.478592 -5.0847988 1.6544983 28
3.2039831 -1.3062168 -0.42483655 2
12.453218 -5.0769944 2.1300118 31
4.3777728 -1.7856447 -0.41364115 3
12.460468 -5.0850224 2.6159916 31
6.8212256 -2.7850795 -0.38613471 4
12.45859 -5.0893297 3.107024 22
12.223443 -4.9932723 -0.23047648 6
12.104748 -4.9472513 3.5038924 1
1.5531116 -0.63729417 -0.44982749 4
12.476436 -5.119503 0.23539807 49
1.8063407 -0.74157101 -0.45080194 1
12.466838 -5.1206503 0.70632613 38
2.0901027 -0.85891867 -0.43924233 59
12.454928 -5.1208401 1.1781713 34
2.5431604 -1.0456197 -0.43551362 3
12.467169 -5.1284165 1.6552296 26
3.2290053 -1.3289223 -0.42873639 2
12.440901 -5.1226892 2.1309505 29
4.3678284 -1.7993972 -0.41329253 2
12.447166 -5.1278105 2.6167548 32
6.8193388 -2.8107285 -0.38655341 5
12.448852 -5.1335883 3.1088235 21
12.211485 -5.038198 -0.23058119 6
12.067762 -4.9813662 3.4981983 2
1.5438504 -0.63948387 -0.44775698 4
12.456642 -5.1622572 0.23536316 43
1.8109417 -0.75085717 -0.45260152 2
12.462704 -5.1673179 0.70705879 37
2.0799892 -0.86283594 -0.43771586 58
12.43788 -5.1621137 1.1781713 37
2.5340221 -1.052218 -0.43457499 4
12.451024 -5.1726651 1.6554734 28
3.2316792 -1.3432332 -0.42971134 2
12.427493 -5.1654329 2.1315763 29
4.3544788 -1.8108114 -0.41259527 2
12.418316 -5.1667037 2.614465 28
6.8057981 -2.8329802 -0.38634408 5
12.436253 -5.1792588 3.1101732 19
12.194711 -5.0786648 -0.23058119 6
12.040477 -5.0168982 3.4950926 2
1.5523021 -0.649342 -0.4508628 4
12.441299 -5.204308 0.23539807 49
1.7904652 -0.74933505 -0.4481025 2
12.440907 -5.2092471 0.70684952 34
2.0968833 -0.87843561 -0.44191366 41
12.427135 -5.20858 1.1788685 32
2.525053 -1.0583245 -0.43363637 3
12.417327 -5.2070169 1.6532797 25
3.2272069 -1.3539425 -0.42971134 2
12.418493 -5.2126036 2.1331406 27
4.3701754 -1.8352578 -0.41468704 5
12.402925 -5.2086153 2.6148465 24
6.7853184 -2.8508916 -0.38571605 5
12.420806 -5.2212257 3.1106234 21
12.189811 -5.1266279 -0.23082553 6
12.031795 -5.0626435 3.4976809 3
1.5465808 -0.65298325 -0.44982749 3
12.426741 -5.2492609 0.23546787 39
1.7914286 -0.75709754 -0.4490023 2
12.413448 -5.2487531 0.70632613 30
2.0885339 -0.88309056 -0.44076881 61
12.413464 -5.2513137 1.1792172 31
2.5104287 -1.0625125 -0.43175918 4
12.404559 -5.2526522 1.6540109 22
3.2188056 -1.3636506 -0.42922387 2
12.400222 -5.2559214 2.1331406 28
4.3637424 -1.8505013 -0.41468704 3
12.391897 -5.2549438 2.6163731 25
6.7753258 -2.8745596 -0.38571605 5
12.402505 -5.2645512 3.1106234 22
12.087174 -5.1331916 -0.22921991 8
12.033607 -5.1129208 3.5033746 2
1.5512849 -0.66167909 -0.45189807 3
1.7923596 -0.76487589 -0.44990209 2
2.0744507 -0.88611221 -0.4384791 78
2.5174153 -1.0763661 -0.43363637 4
27.588657 -11.796026 3.6841106 54
3.1921244 -1.3655092 -0.42629901 2
21.022547 -8.9972477 3.6217711 49
4.3517618 -1.8633697 -0.4141641 2
17.041138 -7.3003197 3.6036191 41
6.7720871 -2.9025202 -0.38613471 4
14.231461 -6.1025519 3.5749223 40
11.753072 -5.0398016 -0.22321628 16
12.008585 -5.1518488 3.5013041 2
1.5418686 -0.66403347 -0.44982749 3
27.710571 -11.939791 0.52667874 5
1.7949128 -0.77375442 -0.4512518 2
43.661121 -18.830557 2.4919245 12
2.0749505 -0.894903 -0.43924233 59
40.042694 -17.278257 3.8155041 100
2.5154564 -1.08593 -0.43394926 4
27.530661 -11.890767 3.6821606 76
3.2016761 -1.3834991 -0.42824891 2
20.978552 -9.0695362 3.619894 46
4.3525462 -1.8817111 -0.41486132 2
17.002934 -7.3543038 3.6009476 31
6.7784114 -2.9332805 -0.38707677 5
14.208282 -6.1514177 3.5744722 50
11.736356 -5.0836391 -0.22325119 19
11.989622 -5.1958284 3.5013041 2
1.5395414 -0.66941166 -0.44982749 4
1.7886274 -0.77845973 -0.45035201 6
43.576813 -18.974873 2.4908776 12
2.0754139 -0.90370804 -0.44000554 60
39.766602 -17.32403 3.7949355 14
2.5007854 -1.0899683 -0.43207204 4
27.478069 -11.982035 3.6806982 63
3.2113831 -1.4010168 -0.43019882 1
20.954004 -9.1458702 3.6211455 41
4.3276911 -1.888923 -0.41311821 2
16.980759 -7.4151821 3.6017108 45
6.7589793 -2.9529257 -0.38655341 4
14.184939 -6.2001958 3.5740223 47
11.714875 -5.1229734 -0.22318138 18
11.978492 -5.2407451 3.5033746 1
1.5442709 -0.6778875 -0.45189807 3
26.802633 -11.771112 0.51097155 5
1.7734102 -0.7792111 -0.44720268 10
26.442245 -11.623852 1.5137653 17
2.0776384 -0.91331726 -0.4411504 41
37.433434 -16.463306 3.5777433 50
2.4915411 -1.0963044 -0.43113342 4
27.421539 -12.071479 3.6787481 58
3.2101066 -1.4138184 -0.4306863 5
20.934607 -9.2245331 3.6233354 60
4.3320107 -1.908838 -0.4141641 2
16.924231 -7.4609466 3.5952232 45
6.744976 -2.9748888 -0.38634408 4
14.141815 -6.240232 3.5686235 55
11.709727 -5.1694884 -0.22342572 17
11.984866 -5.2934537 3.5106218 1
1.5471939 -0.68562198 -0.45345098 4
26.713852 -11.843527 0.51006407 5
1.7599913 -0.78065592 -0.44450328 9
37.402447 -16.597918 2.1445184 43
2.0744376 -0.920564 -0.4411504 41
37.390305 -16.600342 3.5791376 51
2.4931152 -1.1074004 -0.43207204 4
27.371979 -12.163899 3.6777732 58
3.1761293 -1.4121116 -0.42678648 3
20.907694 -9.2999611 3.624274 57
4.3216801 -1.9223286 -0.41381544 2
16.890911 -7.5167866 3.5936968 41
6.7309012 -2.9967904 -0.38613471 5
14.103926 -6.2824221 3.5645745 47
11.695264 -5.2119589 -0.22349551 9
11.952199 -5.3289618 3.5064805 2
1.5378574 -0.68759477 -0.45138043 6
1.7662865 -0.79046816 -0.44675279 13
37.350845 -16.723488 2.1447277 43
2.06779 -0.92583352 -0.44038719 40
37.351418 -16.731571 3.5807066 51
2.5074553 -1.1237404 -0.43520072 4
27.324247 -12.251354 3.6767986 54
3.1678069 -1.4210113 -0.42629901 1
20.86232 -9.362772 3.6217711 49
4.3189168 -1.9382808 -0.4141641 2
16.865892 -7.5727572 3.5936968 44
6.7373238 -3.0264599 -0.38707677 6
14.077682 -6.3267612 3.5632248 56
11.672444 -5.2482529 -0.2233908 12
11.937986 -5.370153 3.5075159 1
1.5231221 -0.68739593 -0.44775698 3
26.805758 -12.103263 0.51337999 10
1.7652925 -0.79743099 -0.44720268 12
37.306805 -16.860348 2.145565 43
2.0645459 -0.93304586 -0.44038719 40
37.283707 -16.857746 3.5798349 51
2.4963183 -1.1292298 -0.43394926 4
27.292166 -12.351569 3.6782608 58
3.1953778 -1.4467987 -0.4306863 2
20.840307 -9.4404287 3.6236484 63
4.2976055 -1.9467678 -0.41276959 2
16.83399 -7.6291518 3.5925519 30
6.7321754 -3.0524335 -0.38739079 6
14.057286 -6.3766685 3.5636747 45
11.661338 -5.2922711 -0.22353043 11
11.915648 -5.4101939 3.5064805 1
1.5259874 -0.69511092 -0.44930989 3
26.803379 -12.215003 0.51414788 5
1.760725 -0.80277979 -0.44675279 11
2.05949 -0.93943197 -0.44000554 60
43.385544 -19.799372 4.1723194 100
2.4869707 -1.1354752 -0.43301064 5
27.225412 -12.436039 3.6750922 49
3.1794751 -1.4529933 -0.42922387 1
20.810684 -9.5103064 3.6239612 63
4.3016558 -1.9667281 -0.41381544 2
16.792973 -7.6813335 3.589499 53
6.7142148 -3.0725904 -0.3869721 6
14.045574 -6.4305663 3.5663741 58
11.64736 -5.3325777 -0.22360022 11
11.908182 -5.454505 3.5095863 1
1.5375937 -0.70688897 -0.45345098 3
26.806328 -12.323866 0.51498562 5
1.7492011 -0.8045426 -0.44450328 9
2.054415 -0.94579428 -0.43962395 40
43.339691 -19.961531 4.1745858 100
2.4975452 -1.1503272 -0.43551362 9
27.156981 -12.513792 3.6714361 45
3.1710339 -1.4618666 -0.42873639 2
20.779154 -9.5837193 3.624274 52
4.2839103 -1.9767231 -0.41276959 2
16.749584 -7.728754 3.5856831 37
6.7003622 -3.093164 -0.38676277 6
14.011788 -6.4713874 3.5632248 39
11.645012 -5.3807507 -0.22391438 12
11.892576 -5.4976606 3.5106218 1
1.5282309 -0.70873284 -0.45138043 3
26.850218 -12.45776 0.51666105 10
1.746382 -0.81064349 -0.44450328 9
26.804102 -12.447738 1.5488305 4
2.0583894 -0.95590931 -0.4411504 61
43.296749 -20.116055 4.1768517 100
2.4773927 -1.1515445 -0.43269777 5
27.105932 -12.605163 3.6704612 54
3.1371143 -1.4595288 -0.42483655 2
20.747366 -9.6570272 3.6245871 46
4.2914333 -1.9983933 -0.4141641 2
16.722504 -7.7871737 3.5856831 64
6.7040076 -3.1232812 -0.38760012 6
13.994412 -6.522728 3.5645745 58
11.633408 -5.4247475 -0.22405399 10
11.883818 -5.5440402 3.5137274 1
1.529122 -0.71596766 -0.4524157 3
28.179312 -13.194158 0.54311889 12
1.7506006 -0.82004124 -0.44630289 6
2.054872 -0.96344721 -0.4411504 61
43.224533 -20.275454 4.1770263 100
2.4749439 -1.1614561 -0.43301064 5
27.04739 -12.692957 3.6685112 40
3.1463757 -1.4772196 -0.42678648 2
20.701015 -9.7235117 3.6223969 63
4.3006606 -2.0209873 -0.41573292 5
16.697403 -7.8500834 3.5864463 45
6.6943226 -3.1486819 -0.38770482 5
13.961594 -6.5698266 3.5623248 29
11.61802 -5.4670248 -0.22412381 9
11.867888 -5.5871348 3.5147629 1
1.5108933 -0.71387339 -0.44775698 3
28.123533 -13.293933 0.5429793 6
1.7652001 -0.8347832 -0.45080194 3
26.449329 -12.508188 1.533339 8
2.0443981 -0.96725583 -0.43962395 60
43.162495 -20.430475 4.1778975 100
2.4744449 -1.1717789 -0.43363637 5
27.009655 -12.796256 3.6697299 63
3.1517031 -1.4938431 -0.42824891 2
20.659805 -9.7923269 3.6211455 57
4.2719769 -2.0257432 -0.41364115 5
16.66103 -7.9041128 3.584538 39
6.6832905 -3.1720302 -0.38770482 5
13.947378 -6.6227021 3.5645745 47
11.602479 -5.5092621 -0.22419362 12
11.823884 -5.6169219 3.5075159 1
1.5171113 -0.72329998 -0.45034516 3
28.144278 -13.418102 0.54423583 6
1.7571454 -0.83811539 -0.44945222 3
2.0498676 -0.97861516 -0.44153205 61
43.099907 -20.585308 4.1787691 100
2.465198 -1.177424 -0.43269777 6
26.968864 -12.886607 3.6699739 36
3.1467321 -1.5042863 -0.42824891 2
20.625498 -9.8643837 3.6211455 24
4.248704 -2.0329032 -0.41207233 2
16.634727 -7.9593191 3.584538 19
6.6673312 -3.1915886 -0.38739079 5
13.920068 -6.6663918 3.5632248 13
11.593998 -5.5549126 -0.22440305 9
11.814658 -5.6631713 3.5106218 1
1.5147045 -0.72832692 -0.45034516 3
1.7401614 -0.83748311 -0.44585299 3
2.0625312 -0.99307257 -0.44496658 8
2.4699707 -1.1903099 -0.4342621 5
3.130734 -1.5100867 -0.42678648 2
4.2652664 -2.0582383 -0.41433838 3
3.3698118 -1.6268544 0.72736394 6
6.638165 -3.2061558 -0.38634408 6
13.903731 -6.7183323 3.5650244 13
11.822643 -5.7178349 3.518904 1
1.5034623 -0.72939366 -0.44775698 2
3.2921591 -1.5978764 0.063875809 2
1.7407334 -0.84525466 -0.44675279 4
3.2947767 -1.6005683 0.19196831 6
2.0449252 -0.99340338 -0.44191366 100
3.3258882 -1.6163994 0.32352212 17
2.4675775 -1.1997882 -0.43457499 6
3.1254437 -1.5210059 -0.42678648 2
4.2580562 -2.0731139 -0.41433838 3
6.6269326 -3.2293079 -0.38634408 6
3.3824654 -1.6490079 0.868761 39
3.2747068 -1.5971813 -0.063596569 33
11.781778 -5.7489033 3.5126922 1
1.511318 -0.73973298 -0.4508628 2
3.291949 -1.6119969 0.06398052 49
1.7430224 -0.85389781 -0.4481025 4
2.0326304 -0.99621522 -0.44000554 60
3.3220146 -1.6288763 0.32369643 49
2.470468 -1.2118741 -0.43582645 6
3.346704 -1.6424316 0.45774129 100
3.127243 -1.535406 -0.42776144 2
3.352803 -1.6468772 0.59163523 67
4.2561584 -2.0906 -0.41486132 5
3.3795161 -1.6607307 0.73194337 90
6.6174116 -3.2533016 -0.38644874 6
3.3906782 -1.6676854 0.87236023 56
3.2583463 -1.6033051 -0.063387141 100
11.778972 -5.7985263 3.5178688 1
1.501798 -0.74158257 -0.44879225 2
3.2701669 -1.6155069 0.063666381 53
1.7470192 -0.86343056 -0.44990209 5
3.3014259 -1.6323833 0.19301502 99
2.0396998 -1.0085255 -0.44229528 41
3.3145227 -1.6395789 0.32352212 81
2.4662228 -1.2204903 -0.43582645 6
3.3373923 -1.6523421 0.45725381 100
3.1183069 -1.5445507 -0.42727396 2
3.3417242 -1.6559393 0.59069663 76
4.2399087 -2.1010208 -0.41398975 5
3.3613861 -1.6664133 0.72927201 85
6.6203299 -3.2834802 -0.38728613 5
3.3813446 -1.6777786 0.87146038 54
3.2401919 -1.6084452 -0.063142806 100
11.748278 -5.8344522 3.5147629 1
1.4992001 -0.74682033 -0.44879225 1
3.2734563 -1.6313717 0.063840903 90
1.7544585 -0.87474078 -0.45260152 7
3.2959948 -1.6433223 0.19301502 100
2.0326533 -1.0138866 -0.44153205 41
3.3087792 -1.6511388 0.32352212 71
2.4460413 -1.2211506 -0.43301064 6
3.3280525 -1.6622077 0.45676634 98
3.1238232 -1.5602046 -0.42873639 2
3.3379817 -1.6678947 0.5910095 79
4.2236385 -2.1113539 -0.41311821 5
3.3450129 -1.6728677 0.7269823 79
6.6088281 -3.3065696 -0.38728613 6
3.3879621 -1.6950861 0.87460971 52
3.2437813 -1.6236566 -0.063317336 101
11.72541 -5.8716478 3.5137274 1
1.500168 -0.75352198 -0.44982749 2
3.2519474 -1.634137 0.063526757 99
1.7550303 -0.88230449 -0.45350131 13
3.2833891 -1.6506547 0.19259633 100
2.0292799 -1.0206214 -0.44153205 41
3.308625 -1.6647886 0.32404503 68
2.4472718 -1.2319199 -0.43394926 6
3.3189766 -1.6714492 0.45627886 100
3.1328158 -1.577698 -0.4306863 2
3.3430169 -1.6842875 0.59288669 79
4.2183928 -2.126245 -0.41329253 5
3.342953 -1.6857188 0.72774553 79
6.590694 -3.3248684 -0.3868674 5
3.387542 -1.7089448 0.87595946 54
3.2401643 -1.6353053 -0.063352235 100
11.711049 -5.9131112 3.5152805 1
1.521789 -0.7707122 -0.45707443 2
3.2572131 -1.6503347 0.063736185 96
1.7312367 -0.87754673 -0.4481025 6
3.2633572 -1.6548793 0.19175896 97
2.0118766 -1.0202416 -0.4384791 39
3.3084166 -1.6784556 0.32456797 71
2.4484575 -1.2427107 -0.43488789 5
3.3134155 -1.6824461 0.45627886 95
3.1166704 -1.5832297 -0.42922387 2
3.3318343 -1.6932617 0.59194809 75
4.2202001 -2.1447353 -0.4141641 5
3.3338447 -1.6950157 0.7269823 79
6.5778518 -3.3458004 -0.38676277 4
3.3659246 -1.7128049 0.87191027 56
3.2397826 -1.6493274 -0.063456953 100
11.698944 -5.9583378 3.5178688 1
1.5122081 -0.77250421 -0.45500392 2
3.2585552 -1.6653345 0.063875809 100
1.7246927 -0.88181025 -0.44720268 6
3.2557824 -1.665351 0.19165429 92
2.0117986 -1.0290463 -0.43924233 39
3.3025377 -1.6899937 0.32456797 71
2.4581714 -1.2584512 -0.43739083 5
3.3075225 -1.6940019 0.45627886 100
3.1075916 -1.5922889 -0.42873639 7
3.315356 -1.699475 0.59007084 75
4.2215524 -2.1639977 -0.41503564 5
3.3453767 -1.7156013 0.73079848 79
6.5696874 -3.3705647 -0.3869721 5
3.3599253 -1.7245438 0.87191027 58
3.2215533 -1.6542321 -0.063212618 100
11.69354 -6.0070825 3.5225275 1
1.5009156 -0.77335387 -0.4524157 3
3.2491674 -1.6748663 0.063805997 99
1.7319959 -0.89318424 -0.44990209 6
3.267699 -1.6858629 0.19270101 100
2.0081944 -1.0360625 -0.43924233 39
3.284225 -1.695115 0.32334781 74
2.4502532 -1.2652116 -0.43676507 5
3.3192255 -1.7146478 0.45871624 95
3.0879064 -1.5958354 -0.42678648 2
3.3094037 -1.7110376 0.59007084 76
4.2086635 -2.1759756 -0.41451269 5
3.3289051 -1.7218565 0.72850877 82
6.5649767 -3.3971481 -0.38739079 5
3.3573463 -1.7380533 0.87281007 56
3.2157593 -1.6654674 -0.063212618 101
11.670785 -6.0469761 3.5220098 2
1.4999213 -0.77947915 -0.45293337 10
3.2379787 -1.6834307 0.063701279 100
1.7098502 -0.88933313 -0.44495317 6
3.263566 -1.6981812 0.19280569 100
2.0115318 -1.0466911 -0.44076881 40
3.2818224 -1.7084086 0.32369643 74
2.4405656 -1.2710195 -0.43582645 4
3.2956157 -1.7170513 0.45627886 86
3.0928791 -1.6121098 -0.42824891 2
3.3121686 -1.7271458 0.59163523 79
4.2116423 -2.1961803 -0.41555858 5
3.315912 -1.7298341 0.7269823 79
6.5548491 -3.4209676 -0.38749546 6
3.3581688 -1.75337 0.87460971 58
3.2152436 -1.6794599 -0.063317336 100
11.641045 -6.0832043 3.5194216 3
1.4989023 -0.78560692 -0.45345098 10
3.2303116 -1.6937945 0.063666381 100
1.7153639 -0.89982253 -0.44720268 6
3.2579167 -1.7089942 0.19280569 100
2.0182965 -1.05918 -0.44305849 42
3.2846591 -1.7244847 0.32456797 78
2.4256213 -1.2740197 -0.43394926 4
3.2825727 -1.7248511 0.45530388 86
3.0802047 -1.6192014 -0.42727396 2
3.3169141 -1.7436348 0.59351242 81
4.1986599 -2.2080863 -0.41503564 6
3.3115909 -1.7423123 0.72736394 75
6.5198917 -3.4317343 -0.38613471 4
3.3451307 -1.7614495 0.87281007 60
3.2185035 -1.6947713 -0.063491859 100
11.649864 -6.1370802 3.5282214 2
1.4910271 -0.78812587 -0.45189807 3
3.2282128 -1.7063661 0.063736185 100
1.7089251 -0.90368396 -0.44630289 6
3.2378078 -1.7128842 0.19196831 100
2.0076461 -1.0625453 -0.44153205 41
3.2715764 -1.7322105 0.32387072 85
2.4283662 -1.2857537 -0.43520072 4
3.2838516 -1.7394439 0.45627886 67
3.067802 -1.6256888 -0.42629901 2
3.3073168 -1.7533519 0.59288669 94
4.1944475 -2.224596 -0.41538426 3
3.3144672 -1.7578837 0.72927201 61
6.5208259 -3.4598882 -0.3868674 6
3.3341074 -1.7697916 0.87146038 65
3.2037377 -1.7013062 -0.063317336 100
11.631783 -6.1795216 3.5292566 3
1.4952251 -0.7966997 -0.45396861 1
3.2292953 -1.7213869 0.063875809 100
1.7057604 -0.90964377 -0.44630289 6
3.221236 -1.7185351 0.19134027 68
1.9900689 -1.0621516 -0.4384791 39
3.2658143 -1.74305 0.32387072 97
2.4308336 -1.2979442 -0.43645221 4
3.2865148 -1.7555724 0.45749757 68
3.0586071 -1.6345162 -0.42581153 2
3.2872398 -1.7574352 0.59038377 99
4.1726012 -2.2317064 -0.41398975 3
3.3149259 -1.7737248 0.73079848 63
6.5169058 -3.4884784 -0.38739079 6
3.3347816 -1.7850977 0.87326002 65
3.1924906 -1.7096469 -0.063212618 100
11.605034 -6.2173495 3.5277038 6
1.4888918 -0.80034536 -0.45293337 1
3.2176809 -1.73037 0.063771099 100
1.7109956 -0.92050588 -0.4485524 6
3.2448137 -1.7464217 0.19311969 82
1.9861625 -1.0694383 -0.4384791 39
3.2541411 -1.7521744 0.32334781 89
2.427799 -1.3077818 -0.43676507 5
3.2818055 -1.7685481 0.45774129 65
3.0456064 -1.6419476 -0.42483655 3
3.2842538 -1.7713472 0.5910095 100
4.1714077 -2.2507691 -0.41468704 3
3.3049476 -1.7839978 0.73003525 63
6.5198922 -3.5208819 -0.38833284 5
3.3265016 -1.7963824 0.87281007 67
3.1862032 -1.7213365 -0.063212618 99
11.590665 -6.2644343 3.5302918 2
1.4791554 -0.80211341 -0.4508628 1
3.2060442 -1.7392912 0.063666381 100
1.709323 -0.9277004 -0.4490023 5
3.2366357 -1.75735 0.19301502 82
1.9891303 -1.0804592 -0.44000554 40
3.2459462 -1.7631387 0.32317349 93
2.4125757 -1.3110121 -0.43488789 6
3.2718132 -1.7786683 0.45725381 65
3.0517752 -1.6597383 -0.42654276 3
3.2812097 -1.7852607 0.59163523 99
4.1508803 -2.2593756 -0.41346684 3
3.2880414 -1.7904656 0.72774553 61
6.5104513 -3.5466657 -0.38854218 5
3.3284519 -1.8132238 0.8750596 65
3.1851404 -1.7358739 -0.063317336 100
11.577804 -6.3124228 3.5333977 1
1.4829851 -0.81123799 -0.45293337 1
3.190877 -1.74623 0.063491859 100
1.699074 -0.93021572 -0.44720268 5
3.2301729 -1.7692008 0.19301502 85
1.9817133 -1.0858556 -0.43924233 39
3.2464511 -1.7788533 0.32387072 93
2.4129505 -1.3226944 -0.43582645 7
3.2600508 -1.7877847 0.45652261 67
3.0543733 -1.6756865 -0.42776144 3
3.2850347 -1.8029777 0.59351242 100
4.1547966 -2.2812867 -0.41468704 3
3.2814567 -1.8025048 0.72774553 61
6.4956579 -3.5695419 -0.38843751 4
3.3217835 -1.825411 0.8750596 65
3.1822615 -1.7494628 -0.063387141 94
11.585058 -6.371573 3.5427153 1
1.48734 -0.81936306 -0.45500392 1
3.1979411 -1.7624463 0.063736185 103
1.6963065 -0.9352529 -0.44720268 5
3.2126675 -1.7720249 0.19228233 79
1.9855497 -1.0951782 -0.44076881 40
3.2481368 -1.7923282 0.32456797 93
2.4176626 -1.3346214 -0.43739083 8
3.2495186 -1.7945707 0.45579138 63
3.0320127 -1.675142 -0.42532405 4
3.2796707 -1.8127167 0.59351242 96
4.1484098 -2.2928801 -0.41468704 5
3.2867191 -1.8173615 0.73003525 64
6.4821692 -3.5857337 -0.38822815 4
3.3044176 -1.8286538 0.87191027 67
3.1770566 -1.7588971 -0.063387141 94
11.562723 -6.404047 3.5416801 1
1.4743377 -0.81892151 -0.45189807 1
3.1952653 -1.7755412 0.063805997 100
1.701548 -0.94590276 -0.44945222 4
3.2099535 -1.7851697 0.19249167 79
1.9748517 -1.0982856 -0.43924233 39
3.2366374 -1.8007495 0.32404503 89
2.4129894 -1.3430524 -0.43739083 8
3.2553751 -1.8126627 0.45749757 67
3.0226784 -1.6837833 -0.42483655 4
3.2629697 -1.8183841 0.59163523 99
4.13516 -2.3044372 -0.4141641 2
3.2820702 -1.829779 0.73041683 72
6.4905448 -3.6200135 -0.38948423 4
3.2946107 -1.8382783 0.87101048 67
3.1551828 -1.7612046 -0.063072994 99
11.547045 -6.4481363 3.5437505 1
1.457986 -0.81651139 -0.44775698 1
3.1925371 -1.7886387 0.063875809 100
1.7067354 -0.95660043 -0.45170173 4
3.2089286 -1.7992942 0.19280569 82
1.9778557 -1.1090132 -0.44076881 40
3.2251189 -1.8091122 0.32352212 93
2.4031184 -1.3485671 -0.43645221 6
3.2507589 -1.8249868 0.45774129 65
3.0306287 -1.7021009 -0.42678648 4
3.2600472 -1.8316984 0.59226096 96
4.1214752 -2.316649 -0.41364115 3
3.2790859 -1.8431486 0.73118013 67
6.4830918 -3.6455843 -0.38979825 5
3.2966661 -1.8545446 0.87326002 65
3.1559865 -1.7761303 -0.063212618 99
11.521099 -6.4865088 3.5427153 1
1.4617118 -0.8256501 -0.44982749 1
3.1793096 -1.7958379 0.063736185 100
1.6932061 -0.95679992 -0.4490023 5
3.209583 -1.8144159 0.19322437 82
1.966942 -1.1123891 -0.43924233 59
3.2219346 -1.822883 0.32387072 93
2.3895638 -1.3525008 -0.43488789 6
3.2443686 -1.836323 0.45774129 65
3.0350332 -1.718538 -0.42824891 4
3.257071 -1.8450139 0.59288669 96
4.1133637 -2.3310213 -0.41364115 2
3.2620609 -1.8493451 0.72889042 70
6.4714236 -3.6703067 -0.38990292 5
3.3000162 -1.8723853 0.87595946 69
3.1549852 -1.7900966 -0.063317336 100
11.508468 -6.5324068 3.5458212 1
1.4621782 -0.83265942 -0.4508628 1
3.1692312 -1.805499 0.063666381 100
1.6795294 -0.95720983 -0.44630289 6
3.2049654 -1.8265975 0.19332905 79
1.9732801 -1.1250826 -0.44153205 41
3.2190135 -1.8360927 0.32421938 93
2.3882596 -1.3627917 -0.43551362 5
3.2289965 -1.8432814 0.45652261 67
3.0287139 -1.7296504 -0.42824891 3
3.2557569 -1.8593109 0.59382528 87
4.0948215 -2.3394353 -0.41259527 2
3.2538812 -1.8597462 0.72850877 79
6.4447021 -3.6849432 -0.38906553 5
3.2883854 -1.8809901 0.87460971 63
3.1521888 -1.8030843 -0.063387141 94
11.499009 -6.580215 3.549962 1
1.4659644 -0.8416056 -0.45293337 1
3.1701634 -1.819981 0.063805997 100
1.6780359 -0.96374458 -0.44675279 6
3.1881793 -1.8318036 0.19270101 94
1.9693408 -1.1319638 -0.44153205 41
3.2074032 -1.8443385 0.32369643 71
2.3837273 -1.3707041 -0.43551362 4
3.229749 -1.8579382 0.45749757 85
3.0057564 -1.7297829 -0.42581153 3
3.2458231 -1.868693 0.59319955 75
4.1004429 -2.3616695 -0.41398975 2
3.2528 -1.8734658 0.7296536 90
6.4359074 -3.7082882 -0.38927487 5
3.2719998 -1.8860455 0.87191027 46
3.1528051 -1.8180723 -0.063526757 100
11.482664 -6.6241755 3.5520327 1
1.4598211 -0.84452748 -0.45189807 1
3.1655219 -1.8320376 0.063840903 94
1.6814075 -0.97350198 -0.4485524 6
3.185544 -1.8443675 0.19291034 100
1.9553831 -1.1325842 -0.43924233 39
3.2202322 -1.8659524 0.32561383 78
2.3823462 -1.3809977 -0.43613935 3
3.2249613 -1.8701967 0.45774129 82
3.0203047 -1.7522182 -0.42873639 3
3.2327735 -1.8754812 0.59194809 75
4.0994816 -2.3792551 -0.41468704 5
3.253032 -1.888752 0.73118013 90
6.4350133 -3.7377532 -0.39000759 5
3.2603414 -1.8945183 0.87056059 39
3.1381135 -1.8234942 -0.063352235 100
11.460633 -6.6622171 3.5520327 1
1.4468515 -0.84377885 -0.44879225 1
3.1646116 -1.845547 0.063945621 96
1.6764868 -0.97809029 -0.4481025 6
3.1859865 -1.859503 0.19332905 100
1.9548087 -1.1413826 -0.44000554 40
3.2033768 -1.8711524 0.32456797 78
2.3896933 -1.3958646 -0.4383294 3
3.2187417 -1.8808807 0.45774129 83
3.0161915 -1.7632263 -0.42898014 4
3.2262073 -1.8867542 0.59194809 75
4.0636358 -2.3774526 -0.41189805 5
3.2450559 -1.8985378 0.73079848 87
6.4398208 -3.769161 -0.3910543 5
3.2590864 -1.9082732 0.87191027 46
3.133455 -1.8354477 -0.063387141 100
11.440642 -6.7041349 3.5530679 1
1.4440454 -0.84857208 -0.44879225 1
3.1512544 -1.8525283 0.063805997 96
1.6848208 -0.99085164 -0.4512518 7
3.176033 -1.8685873 0.19311969 100
1.9645499 -1.1558232 -0.44305849 42
3.2023053 -1.8847966 0.32509091 74
2.366082 -1.3931725 -0.43488789 4
3.2155771 -1.8941199 0.45822877 86
3.001467 -1.768705 -0.42776144 4
3.2264085 -1.9020171 0.59319955 75
4.0660281 -2.3969858 -0.41294393 2
3.238409 -1.9098533 0.73079848 94
6.4386663 -3.7987211 -0.39178702 4
3.2540834 -1.9206285 0.87236023 41
3.1270289 -1.8463743 -0.063387141 101
11.427151 -6.7499247 3.5561738 1
1.4443988 -0.85557663 -0.44982749 2
3.144769 -1.863517 0.063805997 100
1.6729703 -0.99175787 -0.4490023 7
3.1780806 -1.8847564 0.19364306 100
1.9621921 -1.1636753 -0.44344014 100
3.1974201 -1.8969797 0.32526523 78
2.3730953 -1.4084808 -0.43707794 4
3.195291 -1.897225 0.45627886 83
3.0021014 -1.7832261 -0.42873639 3
3.223146 -1.9152858 0.59382528 75
4.0559235 -2.4101462 -0.41276959 3
3.2283478 -1.9191396 0.73003525 85
6.4167833 -3.8160689 -0.39126363 4
3.2440097 -1.929983 0.87146038 41
3.1343119 -1.8654604 -0.063666381 100
11.408499 -6.7927361 3.5577266 1
1.4646251 -0.87447828 -0.45707443 2
3.145112 -1.8785847 0.063945621 100
1.6661525 -0.99559247 -0.4481025 6
3.1543391 -1.8855906 0.19259633 100
1.9513776 -1.1664882 -0.44191366 8
3.1856489 -1.9050616 0.32474229 72
2.3613837 -1.4126991 -0.43582645 6
3.1920555 -1.9104059 0.45676634 82
2.9907491 -1.7906355 -0.42800516 3
3.2181351 -1.9275402 0.59413815 73
4.0509043 -2.4263372 -0.41311821 3
3.2233131 -1.931406 0.73041683 90
6.4119892 -3.8435783 -0.39178702 4
3.2339106 -1.9392905 0.87056059 43
3.1277812 -1.8763897 -0.063666381 100
11.389688 -6.8355007 3.5592797 1
1.4450115 -0.86962414 -0.45189807 1
3.1436746 -1.892646 0.064050332 100
1.6626672 -1.0014024 -0.4481025 6
3.1408949 -1.8924667 0.19217765 96
1.9405674 -1.1692398 -0.44038719 60
3.1926308 -1.9243983 0.32613677 74
2.3716629 -1.430114 -0.43864229 7
3.1955662 -1.9276887 0.45822877 82
2.9861801 -1.8020898 -0.42824891 4
3.2012408 -1.9326363 0.59226096 70
4.0458217 -2.442522 -0.41346684 3
3.2249544 -1.9477204 0.73232496 85
6.4002428 -3.8669701 -0.39189169 5
3.2254539 -1.9495591 0.87011069 69
3.1075227 -1.8790187 -0.063387141 100
11.378982 -6.8832154 3.5634208 1
1.4353602 -0.87065524 -0.44982749 2
3.1387584 -1.9046454 0.064085238 99
1.672488 -1.01529 -0.45170173 4
3.1564627 -1.9168963 0.19353838 100
1.9431864 -1.1800828 -0.44191366 41
3.1722717 -1.927255 0.32474229 74
2.3649683 -1.4373578 -0.4383294 7
3.1854258 -1.936769 0.45774129 83
2.9679995 -1.8052815 -0.42654276 4
3.1944752 -1.943799 0.59226096 69
4.0270581 -2.4504156 -0.41242099 3
3.2181361 -1.9589659 0.73232496 94
6.4088821 -3.902792 -0.3932524 4
3.2369354 -1.9719586 0.8750596 76
3.0941143 -1.8856916 -0.063247517 100
11.34169 -6.9148488 3.5592797 1
1.4290158 -0.87364489 -0.44879225 1
3.1218553 -1.9093298 0.063875809 99
1.6722584 -1.023156 -0.45260152 4
3.1582694 -1.9331161 0.19406174 100
1.9290085 -1.180709 -0.43962395 40
3.1672242 -1.9393569 0.3249166 78
2.3548832 -1.4425089 -0.43739083 7
3.1888008 -1.9540997 0.45920372 83
2.9718342 -1.8218557 -0.42800516 4
3.1977742 -1.9611341 0.59413815 73
4.0167818 -2.4634159 -0.41224664 5
3.2012379 -1.964027 0.73003525 84
6.4054327 -3.9314079 -0.39388046 4
3.2333539 -1.9852849 0.87595946 86
3.1062565 -1.9079936 -0.063631475 100
11.33065 -6.9624867 3.5634208 1
1.4325364 -0.88268149 -0.4508628 3
3.1151714 -1.9202157 0.063875809 96
1.6504307 -1.0177357 -0.44765261 6
3.1382415 -1.9351921 0.19322437 99
1.9349006 -1.1936198 -0.44191366 41
3.1536534 -1.9462155 0.32421938 77
2.3531952 -1.4527955 -0.43801656 6
3.1752048 -1.9610462 0.45822877 70
2.9671452 -1.8332618 -0.42824891 4
3.1962945 -1.9748425 0.5950768 85
4.0251064 -2.4878974 -0.41398975 5
3.1926925 -1.9741572 0.7296536 72
6.3933692 -3.9547937 -0.39398512 6
3.2264042 -1.9965595 0.87595946 80
3.1050136 -1.9214407 -0.063736185 100
11.32064 -7.0081577 3.5675619 1
1.4294465 -0.88767648 -0.4508628 3
3.113883 -1.9337 0.06398052 100
1.648702 -1.0242316 -0.4481025 6
3.1331639 -1.9471892 0.19332905 91
1.9207187 -1.194147 -0.43962395 40
3.163759 -1.9677348 0.32596248 93
2.341655 -1.456418 -0.43676507 5
3.1720552 -1.9736624 0.45871624 62
2.9475675 -1.834699 -0.42629901 3
3.186028 -1.9838991 0.59445107 90
4.0214705 -2.5050931 -0.41451269 5
3.1961269 -1.990962 0.73194337 70
6.3937802 -3.9844234 -0.39482248 6
3.2131505 -2.0031238 0.87415981 84
3.0898037 -1.9269764 -0.063561663 100
11.309221 -7.0558119 3.571703 1
1.4363215 -0.89855933 -0.45396861 2
3.1138947 -1.9488014 0.064120144 100
1.6517235 -1.0341167 -0.44990209 6
3.124655 -1.9570538 0.19322437 75
1.9200759 -1.202594 -0.44038719 40
3.1589048 -1.9792731 0.32613677 89
2.3265145 -1.4582882 -0.43488789 4
3.1617827 -1.9826137 0.45822877 65
2.9445083 -1.8470863 -0.42678648 3
3.1723907 -1.9908085 0.59319955 87
4.0114536 -2.5173559 -0.41433838 5
3.1924832 -2.004194 0.73270655 67
6.3764496 -4.0045938 -0.39461315 5
3.2061388 -2.0143275 0.87415981 75
3.0712073 -1.9303013 -0.063317336 92
11.284522 -7.0952454 3.571703 2
1.4135662 -0.89120406 -0.44775698 2
3.1070731 -1.959659 0.064120144 100
1.6596407 -1.0471553 -0.45305145 7
3.1245606 -1.9722133 0.19364306 85
1.9125459 -1.2071933 -0.43962395 40
3.1401837 -1.9828413 0.3249166 93
2.3381104 -1.47695 -0.43801656 3
3.1649115 -2.0000007 0.4596912 62
2.9447546 -1.8615963 -0.42776144 3
3.1721003 -2.0060933 0.59445107 87
3.9858031 -2.5206935 -0.41259527 5
3.1854677 -2.0153258 0.73270655 67
6.3911228 -4.0449848 -0.39639258 4
3.2040274 -2.0286343 0.8755095 73
3.0745864 -1.9474303 -0.063526757 89
11.259686 -7.134593 3.571703 2
1.4169689 -0.9002769 -0.44982749 2
3.0900879 -1.9640565 0.063910715 100
1.6625531 -1.0571245 -0.45485103 7
3.1210275 -1.9852519 0.19385241 75
1.9050072 -1.2117546 -0.43886071 39
3.1332436 -1.9937904 0.3249166 93
2.3196099 -1.4766163 -0.43551362 3
3.1545622 -2.0089035 0.45920372 57
2.9482834 -1.8782638 -0.42922387 2
3.1684098 -2.0192771 0.5950768 90
3.9899774 -2.5438542 -0.41398975 5
3.1734471 -2.0232663 0.73156172 66
6.397171 -4.0801578 -0.39764863 4
3.2018552 -2.0429506 0.87685925 86
3.0660841 -1.9570748 -0.063491859 85
11.267278 -7.1946454 3.5820558 1
1.4169133 -0.90754819 -0.4508628 3
3.0798452 -1.9726741 0.063840903 100
1.6539304 -1.0597674 -0.45350131 13
3.1107156 -1.9939786 0.19364306 75
1.9005531 -1.2187285 -0.43886071 39
3.1326227 -2.0095642 0.32561383 93
2.3158443 -1.4861749 -0.43582645 3
3.1475306 -2.0199029 0.45920372 62
2.9383683 -1.886399 -0.42873639 3
3.1679904 -2.0345945 0.59632826 87
3.9810734 -2.5577664 -0.41398975 5
3.1627069 -2.0327613 0.73079848 66
6.390573 -4.1089783 -0.39817199 6
3.1943457 -2.0546722 0.87685925 75
3.0676432 -1.9731743 -0.063666381 89
11.251842 -7.2402048 3.5851614 0
1.4121135 -0.91144103 -0.45034516 3
3.0877137 -1.9937115 0.064155042 100
1.6336657 -1.0552485 -0.4490023 10
3.1020589 -2.003741 0.19353838 76
1.9028833 -1.2296175 -0.44038719 40
3.1289356 -2.0226502 0.32596248 97
2.3139603 -1.4963953 -0.43645221 3
3.1367726 -2.029269 0.45871624 63
2.9114361 -1.8842133 -0.42581153 3
3.1575522 -2.043494 0.59570253 90
3.9671037 -2.5683992 -0.41346684 5
3.1638312 -2.0491252 0.73270655 70
6.3761916 -4.1312604 -0.39817199 6
3.180613 -2.0615704 0.8750596 71
3.0624149 -1.9849583 -0.063701279 85
11.245952 -7.2920489 3.5913732 0
1.4234985 -0.92584437 -0.45500392 2
3.0810852 -2.0039399 0.064155042 100
1.6464915 -1.0712881 -0.45350131 5
3.0983934 -2.0167363 0.19374773 79
1.8887079 -1.2298244 -0.43809745 39
3.1285336 -2.0379097 0.32665971 93
2.3189163 -1.5105293 -0.4383294 7
3.1333523 -2.0418274 0.45920372 63
2.9118237 -1.8981938 -0.42678648 2
3.1470904 -2.0523455 0.5950768 90
3.674438 -2.3971641 -0.38383389 4
3.1619515 -2.0628235 0.73385143 66
6.3624568 -4.1523819 -0.39817199 5
3.1770227 -2.0742371 0.87595946 69
3.0470963 -1.9901683 -0.063526757 89
11.217195 -7.3291478 3.590338 0
1.3913335 -0.91150391 -0.44568643 2
3.0774164 -2.0168746 0.064224854 100
1.6427422 -1.0770289 -0.45350131 3
3.0983698 -2.0313802 0.19416642 79
1.8944695 -1.2425413 -0.44038719 40
3.1100976 -2.040622 0.32543954 89
2.2987669 -1.508859 -0.43551362 7
3.1328435 -2.0571108 0.4601787 63
2.90518 -1.9083464 -0.42678648 2
3.1369658 -2.0606012 0.59445107 87
3.576555 -2.350251 -0.37442106 15
3.1530914 -2.0727696 0.73346978 72
6.3812981 -4.1965137 -0.40026543 2
3.1811593 -2.0928116 0.87910873 67
3.0488329 -2.0057573 -0.063701279 85
11.21865 -7.3832965 3.5986199 0
1.40749 -0.92912638 -0.45189807 2
3.0640361 -2.0226619 0.064085238 100
1.6375355 -1.0813967 -0.45305145 2
3.0945928 -2.044385 0.19437577 76
1.8835691 -1.244817 -0.43886071 39
3.099632 -2.0492682 0.32509091 89
2.2822163 -1.508848 -0.43332353 3
3.1293161 -2.0696785 0.46066615 65
2.9087691 -1.9245422 -0.42824891 2
3.1330478 -2.0737193 0.5950768 76
3.5384274 -2.342922 -0.37128347 11
3.1412899 -2.0799627 0.73232496 85
3.5200236 -2.3316202 -0.22127645 6
3.1758258 -2.1044254 0.87955862 61
3.0434794 -2.0174923 -0.063736185 89
11.202468 -7.4288182 3.6017258 0
1.3994128 -0.9308241 -0.45034516 3
3.0499427 -2.0294478 0.063945621 100
1.6286943 -1.0841519 -0.45170173 1
3.0874379 -2.0551748 0.19437577 79
1.8922852 -1.2600895 -0.44191366 41
3.089143 -2.0578663 0.32474229 79
2.288177 -1.5248708 -0.43551362 2
3.1117988 -2.0745275 0.45920372 73
2.9086399 -1.9390886 -0.42922387 3
3.1372941 -2.0923152 0.59726685 73
3.5003941 -2.3353555 -0.36814582 6
3.1336451 -2.0914621 0.73232496 94
3.1925333 -2.1315708 -0.20117943 19
3.1700816 -2.1165802 0.88000852 61
3.0380816 -2.0292141 -0.063771099 82
11.160406 -7.4571452 3.5965497 0
1.410763 -0.94513673 -0.45500392 3
3.0465183 -2.0417771 0.064015426 94
1.621853 -1.0873765 -0.45080194 1
3.0772879 -2.0631773 0.19416642 100
1.8913572 -1.2685448 -0.4426769 42
3.0955381 -2.0769796 0.32613677 71
2.283108 -1.5324503 -0.43551362 3
3.1098466 -2.088155 0.45993495 77
2.8972497 -1.9454036 -0.42849267 5
3.1270592 -2.1005042 0.59664112 73
3.4595568 -2.3247256 -0.36465961 5
3.129951 -2.104033 0.7330882 96
3.1854475 -2.1421459 -0.20117943 30
3.1501086 -2.1183815 0.87640929 61
3.0363133 -2.0426264 -0.063875809 100
11.164464 -7.5135274 3.6058671 0
1.407621 -0.94980985 -0.45500392 3
3.0596201 -2.065294 0.064434282 89
1.624698 -1.0971109 -0.45260152 1
3.071722 -2.0750244 0.19427109 100
1.8643641 -1.2594242 -0.43733424 38
3.0985382 -2.0939269 0.32718265 74
2.2747407 -1.5378001 -0.43488789 3
3.1045494 -2.0995681 0.4601787 80
2.8986623 -1.9610665 -0.42971134 3
3.1148002 -2.1080856 0.59570253 75
3.2059765 -2.1697934 -0.33868721 1
3.1294591 -2.118803 0.73461467 87
3.1733651 -2.1493378 -0.20086543 31
3.1475346 -2.1326439 0.87775904 61
3.0175776 -2.0453589 -0.063631475 100
11.163752 -7.5698004 3.6141493 0
1.3995041 -0.95145917 -0.45345098 7
3.0556991 -2.0782106 0.064504094 89
1.6273032 -1.1071601 -0.45440111 1
3.0710649 -2.0902293 0.19468978 100
1.8729408 -1.2747616 -0.44038719 40
3.0846229 -2.100245 0.32648543 74
2.2758892 -1.550179 -0.43613935 2
3.1070442 -2.1170988 0.4616411 82
2.8950799 -1.9734089 -0.43019882 3
3.1057906 -2.1178327 0.59538966 70
3.1358309 -2.1383171 -0.33206338 1
3.1285317 -2.1341395 0.73614115 94
3.1790411 -2.1694076 -0.20170279 33
3.1448996 -2.1469142 0.87910873 58
3.0137224 -2.0581353 -0.063701279 100
3.4486907 -2.3560667 1.1191336 1
1.3945807 -0.95524693 -0.45293337 12
3.0401783 -2.0832124 0.064329572 92
1.6234287 -1.1128337 -0.45440111 1
3.0703387 -2.1054544 0.19510846 100
1.8749561 -1.2857327 -0.44191366 41
3.0805585 -2.1132536 0.32683402 74
2.2606919 -1.5514076 -0.4342621 3
3.0996354 -2.1279314 0.4616411 80
2.8947189 -1.9879979 -0.43117377 3
3.1065199 -2.1342537 0.59695399 75
3.0987887 -2.128942 -0.32892576 2
3.1113551 -2.138375 0.73385143 87
3.1714492 -2.1804914 -0.20170279 33
3.1438086 -2.1622961 0.88090831 56
3.0164044 -2.0754433 -0.063910715 100
3.3481486 -2.3045619 1.0891106 13
1.3864678 -0.95681721 -0.45138043 8
3.0279512 -2.0904038 0.064224854 86
1.6067064 -1.1096346 -0.45080194 1
3.0563977 -2.1116183 0.19468978 100
1.8672259 -1.2900378 -0.4411504 41
3.0780804 -2.1273921 0.32735696 71
2.2601371 -1.5626599 -0.43520072 3
3.0856581 -2.1342216 0.46066615 80
2.8910267 -2.0003493 -0.43166125 3
3.1071723 -2.1507058 0.59851831 69
3.0897 -2.138612 -0.32875144 16
3.1071 -2.151458 0.73461467 94
3.1588931 -2.1881371 -0.20138879 34
3.1394453 -2.1754766 0.8818081 58
3.0124283 -2.0882385 -0.06398052 99
3.3416712 -2.3173358 1.0896282 30
1.378361 -0.95834261 -0.44982749 3
3.0337689 -2.1100953 0.064504094 89
1.6060226 -1.1174622 -0.45170173 1
3.0457294 -2.119992 0.19448043 97
1.8659344 -1.2987909 -0.44191366 41
3.0755408 -2.1415391 0.32787988 68
2.2692566 -1.5807014 -0.43801656 3
3.0684175 -2.1381698 0.45920372 72
2.864485 -1.9968063 -0.42873639 3
3.0996459 -2.1615386 0.59851831 73
3.0854847 -2.1516633 -0.32910007 15
3.1027913 -2.1645372 0.73537791 90
3.159425 -2.2048652 -0.20191215 28
3.123843 -2.1808443 0.87955862 54
3.0083992 -2.1010311 -0.064050332 100
3.3319781 -2.3278801 1.0891106 45
1.3845011 -0.96979821 -0.45293337 3
3.0296605 -2.1229677 0.064573906 86
1.6053035 -1.1252986 -0.45260152 1
3.0383108 -2.1306107 0.19448043 100
1.8485299 -1.2962788 -0.43886071 39
3.0664155 -2.1511176 0.32770559 71
