# .PCD v0.7 - Point Cloud Data file format
VERSION 0.7
FIELDS x y z intensity
SIZE 4 4 4 4
TYPE F F F F
COUNT 1 1 1 1
WIDTH 1391
HEIGHT 1
VIEWPOINT 0 0 0 1 0 0 0
POINTS 1391
DATA ascii
3.2360671 0.78109479 -0.40874982 3
15.237684 3.675123 2.4826152 25
4.4045854 1.0615151 -0.39638433 4
15.223703 3.6661363 3.0437853 26
6.7595115 1.6265581 -0.36436296 4
15.127583 3.6374025 3.5920184 40
14.195191 3.4132106 -0.25484005 5
15.042192 3.6140935 4.145246 19
1.6215978 0.38721645 -0.44672167 6
15.720247 3.7508905 0.28210071 31
1.8558007 0.44245642 -0.44045416 6
15.712115 3.743154 0.84648186 37
2.1466224 0.51139766 -0.42893866 82
15.713223 3.7405202 1.4131432 24
2.5982177 0.61802459 -0.42299888 4
15.70139 3.7319133 1.9815956 21
3.2350457 0.76831055 -0.40826234 3
15.696957 3.7250712 2.5552011 26
4.4082646 1.0461327 -0.39638433 4
15.685326 3.7194197 3.1334655 20
6.751544 1.5997312 -0.36363026 5
14.20177 3.3597753 -0.25473532 6
15.064739 3.5611553 4.1478343 18
1.6210589 0.38111186 -0.44620407 6
15.727404 3.6946251 0.28199598 36
1.8459508 0.43330422 -0.43775475 6
15.713417 3.6855526 0.84585381 43
2.1369262 0.50121206 -0.42664891 63
15.728124 3.6861062 1.4133176 31
2.5965126 0.60804975 -0.42237309 4
15.702724 3.6743722 1.9801333 22
3.2299762 0.75520641 -0.40728739 3
15.681008 3.6635103 2.5505078 26
4.4118896 1.0307374 -0.39638433 4
15.684828 3.6615236 3.1307943 22
6.7745919 1.5802388 -0.36457232 5
15.234218 3.5507171 3.6113644 5
14.221201 3.3119986 -0.25487494 6
15.067668 3.5063617 4.145246 17
1.614851 0.37370834 -0.44413349 6
15.718774 3.6347518 0.28161204 36
1.8645407 0.43080583 -0.44180387 5
15.706092 3.6289239 0.84480709 46
2.1424887 0.49463242 -0.42741215 64
15.694301 3.6204371 1.409134 28
2.602469 0.5998705 -0.42299888 4
15.68644 3.61285 1.9764771 23
3.2441993 0.7465989 -0.40874982 3
15.666119 3.6052985 2.5461278 27
4.40381 1.0126528 -0.39533845 4
15.663074 3.598834 3.1239252 22
6.7839599 1.5574734 -0.36478165 4
15.223725 3.4922929 3.6059654 5
14.220412 3.2621348 -0.25466552 6
15.081099 3.456804 4.1457639 18
1.6161455 0.36806953 -0.44413349 6
15.683945 3.5719445 0.28077433 40
1.8583583 0.4228912 -0.44000426 6
15.6914 3.5678816 0.84334165 48
2.1442022 0.48715118 -0.42741215 80
15.671869 3.5576882 1.4059963 31
2.5890329 0.58773917 -0.4204959 4
15.661551 3.5524716 1.9718461 25
3.2466576 0.73583573 -0.40874982 3
15.647784 3.5436068 2.541122 26
4.4112043 0.9981547 -0.39568707 4
15.630879 3.5369105 3.1151478 25
6.7812948 1.533208 -0.36436296 5
15.246626 3.4443691 3.6086645 5
14.257071 3.2181966 -0.25511929 6
15.087418 3.4028678 4.1442108 22
1.6211272 0.36355394 -0.44516876 6
15.653391 3.5075519 0.28000641 40
1.85602 0.41554973 -0.43910447 5
15.656979 3.5026248 0.84082949 48
2.1668804 0.48475313 -0.43160996 86
15.660252 3.5004795 1.4039048 36
2.604564 0.58171153 -0.42268598 4
15.625419 3.4869754 1.9657527 22
3.2453315 0.72363341 -0.40826234 3
15.633066 3.4829459 2.5367417 26
4.4144907 0.98351997 -0.39568707 4
15.599054 3.4725189 3.1063707 21
6.7788072 1.5077912 -0.36394429 5
15.258556 3.3911235 3.6086645 5
14.285786 3.1723216 -0.25543341 6
15.10109 3.3505964 4.1447282 33
1.6186135 0.35706022 -0.44413349 6
15.638199 3.4468672 0.27951774 40
1.8555559 0.40864971 -0.43865454 6
15.632048 3.439791 0.83884072 45
2.1647248 0.47634202 -0.43084675 85
15.619832 3.4342449 1.3991983 33
2.6085081 0.57304078 -0.42299888 4
15.602595 3.4247463 1.9613652 20
3.2400823 0.71059883 -0.40728739 2
15.606535 3.4199016 2.5304842 26
4.4178963 0.96810544 -0.39568707 4
15.588067 3.4130039 3.1017911 22
6.7918344 1.4858249 -0.36436296 5
15.262686 3.3361793 3.6068652 7
14.257699 3.1138983 -0.25473532 6
15.082497 3.2912695 4.136446 33
1.6236258 0.35222751 -0.44516876 6
15.622774 3.3863318 0.27902907 40
1.8664942 0.40423203 -0.44090405 5
15.595159 3.3746471 0.83622396 37
2.1433482 0.46380061 -0.42626733 78
15.610303 3.3750725 1.3972809 30
2.6104927 0.56393123 -0.42299888 4
15.593112 3.3656511 1.9586842 19
3.250304 0.70096064 -0.40826234 2
15.568171 3.3545809 2.5223496 24
4.4194674 0.95148599 -0.39551273 5
15.574938 3.3531947 3.0968304 23
6.7852626 1.4595926 -0.36373493 4
15.27043 3.2820594 3.6059654 24
14.272393 3.0649464 -0.25480512 6
15.061781 3.2317224 4.1276464 13
1.6173483 0.34466323 -0.44309825 6
15.603208 3.3251047 0.27847061 34
1.8678935 0.39771557 -0.44090405 5
15.581448 3.3147826 0.83486325 40
2.1488745 0.45675755 -0.42703056 79
15.573844 3.3074911 1.392923 31
2.6086769 0.55353993 -0.42237309 4
15.567869 3.303375 1.9540532 21
3.2566149 0.69043326 -0.40874982 2
15.544999 3.2928603 2.5167181 26
4.4227614 0.93605429 -0.39551273 5
15.546785 3.2875612 3.0888164 22
6.806201 1.4380115 -0.36457232 4
15.257568 3.2208393 3.600117 29
14.298656 3.0184152 -0.2550844 6
15.023824 3.1687574 4.1141877 12
1.6147598 0.33822381 -0.44206294 7
15.566358 3.2576568 0.27759799 40
1.8769689 0.39246073 -0.44270366 5
15.575897 3.253979 0.83392119 42
2.150456 0.44925424 -0.42703056 79
15.557991 3.2474043 1.3904827 30
2.6125271 0.54483318 -0.42268598 4
15.550723 3.2402236 1.9503973 22
3.2668974 0.68011165 -0.40972477 3
15.533758 3.231024 2.5129635 26
4.4221015 0.91979772 -0.39516413 5
15.513954 3.224088 3.0800388 25
6.8131337 1.4146553 -0.36467698 5
15.247729 3.1632023 3.5951676 8
14.340952 2.9724846 -0.25564286 7
14.989934 3.1042721 4.1017642 12
1.6216073 0.33375308 -0.44361585 6
15.546295 3.1968517 0.2770395 40
1.8630563 0.38277036 -0.43910447 5
15.548033 3.1915529 0.83182776 45
2.1558573 0.442534 -0.4277938 96
15.538004 3.1866686 1.3876938 30
2.618283 0.53650534 -0.42331171 4
15.517209 3.1767602 1.9447912 19
3.2770309 0.67029417 -0.41069973 3
15.513974 3.1704638 2.5079577 27
4.4194279 0.9031623 -0.39464122 5
15.492415 3.163234 3.0735517 27
6.7945471 1.386072 -0.3634209 5
15.283501 3.1150286 3.6010165 3
14.380633 2.9283884 -0.25616643 6
14.979856 3.047688 4.0960703 11
1.6360172 0.33076999 -0.44723931 6
15.539718 3.1390054 0.27672535 40
1.8605607 0.37549317 -0.43820465 5
15.51209 3.1277819 0.82931566 43
2.165087 0.43655753 -0.42932025 83
15.539267 3.1304471 1.3868221 33
2.6104574 0.52541298 -0.42174736 4
15.493174 3.1155272 1.9404038 22
3.2598884 0.65494168 -0.40826234 3
15.490086 3.1092889 2.502326 34
4.4381814 0.8908658 -0.39603567 5
15.480265 3.1044993 3.0689721 28
6.8150101 1.3654867 -0.36425829 6
15.368803 3.0765741 3.6185627 5
14.410378 2.8820908 -0.25651547 6
14.963881 2.9900835 4.0888233 11
1.6295822 0.32355341 -0.44516876 6
15.515275 3.0777347 0.27609706 40
1.8771524 0.37202749 -0.44180387 5
15.491564 3.0674193 0.82764089 42
2.1511905 0.42594817 -0.42626733 78
15.48951 3.0641959 1.3814185 30
2.6239028 0.51859492 -0.4236246 4
15.468898 3.0545156 1.9360166 23
3.2777357 0.64663142 -0.41021225 3
15.456268 3.0464091 2.4951301 28
4.4432187 0.87575227 -0.39620999 5
15.45248 3.042861 3.0613396 22
6.8197355 1.3416878 -0.36425829 6
15.377538 3.0225284 3.618113 8
14.394841 2.8267653 -0.2560617 5
14.942001 2.9315052 4.0800238 12
1.6174285 0.31527546 -0.44154531 6
15.490591 3.0166802 0.27546877 38
1.8822654 0.3662166 -0.44270366 5
15.472769 3.0076044 0.82607079 38
2.1603732 0.41993439 -0.4277938 80
15.457082 3.0017557 1.3775836 27
2.6256971 0.50943321 -0.4236246 4
15.452184 2.9952078 1.9326042 18
3.2760749 0.63443196 -0.40972477 2
15.435779 2.986438 2.4901242 27
4.4305997 0.85721046 -0.3948155 5
15.439877 2.9844356 3.0567603 22
6.836144 1.3201447 -0.36488631 6
15.401388 2.9714198 3.6212623 8
14.406584 2.7768824 -0.2560966 6
14.914204 2.8720198 4.0696707 12
1.626109 0.31107998 -0.44361585 6
15.453888 2.9535835 0.27463108 38
1.8797041 0.35891253 -0.44180387 5
15.459631 2.9490883 0.8248148 40
2.1772535 0.41533419 -0.43084675 85
15.436153 2.9418101 1.3747947 30
2.6158164 0.4980472 -0.42174736 4
15.431342 2.9353194 1.9287045 23
3.2821701 0.62373275 -0.41021225 3
15.426702 2.9288502 2.4869955 27
4.4335651 0.8417384 -0.3948155 5
15.407763 2.9224765 3.0483646 21
6.8485599 1.2977629 -0.36530501 6
15.402094 2.9158242 3.6190126 12
14.427978 2.7288098 -0.25630605 6
14.886172 2.8127716 4.0593181 12
1.6252863 0.3050451 -0.44309825 5
15.434622 2.8940892 0.27410749 40
1.8694528 0.35019654 -0.43910447 5
15.440383 2.889591 0.82324463 47
2.1825495 0.40845332 -0.43160996 86
15.426743 2.8842516 1.3730515 30
2.6253061 0.49036464 -0.42299888 4
15.404418 2.8745131 1.9240733 24
3.2804244 0.61154515 -0.40972477 2
15.403817 2.8688376 2.4816766 25
4.4266825 0.82443416 -0.39394394 4
15.37927 2.8614891 3.0407324 24
6.8373384 1.2709304 -0.36446762 6
15.393017 2.8584881 3.6145136 22
14.435449 2.6780615 -0.25627115 7
14.871205 2.7562182 4.0525889 13
1.635841 0.30111817 -0.44568643 6
15.42103 2.8358583 0.27368864 40
1.8744973 0.34437251 -0.44000426 5
15.411087 2.8284614 0.8211512 45
2.1762383 0.39941415 -0.43008351 84
15.413198 2.8260758 1.3709598 28
2.6347742 0.48262057 -0.42425033 4
15.388974 2.8160748 1.9209048 23
3.2747276 0.59866333 -0.40874982 2
15.386533 2.8100781 2.4772964 23
4.4491339 0.81255561 -0.39568707 4
15.365989 2.803555 3.0361528 24
6.8456631 1.2477736 -0.36467698 5
15.364557 2.7977529 3.6055152 35
14.448646 2.6283681 -0.25634095 7
14.859828 2.700495 4.0468946 14
1.6444865 0.29677892 -0.44775698 6
15.405252 2.777395 0.27323487 40
1.8833593 0.33921021 -0.44180387 4
15.381553 2.7675788 0.81905776 47
2.1582968 0.38833901 -0.42626733 78
15.389634 2.7662604 1.3679966 28
2.6325541 0.4727228 -0.4236246 4
15.367446 2.7567353 1.9170049 23
3.2767975 0.58722788 -0.40874982 3
15.355413 2.7490449 2.4707263 27
4.4558649 0.79772341 -0.39603567 4
15.352489 2.7457564 3.0315735 27
6.853909 1.224571 -0.36488631 6
15.347371 2.7393131 3.5992167 56
14.451825 2.5768669 -0.25623626 7
14.833028 2.6421671 4.0370598 15
1.630294 0.28834468 -0.44361585 6
15.375469 2.7166481 0.27253678 42
1.8922083 0.3339884 -0.44360349 5
15.367517 2.7097044 0.81780171 45
2.1596394 0.38080221 -0.42626733 78
15.354066 2.7045774 1.3639873 30
2.6302969 0.46284652 -0.42299888 4
15.347651 2.6979167 1.9133489 24
3.2983792 0.57922024 -0.4111872 2
15.329894 2.6892872 2.4650946 28
4.4507728 0.7807886 -0.39533845 4
15.327174 2.6860454 3.0247045 24
6.8817506 1.2047701 -0.36614239 6
15.326126 2.6803558 3.5920184 42
14.437095 2.5222712 -0.25581738 7
14.796487 2.5823989 4.0246363 14
1.6331939 0.28298303 -0.44413349 5
15.343479 2.6557949 0.27180377 40
1.887602 0.32638472 -0.44225377 4
15.350834 2.6543083 0.816441 42
2.1725626 0.3752678 -0.42855701 81
15.332 2.6455407 1.3611984 30
2.62411 0.45231929 -0.42174736 4
15.319803 2.6379375 1.9087178 19
3.2925558 0.56635636 -0.41021225 2
15.311474 2.6337442 2.4607143 28
4.449544 0.76457167 -0.39498982 4
15.288081 2.6242344 3.0151639 21
6.8878818 1.18108 -0.36624706 6
15.314261 2.6232181 3.5870695 32
14.439466 2.473372 -0.25571266 9
14.77831 2.5287662 4.0173893 13
1.6360763 0.27760315 -0.44465113 6
15.318686 2.5992157 0.2712104 38
1.8829099 0.31914592 -0.44090405 4
15.31865 2.593709 0.8142429 43
2.179667 0.36866352 -0.42970186 83
15.311673 2.5870228 1.3585837 28
2.6294911 0.44427237 -0.42237309 4
15.295191 2.5815001 1.9045743 21
3.2905009 0.55477536 -0.40972477 2
15.301095 2.5769966 2.4575858 28
4.4403963 0.74705279 -0.39394394 4
15.27153 2.569284 3.0102029 19
6.8878212 1.1575718 -0.36603773 6
15.286362 2.5662854 3.5785215 35
14.453927 2.4239492 -0.25581738 10
14.762278 2.4730115 4.0106602 12
1.6446108 0.27344313 -0.44672167 6
15.309912 2.5427749 0.27089626 40
1.878245 0.31161585 -0.43955436 4
15.297612 2.5379961 0.81267279 49
2.1750669 0.36046988 -0.42855701 81
15.308373 2.5342841 1.3575379 31
2.6349237 0.43573749 -0.42299888 4
15.274731 2.523237 1.9009181 22
3.2806656 0.54134589 -0.40826234 3
15.274474 2.5204561 2.4519541 28
4.4467812 0.7329728 -0.39429256 4
15.257161 2.5121293 3.0056236 20
6.8839374 1.1322234 -0.36561903 6
15.252919 2.5059702 3.5686235 35
14.463859 2.376332 -0.25585228 9
14.747522 2.4202862 4.0044484 15
1.6436483 0.26739165 -0.44620407 7
15.298522 2.488791 0.27054721 40
1.8888855 0.30694801 -0.44180387 5
15.268922 2.4784977 0.81068403 47
2.1763117 0.35287678 -0.42855701 81
15.264023 2.4722347 1.3528314 37
2.6480539 0.42889154 -0.42487606 4
15.257539 2.468452 1.8977495 24
3.2824428 0.53046292 -0.40826234 2
15.244175 2.4608302 2.4456968 28
4.4689827 0.72061676 -0.39603567 4
15.232456 2.4562109 2.999136 22
6.8896265 1.1097049 -0.3657237 6
15.228439 2.4501095 3.5609753 35
14.462194 2.324239 -0.25567776 9
14.729177 2.364502 3.9972017 15
1.6311713 0.25981209 -0.44258058 7
15.273543 2.4300284 0.26995382 42
1.8899456 0.30035219 -0.44180387 5
15.261277 2.4253385 0.8098467 45
2.17747 0.34565732 -0.42855701 81
15.230813 2.4150543 1.3491708 35
2.6495349 0.4196448 -0.42487606 4
15.242533 2.4114592 1.8948246 24
3.2999604 0.52148294 -0.41021225 2
15.222984 2.405643 2.4410038 30
4.4556036 0.70330667 -0.39464122 4
15.227363 2.4008875 2.9964645 25
6.8934574 1.0856535 -0.3657237 6
15.209948 2.3926935 3.5546765 34
14.48365 2.278439 -0.25592208 8
14.694952 2.3090508 3.9858134 15
1.6377951 0.25500783 -0.44413349 7
15.236073 2.3722858 0.26915103 40
1.8909311 0.29408363 -0.44180387 4
15.24794 2.3686826 0.80869526 49
2.1767237 0.33775288 -0.42817542 65
15.203713 2.3563776 1.3460333 35
2.6391997 0.40904161 -0.42299888 3
15.213175 2.3551254 1.8901937 26
3.2977481 0.50992942 -0.40972477 3
15.213719 2.3497725 2.4381878 32
4.454093 0.68714273 -0.39429256 4
15.192554 2.3437889 2.9880691 26
6.906889 1.064307 -0.36624706 6
15.198538 2.3392811 3.5501776 34
14.509303 2.2306056 -0.25623626 10
14.66855 2.2524672 3.976496 15
1.6405413 0.24986652 -0.44465113 7
15.210653 2.313971 0.26855764 37
1.8803864 0.28572515 -0.43910447 5
15.216622 2.3094523 0.80660182 50
2.1837125 0.33103475 -0.42932025 83
15.193713 2.3032553 1.3444644 31
2.6406114 0.39982715 -0.42299888 4
15.182046 2.2960734 1.8853189 23
3.3112848 0.50019306 -0.4111872 3
15.188622 2.2916455 2.4328692 30
4.4682856 0.67337328 -0.39533845 4
15.169982 2.2834103 2.9819632 25
6.8969178 1.0369078 -0.36551434 6
15.177704 2.2818713 3.5434291 30
14.532822 2.1823237 -0.25651547 8
14.649577 2.1972349 3.969249 15
1.6529117 0.24555482 -0.44775698 8
15.185406 2.2532194 0.26796424 33
1.8814211 0.2788308 -0.43910447 5
15.183495 2.2475195 0.80440372 42
2.1887956 0.32360363 -0.43008351 84
15.188256 2.2455158 1.3432443 33
2.6498759 0.39129972 -0.42425033 3
15.158939 2.2357748 1.8814191 23
3.297385 0.48573962 -0.4092373 3
15.159787 2.2304938 2.4269247 28
4.4667811 0.65641117 -0.39498982 4
15.145227 2.2229507 2.9754755 23
6.9026489 1.0119103 -0.36561903 6
15.149331 2.2208524 3.5348809 27
14.552594 2.1307781 -0.25672489 10
14.638417 2.1407349 3.9640727 14
1.6480646 0.23866467 -0.44620407 7
15.177729 2.1952603 0.267685 35
1.8901452 0.27304804 -0.44090405 5
15.163573 2.1905112 0.80293834 47
2.1782529 0.31427968 -0.4277938 80
15.164832 2.1852896 1.3404553 35
2.6591129 0.38271102 -0.42550179 4
15.149348 2.1776538 1.8792255 24
3.3148625 0.4759084 -0.4111872 4
15.138151 2.1733551 2.4222317 26
4.4690452 0.64081615 -0.39498982 4
15.137347 2.16784 2.9724228 23
6.9061389 0.98781091 -0.36561903 6
15.130363 2.1614504 3.5285823 29
14.569841 2.081377 -0.25689942 11
14.619026 2.0858002 3.9568257 15
1.6450621 0.23236959 -0.44516876 7
15.163145 2.1418364 0.26730105 37
1.8968292 0.26759475 -0.44225377 6
15.161237 2.1361768 0.80241495 50
2.1793368 0.30667365 -0.4277938 96
15.128961 2.1262367 1.3366205 39
2.6525428 0.37279058 -0.42425033 4
15.13486 2.1243796 1.8765444 26
3.3183885 0.46518794 -0.41143093 3
15.110433 2.1155658 2.4166 25
4.467308 0.62466145 -0.39464122 4
15.111397 2.113019 2.9659352 24
6.9192667 0.96628314 -0.36614239 6
15.120075 2.1088448 3.5245333 29
14.580979 2.0310612 -0.25696924 9
14.582209 2.0286381 3.9449201 15
1.6400824 0.22612186 -0.44361585 8
15.128928 2.083169 0.26656806 41
1.8938906 0.26044139 -0.44135398 6
15.13658 2.081531 0.80074024 50
2.1881213 0.30051392 -0.42932025 83
15.112242 2.0728097 1.3345287 38
2.6538279 0.36352974 -0.42425033 4
15.11465 2.0677652 1.873132 27
3.3180251 0.45333219 -0.4111872 3
15.101708 2.0633028 2.4140971 26
4.4575109 0.60822648 -0.39359534 4
15.083667 2.0554819 2.9590659 24
6.9225984 0.9421227 -0.36614239 5
15.098379 2.0521193 3.5177846 26
14.599524 1.9843166 -0.25717866 13
14.565883 1.9771554 3.9387083 16
1.6427764 0.22065225 -0.44413349 8
15.10008 2.0281925 0.26593977 39
1.8928121 0.25390089 -0.44090405 5
15.119999 2.0254955 0.79948413 45
2.1949949 0.29365453 -0.4304651 85
15.085814 2.0155632 1.3315654 37
2.6550188 0.35472786 -0.42425033 4
15.082071 2.012377 1.8682572 22
3.3391871 0.44494933 -0.41362458 3
15.081403 2.0069375 2.4097166 30
4.4596066 0.59266198 -0.39359534 4
15.057317 2.0010507 2.9525785 23
6.919744 0.91837436 -0.36582837 5
15.068396 1.9971781 3.5092363 22
14.642044 1.9380618 -0.25780696 13
14.549716 1.9232572 3.9324968 16
1.6511608 0.21620777 -0.44620407 8
15.085255 1.9726219 0.26555583 37
1.893687 0.24729165 -0.44090405 5
15.091329 1.9680514 0.79760003 47
2.1920631 0.28586569 -0.42970186 67
15.070683 1.9626913 1.329648 39
2.6601586 0.34596676 -0.42487606 4
15.063414 1.9563907 1.8650886 25
3.321034 0.43073812 -0.4111872 3
15.064809 1.9512326 2.4059625 31
4.4774561 0.57913482 -0.39498982 4
15.048635 1.9464598 2.9495256 22
6.9149842 0.89319247 -0.36540967 5
15.044353 1.9405746 3.502038 26
14.652688 1.8874466 -0.25787675 15
14.533346 1.8695028 3.9262853 16
1.6576917 0.21088472 -0.44775698 8
15.07023 1.9171727 0.26517189 39
1.8945386 0.24068035 -0.44090405 4
15.058479 1.9103441 0.7955066 47
2.183358 0.27659625 -0.4277938 80
15.0501 1.9039438 1.3272076 34
2.6535697 0.33522472 -0.4236246 4
15.038638 1.899827 1.8611888 24
3.3264565 0.41963896 -0.41167468 3
15.028411 1.8931988 2.3990791 31
4.4754963 0.56300783 -0.39464122 4
15.030344 1.888113 2.9445646 25
6.8825402 0.86336523 -0.36352557 7
15.024293 1.8820335 3.4957395 34
14.669106 1.8375407 -0.25805128 19
14.512948 1.8153999 3.9190383 16
1.6430796 0.20320129 -0.44361585 8
15.043416 1.8577614 0.26457849 33
1.893474 0.23349592 -0.44045416 4
15.039286 1.8545868 0.79414588 43
2.1882067 0.26945457 -0.42855701 81
15.028971 1.8479893 1.3247672 38
2.6586452 0.32644081 -0.42425033 4
15.025797 1.8422827 1.8587514 24
3.3240311 0.40696231 -0.4111872 3
15.007477 1.8373708 2.3946991 31
4.4695234 0.54641366 -0.39394394 4
15.001762 1.8313639 2.9376955 25
6.9013729 0.84127033 -0.36436296 9
15.005624 1.8265125 3.4898906 37
14.673446 1.7860793 -0.25801638 22
14.482759 1.7602965 3.9092031 15
1.6456969 0.1976946 -0.44413349 7
15.025667 1.8050063 0.26415962 37
1.9116518 0.22930393 -0.44450328 4
15.027821 1.7999442 0.79320383 45
2.1930327 0.26228037 -0.42932025 83
15.007634 1.7922058 1.3223269 35
2.6538286 0.31691918 -0.42331171 4
15.016054 1.7905606 1.8568015 24
3.3253624 0.39593786 -0.4111872 3
14.992224 1.7824044 2.3912575 33
4.4437051 0.52752155 -0.39150357 4
14.972662 1.7774361 2.9308262 24
6.8961911 0.81744087 -0.36394429 6
15.003857 1.7758216 3.488091 35
14.681577 1.7350862 -0.25805128 24
14.463874 1.7067983 3.9024737 15
1.6482623 0.19245976 -0.44465113 7
15.008042 1.7497631 0.26374078 39
1.9027621 0.22150426 -0.44225377 4
15.014174 1.7451663 0.79215711 48
2.1997411 0.25568601 -0.4304651 85
14.995682 1.7403646 1.3207581 37
2.6529565 0.30742809 -0.42299888 4
14.984746 1.7337948 1.8521705 27
3.3385563 0.38569379 -0.41264963 3
14.986578 1.7287132 2.3893805 32
4.4810567 0.51689321 -0.39464122 4
14.955371 1.7224613 2.9262469 26
6.8414612 0.78674483 -0.36090881 7
14.975116 1.7194395 3.4799926 37
14.681584 1.6831403 -0.25794658 27
14.446712 1.6536595 3.8962622 16
1.6546828 0.1873575 -0.44620407 7
15.004124 1.6962446 0.26356626 41
1.8977144 0.21420479 -0.44090405 5
14.982464 1.6884925 0.79016834 50
2.1967185 0.24756558 -0.42970186 83
14.983846 1.6860073 1.3191893 35
2.6618655 0.29904711 -0.42425033 4
14.959144 1.6779332 1.8482705 26
3.3319912 0.3731547 -0.41167468 3
14.957185 1.6724346 2.3837488 32
4.4788733 0.50080431 -0.39429256 4
14.949585 1.6689359 2.9239571 27
6.8461509 0.76308149 -0.36101347 7
14.94229 1.6628485 3.4709947 39
14.659547 1.6287862 -0.25745791 26
14.437037 1.6015201 3.8921211 16
1.6610878 0.18221274 -0.44775698 7
14.966221 1.6390666 0.26279834 39
1.902325 0.20800327 -0.44180387 4
14.962456 1.6333764 0.78880757 50
2.1936657 0.23947151 -0.42893866 66
14.95597 1.63002 1.316226 33
2.6786032 0.29146364 -0.42675328 5
14.951097 1.6242085 1.8465644 28
3.3372204 0.36194882 -0.41216215 3
14.933474 1.6170202 2.3790557 35
4.472671 0.48430794 -0.39359534 4
14.933849 1.6144241 2.9197595 28
6.9123158 0.74603564 -0.36436296 6
14.917005 1.6073357 3.4637964 42
14.637308 1.5746137 -0.25696924 28
14.415648 1.5482236 3.8848741 17
1.6521084 0.17539318 -0.44516876 8
14.947989 1.5842888 0.26237947 39
1.9069153 0.20177124 -0.44270366 4
14.940259 1.5781964 0.78734219 48
2.1983931 0.23222463 -0.42970186 67
14.921939 1.5736279 1.3127397 33
2.6737108 0.28149062 -0.42581466 4
14.94088 1.5703527 1.8446145 27
3.342412 0.35071254 -0.41264963 3
14.909557 1.5617989 2.3743625 33
4.4822602 0.46952364 -0.39429256 4
14.912058 1.55943 2.9144168 29
6.8890543 0.71920812 -0.36300224 7
14.90314 1.5532389 3.4592972 37
14.626803 1.521858 -0.25669 29
14.386376 1.4942977 3.8755567 16
1.6527104 0.16962554 -0.44516876 7
14.91563 1.5282315 0.26171628 33
1.9153626 0.19590627 -0.44450328 4
14.925543 1.5266078 0.78629553 50
2.189425 0.22355275 -0.4277938 64
14.907521 1.5195068 1.3109967 37
2.6569905 0.27035552 -0.42299888 4
14.904797 1.51398 1.839496 28
3.3376911 0.33844155 -0.4119184 3
14.893037 1.5101525 2.3709211 36
4.4719787 0.45266968 -0.39324668 4
14.886156 1.5042126 2.9083109 28
6.9690228 0.70297211 -0.36708444 4
14.889084 1.4992514 3.4547982 34
14.6258 1.4727402 -0.25658527 28
14.368186 1.4442738 3.8693449 17
1.6571374 0.16423607 -0.44620407 7
14.894747 1.4761931 0.26126251 41
1.8927305 0.18725173 -0.43910447 4
14.902953 1.4717536 0.78483003 45
2.2097294 0.21783429 -0.43160996 69
14.88894 1.4651223 1.3089049 33
2.6578722 0.26154366 -0.42299888 4
14.880103 1.4616307 1.83584 27
3.342746 0.32775953 -0.41240588 3
14.880523 1.4564281 2.3681052 33
4.4774971 0.43744522 -0.39359534 4
14.861753 1.4519725 2.9025867 26
6.9673395 0.67947179 -0.36687508 4
14.868758 1.4474176 3.4489496 35
14.62289 1.4209071 -0.25644565 30
14.342375 1.3911228 3.8610628 17
1.6634423 0.15929191 -0.44775698 7
14.885876 1.422863 0.26101819 39
1.8991922 0.18119939 -0.44045416 4
14.882152 1.4172581 0.78346932 39
2.2045767 0.20994639 -0.4304651 68
14.867932 1.4132856 1.3066388 31
2.666635 0.25301126 -0.42425033 4
14.851518 1.4064949 1.8316964 24
3.3359649 0.31534109 -0.41143093 3
14.857984 1.4018818 2.3637249 32
4.4928823 0.42311963 -0.3948155 4
14.839367 1.3975054 2.897244 25
6.9696693 0.65514523 -0.36687508 4
14.846558 1.3929617 3.442651 40
14.597897 1.3670545 -0.25592208 31
14.341373 1.3405069 3.8595097 17
1.6582437 0.15266307 -0.44620407 7
14.870839 1.3690557 0.26066914 39
1.9036944 0.17492498 -0.44135398 4
14.861152 1.3629401 0.7821086 48
2.1896906 0.20043363 -0.42741215 64
14.853171 1.3569731 1.3048958 30
2.6754131 0.24395396 -0.42550179 4
14.840521 1.353213 1.8297465 25
3.3528607 0.30513448 -0.41338086 2
14.827375 1.3467888 2.3580933 28
4.5042534 0.40833437 -0.39568707 4
14.822881 1.3411642 2.8930461 23
6.97998 0.63031578 -0.36729378 4
14.82439 1.3360842 3.4363523 40
14.562747 1.312503 -0.25522399 29
14.313255 1.2874987 3.8507099 17
1.6452962 0.14568064 -0.44258058 7
14.853846 1.3126092 0.2602852 41
1.9159698 0.16897403 -0.44405338 4
14.845923 1.309298 0.78106189 50
2.1981997 0.1934769 -0.42893866 66
14.83797 1.3033773 1.3031527 30
2.6762486 0.23461284 -0.42550179 4
14.835494 1.2979347 1.8285278 23
3.3618665 0.29353496 -0.41435578 3
14.800499 1.2922775 2.3530874 27
4.5016818 0.39226413 -0.39533845 4
14.804003 1.2873697 2.8884666 23
6.9741783 0.60525799 -0.36687508 4
14.813433 1.2829872 3.4327531 35
14.543333 1.2595941 -0.25480512 29
14.294567 1.2355282 3.8444984 18
1.6554191 0.14075609 -0.44516876 7
14.824244 1.2604678 0.2596918 45
1.9106945 0.16212469 -0.44270366 4
14.836473 1.2562846 0.78032917 50
2.2047307 0.18630001 -0.43008351 84
14.79478 1.2475532 1.2989691 32
2.677012 0.22573602 -0.42550179 3
14.804111 1.245738 1.8241404 27
3.3628213 0.28238568 -0.41435578 3
14.799015 1.2401073 2.3521488 31
4.4831686 0.37488645 -0.39359534 4
14.778844 1.2358198 2.8827424 26
6.9841084 0.58279318 -0.36729378 4
14.794301 1.2319125 3.4273543 40
14.549634 1.2089823 -0.25484005 39
14.271838 1.1833982 3.8372514 19
1.6558769 0.13526528 -0.44516876 7
14.802644 1.2065978 0.25923806 39
1.9034793 0.15482171 -0.44090405 5
14.816879 1.2025523 0.77907312 50
2.2112067 0.17946368 -0.43122834 86
14.788906 1.197684 1.2980976 40
2.6699078 0.215753 -0.42425033 4
14.784624 1.192143 1.8212155 27
3.3558719 0.27000782 -0.41338086 3
14.787501 1.187173 2.3496459 30
4.4963031 0.36097309 -0.39464122 4
14.759583 1.1823463 2.8781631 27
6.9741554 0.55745393 -0.36666575 4
14.773258 1.1782452 3.4215057 37
14.527851 1.1561282 -0.25438628 33
14.256624 1.1320401 3.8320749 21
1.6659689 0.13023674 -0.44775698 7
14.77686 1.1525903 0.25871447 35
1.8962368 0.14757289 -0.43910447 4
14.759258 1.1460273 0.7758283 50
2.2059479 0.17128749 -0.43008351 67
14.775119 1.1446719 1.2965288 38
2.68837 0.20780392 -0.42706612 4
14.759008 1.1382341 1.8175595 28
3.3409603 0.25707278 -0.41143093 3
14.760042 1.1331387 2.34464 36
4.5054822 0.34588897 -0.39533845 4
14.742088 1.1291653 2.8739653 28
6.9700842 0.53264773 -0.36635172 3
14.738419 1.123717 3.4125075 39
14.507872 1.1035855 -0.25396743 33
14.241225 1.0808024 3.8268983 21
1.6625603 0.1241341 -0.44672167 7
14.770823 1.1002557 0.25853994 36
1.9064573 0.14167447 -0.44135398 4
14.765161 1.0946517 0.77593297 53
2.2006583 0.16315126 -0.42893866 66
14.755181 1.0913225 1.2944371 38
2.6871088 0.19827241 -0.42675328 4
14.741114 1.085109 1.8148785 27
3.3576751 0.24657285 -0.41338086 2
14.736326 1.0795851 2.34026 36
4.5106363 0.33044976 -0.39568707 4
14.73615 1.0769866 2.8720572 29
6.9778771 0.50875151 -0.36666575 4
14.724759 1.0709871 3.4084582 40
14.475736 1.0503281 -0.25333914 34
14.227571 1.0298326 3.8222399 20
1.6533486 0.1176439 -0.44413349 7
14.756621 1.047411 0.2582258 38
1.9205472 0.13598268 -0.44450328 4
14.739006 1.0409973 0.77436286 50
2.197298 0.15519238 -0.42817542 65
14.719151 1.0370064 1.2909508 32
2.6838439 0.18861505 -0.42612755 4
14.74085 1.0333717 1.8143909 27
3.3545551 0.23457302 -0.41289338 3
14.710445 1.0260804 2.3355668 33
4.5077872 0.31442639 -0.39533845 5
14.718275 1.0240453 2.8678594 29
6.9855881 0.48480409 -0.36697978 3
14.707023 1.0181044 3.4035096 35
14.459363 0.99842441 -0.25299007 34
14.19446 0.97763687 3.8124046 18
1.6479669 0.11148033 -0.44258058 7
14.72228 0.99333972 0.25756261 36
1.9132329 0.12875399 -0.44270366 4
14.724443 0.99090433 0.77342087 50
2.1997848 0.1476523 -0.42855701 65
14.712742 0.98495835 1.2900794 37
2.6687179 0.17819197 -0.4236246 4
14.708715 0.97953188 1.8100036 26
3.3593149 0.22312583 -0.41338086 3
14.69997 0.97637266 2.3333766 36
4.4969287 0.29789791 -0.39429256 4
14.692376 0.97071737 2.8621352 28
6.9792657 0.45989302 -0.36656106 3
14.69493 0.96573478 3.3999102 39
14.444636 0.94928575 -0.25267595 42
14.17642 0.92917401 3.8067107 20
1.6656969 0.10684044 -0.44723931 6
14.705538 0.94323647 0.25721356 43
1.9058702 0.12191156 -0.44090405 5
14.7019 0.93784356 0.7720601 48
2.2179205 0.14109497 -0.43199161 70
14.696207 0.93233693 1.2883362 37
2.6811225 0.17009217 -0.42550179 4
14.682166 0.92886657 1.8063475 25
3.3639984 0.21223536 -0.41386834 3
14.687518 0.92406511 2.3308737 36
4.5098724 0.28294626 -0.39533845 4
14.656326 0.91952777 2.8545027 26
6.9667988 0.43587482 -0.36582837 4
14.678603 0.91578889 3.3954113 43
14.431896 0.89786154 -0.2523967 38
14.169936 0.87908834 3.8041224 21
1.6737553 0.1017848 -0.44930989 6
14.690775 0.89080554 0.25689942 38
1.9062842 0.11525849 -0.44090405 5
14.677175 0.88483906 0.77059472 50
2.2164166 0.13362053 -0.43160996 69
14.685296 0.88275653 1.2871159 31
2.6816998 0.16073282 -0.42550179 4
14.659558 0.87607419 1.8031789 26
3.3528292 0.19978218 -0.41240588 3
14.661076 0.87102926 2.3261807 33
4.5267434 0.26814559 -0.39673293 4
14.639849 0.86720413 2.8506866 26
6.9762526 0.41202265 -0.36624706 4
14.644748 0.86236489 3.386863 45
14.412983 0.84619319 -0.25201276 35
14.153632 0.82848799 3.7989461 22
1.6702597 0.095429473 -0.44827461 7
14.683813 0.83895254 0.25672489 43
1.9086205 0.10871392 -0.44135398 4
14.664222 0.83269805 0.76975733 52
2.2090511 0.12505274 -0.43008351 67
2.6862156 0.15112406 -0.42612755 3
14.650636 0.82423151 1.8017164 29
3.3535061 0.18807812 -0.41240588 3
14.628525 0.81786549 2.320549 33
4.5276523 0.25234148 -0.39673293 4
14.631166 0.81289035 2.8483968 27
6.99367 0.38733578 -0.36708444 4
14.624461 0.80739063 3.3814642 47
14.391889 0.79455072 -0.25159389 34
14.133291 0.7777999 3.7927344 22
1.659008 0.088977374 -0.44516876 6
14.666821 0.78405678 0.25637585 45
1.914844 0.10202923 -0.44270366 4
14.651082 0.78065819 0.76891994 53
2.201632 0.11692386 -0.42855701 65
12.078886 0.63936931 1.0582449 0
2.6867266 0.14174706 -0.42612755 3
14.649593 0.77031648 1.801229 30
3.3660672 0.17640814 -0.41386834 3
14.613537 0.76586312 2.3177333 35
4.5165677 0.23591506 -0.39568707 4
14.620191 0.76109475 2.8457255 32
6.996974 0.36302254 -0.36718911 4
14.613566 0.75564241 3.378315 43
14.362622 0.74266648 -0.25103542 36
14.101193 0.72667414 3.783417 21
1.6515908 0.082799256 -0.44309825 6
14.635389 0.73371643 0.25578249 45
1.9151719 0.095678285 -0.44270366 4
14.629781 0.72831595 0.76766384 58
2.2079093 0.10953031 -0.42970186 67
12.081045 0.5972048 1.0582449 0
2.6832361 0.13264097 -0.42550179 3
14.616379 0.71997738 1.7968417 30
3.3666339 0.16524395 -0.41386834 2
14.604282 0.71427172 2.3158562 36
4.5193534 0.22024363 -0.39586139 4
14.59126 0.71108228 2.8396196 29
6.9981394 0.3398158 -0.36718911 3
14.604314 0.70660883 3.3756156 37
14.353143 0.69194549 -0.250826 32
14.065051 0.67558992 3.7730644 31
1.6672943 0.078044891 -0.44723931 6
14.589919 0.68039227 0.25494474 15
1.9018677 0.088358931 -0.43955436 4
14.590337 0.67530102 0.76546574 16
2.2239497 0.10293358 -0.43275481 71
12.007328 0.55365449 1.0516212 0
2.6876295 0.1234545 -0.42612755 4
14.591042 0.66767812 1.7934294 27
3.3771055 0.15394549 -0.41508701 2
14.594848 0.66274738 2.3139789 35
4.522049 0.20534483 -0.39603567 4
14.568158 0.65898776 2.8346586 27
6.9693542 0.31404188 -0.36561903 3
14.581383 0.65448606 3.3697667 32
14.345482 0.64138907 -0.25065145 39
14.065393 0.62641335 3.7725468 23
1.6772068 0.072641991 -0.44982749 6
7.274127 0.31377998 0.12708843 16
1.9060584 0.081888229 -0.44045416 4
2.218411 0.094918601 -0.43160996 69
12.682005 0.5404045 1.1105385 0
2.6880438 0.11407401 -0.42612755 4
14.567499 0.61565518 1.7902608 30
3.3617556 0.14148758 -0.41313711 3
14.573388 0.61080128 2.3102245 36
4.532692 0.18997464 -0.39690727 4
14.550753 0.60731566 2.8308423 26
6.9763947 0.28995937 -0.36593303 3
14.558267 0.60253209 3.3639181 32
14.313668 0.58991325 -0.25005808 14
14.053983 0.57675385 3.768923 25
1.6697289 0.066479139 -0.44775698 6
7.1612844 0.28387341 0.12509885 6
1.9180161 0.075694926 -0.44315359 4
7.0768209 0.27804792 0.37116665 4
2.2049966 0.086634204 -0.42893866 66
14.585093 0.57050514 1.2770059 45
2.6923733 0.1048433 -0.42675328 4
14.555675 0.56425923 1.7885547 29
3.3741307 0.13021201 -0.41459954 2
14.54977 0.55895114 2.3061571 40
4.5373087 0.1743075 -0.39725587 2
14.554746 0.55659151 2.831224 30
6.9913349 0.26613873 -0.36666575 3
14.540808 0.55098277 3.3594191 37
7.2457438 0.27328712 -0.12656485 7
14.032744 0.52681935 3.7627115 23
1.6602978 0.060300857 -0.44516876 6
7.1222639 0.2574276 0.12440075 13
1.9221635 0.069138922 -0.44405338 4
7.1715593 0.25670636 0.37608621 1
2.2052855 0.07893832 -0.42893866 66
14.545181 0.51809692 1.2733454 37
2.6966712 0.095583752 -0.42737901 4
14.537718 0.51275736 1.7861173 27
3.3785322 0.11857166 -0.41508701 2
14.518072 0.50698376 2.3008385 38
4.5239515 0.15798034 -0.39603567 4
14.525207 0.50470185 2.8251181 28
7.0041976 0.24214497 -0.36729378 3
14.523167 0.4995487 3.3549199 42
7.1067572 0.24320708 -0.12412152 4
14.003606 0.4767839 3.7544291 23
1.6566365 0.054377776 -0.44413349 6
7.1151247 0.23230182 0.12426113 8
1.9223932 0.062429309 -0.44405338 4
7.1404724 0.23063782 0.37441146 1
2.2094722 0.071366124 -0.42970186 50
14.513049 0.46623018 1.2703822 41
2.689091 0.08591827 -0.42612755 4
14.51164 0.4611215 1.7827048 27
3.3828938 0.10690215 -0.41557449 2
14.50988 0.45599595 2.299274 40
4.5264664 0.14225137 -0.39620999 2
14.491558 0.45288855 2.818249 28
6.997015 0.21744426 -0.36687508 3
14.513135 0.44849223 3.3522205 43
6.9896359 0.21477626 -0.12206213 2
13.993599 0.42754158 3.7513232 23
1.6664714 0.048878238 -0.44672167 6
7.1118941 0.2073523 0.12419132 6
1.9167556 0.055548649 -0.44270366 5
7.099309 0.20450191 0.37221336 4
2.2254074 0.064104848 -0.43275481 71
14.341319 0.4106164 1.255217 37
2.6893747 0.076530352 -0.42612755 4
14.324654 0.40512842 1.7595497 28
3.3713408 0.094760679 -0.41411206 2
14.335644 0.40043148 2.2714286 32
4.5269356 0.12644899 -0.39620999 2
14.320352 0.39750317 2.7846665 29
6.9997282 0.19307536 -0.36697978 3
14.333447 0.39285985 3.3103797 40
6.9803486 0.1901025 -0.1218876 9
13.971832 0.37806809 3.7451117 23
1.6743567 0.043260008 -0.44879225 6
7.1205711 0.18272921 0.12433095 8
1.9169378 0.048857991 -0.44270366 5
7.1179485 0.18017581 0.37315539 2
2.2177672 0.056138083 -0.43122834 69
14.322748 0.36004886 1.2534739 36
2.6975243 0.067339972 -0.42737901 4
14.308121 0.35468385 1.7573562 27
3.3597438 0.082697943 -0.41264963 2
14.313257 0.34980536 2.2676742 34
4.5472674 0.11113182 -0.39795309 4
14.302025 0.34704018 2.7808504 29
6.9983625 0.16859393 -0.36687508 4
14.295768 0.34188876 3.3013816 40
6.9909654 0.16597417 -0.12206213 3
13.969205 0.32920691 3.7440765 24
1.6764288 0.037457857 -0.44930989 6
7.1291628 0.15805146 0.12447057 11
1.9170966 0.042166732 -0.44270366 5
7.1285181 0.1555444 0.37367877 4
2.2140238 0.048310041 -0.4304651 51
14.309975 0.30975214 1.2522538 37
2.699718 0.057965133 -0.42769188 4
14.297364 0.30447963 1.7558937 27
3.3679504 0.071138129 -0.41362458 2
14.286741 0.29926446 2.263294 33
4.535676 0.095008835 -0.39690727 4
14.291373 0.29686621 2.7785606 31
7.028861 0.1447825 -0.36844519 3
14.277391 0.29159024 3.2968826 40
6.9755077 0.14124441 -0.12178289 2
13.947091 0.27997428 3.7378647 26
1.6610862 0.03189465 -0.44516876 6
7.11163 0.13530937 0.12415642 16
1.932807 0.036437098 -0.44630289 5
7.1349626 0.13326201 0.37399277 2
2.2141721 0.040968254 -0.4304651 51
14.286973 0.26434818 1.250162 37
2.6939614 0.049375352 -0.42675328 4
14.288325 0.25938424 1.7546749 25
3.3721271 0.060627472 -0.41411206 2
14.25996 0.25389034 2.258914 27
4.5319819 0.079898134 -0.39655861 4
14.070464 0.24560371 2.7354379 44
7.0153241 0.12122966 -0.36771247 3
14.266546 0.24653581 3.2941833 27
7.0438972 0.12049374 -0.12296966 2
13.916998 0.23563628 3.7295825 25
1.6573288 0.025746601 -0.44413349 7
7.0760875 0.10868841 0.12352814 14
1.9153908 0.029085966 -0.44225377 6
7.1234207 0.10693187 0.37336475 2
2.2064552 0.032735568 -0.42893866 49
14.267923 0.21168278 1.2484188 37
2.6941242 0.039500471 -0.42675328 4
14.326894 0.2075627 1.759306 60
3.3842359 0.048437193 -0.41557449 2
14.310176 0.20231776 2.2667358 68
4.5282598 0.063232414 -0.39620999 2
14.047712 0.19370282 2.7308583 48
7.0237093 0.095623359 -0.36813116 3
14.210845 0.19347167 3.281136 51
7.1522646 0.096128508 -0.12485451 4
13.902313 0.1844178 3.7254415 25
1.670934 0.019832877 -0.44775698 6
7.0704398 0.082683936 0.12342342 3
1.9096386 0.021998592 -0.44090405 6
7.2076445 0.081772327 0.37776098 1
2.2183347 0.025167499 -0.43122834 69
14.248681 0.15916741 1.2466757 38
2.6883252 0.029561182 -0.42581466 4
3.3764508 0.03594923 -0.41459954 2
4.5384145 0.047528572 -0.39708155 4
14.030636 0.14448699 2.7274239 52
7.0180092 0.071046285 -0.36781713 2
14.217305 0.14144632 3.282486 12
7.2765446 0.071123451 -0.12701862 6
13.887442 0.13331674 3.7213004 25
1.680652 0.014080587 -0.45034516 6
7.1626687 0.058755644 0.12502904 1
1.9077551 0.015317332 -0.44045416 6
2.2282252 0.017501481 -0.43313646 71
14.237196 0.10933366 1.2456299 38
2.6943378 0.020222038 -0.42675328 5
14.619812 0.10717566 1.7951355 4
3.3765557 0.024162101 -0.41459954 2
14.554222 0.10160756 2.3052187 5
4.5465221 0.031740688 -0.39777881 4
14.017311 0.095419452 2.7247527 50
7.0242057 0.04658629 -0.36813116 3
14.550941 0.093965903 3.3594191 6
7.3507357 0.04618958 -0.12831008 7
13.872369 0.084741607 3.7171593 25
1.6729637 0.0081757205 -0.44827461 6
7.2748117 0.034285594 0.12698372 3
1.9116945 0.0086751077 -0.44135398 6
2.2106035 0.0096457247 -0.42970186 67
14.213582 0.059545539 1.2435381 37
2.7042692 0.010855852 -0.42831761 4
18.101923 0.069508016 2.2226534 5
3.3964701 0.012450663 -0.41703692 2
14.29769 0.049909867 2.2645457 2
4.5426207 0.015857218 -0.39743021 4
14.003817 0.046440013 2.7220812 52
7.0263228 0.022078058 -0.36823583 3
14.590155 0.043291781 3.368417 14
7.3868465 0.020629006 -0.12893838 13
13.857125 0.036273338 3.7130182 26
1.6652546 0.002325498 -0.44620407 6
7.3308778 0.0089580351 0.12796104 3
1.9195081 0.0020096479 -0.44315359 6
8.0229874 0.0070033795 0.42046711 1
2.2145503 0.0019331123 -0.4304651 68
14.187802 0.0099086436 1.2412721 36
2.6983645 0.0014123034 -0.42737901 4
18.256893 0.0063779876 2.2416649 3
3.396493 0.00059378985 -0.41703692 2
14.270123 -0 2.2601655 3
4.5366712 -0 -0.39690727 2
13.984261 -0.0024407138 2.7182651 55
7.0443325 -0.0024589361 -0.36917788 5
14.629191 -0.0076598274 3.3774152 19
7.1169147 -0.0049685445 -0.12422623 8
13.830122 -0.01206906 3.7057712 23
1.6671849 -0.0032007692 -0.44672167 6
7.3908582 -0.015479398 0.12900819 3
1.9195043 -0.0043552243 -0.44315359 6
8.0349493 -0.019633126 0.42109516 1
2.2184708 -0.0054207579 -0.43122834 69
14.157872 -0.037065301 1.2386574 32
2.6904528 -0.0075131808 -0.42612755 4
18.711399 -0.055518001 2.2974811 4
3.4044163 -0.010695324 -0.41801187 2
14.232512 -0.047196969 2.254221 5
4.5386386 -0.01505075 -0.39708155 4
13.956691 -0.048718236 2.7129223 53
7.0323019 -0.025774848 -0.36854982 4
14.549187 -0.055865139 3.3589692 11
7.130857 -0.028625244 -0.12447057 5
13.802959 -0.05781804 3.6985245 25
1.6690954 -0.0090307631 -0.44723931 6
7.338768 -0.040987838 0.12810066 11
1.9136312 -0.011021846 -0.44180387 6
2.2302179 -0.013234534 -0.43351805 72
14.153671 -0.086460933 1.2383088 31
2.6904101 -0.016904566 -0.42612755 4
18.87982 -0.12192226 2.3181989 4
3.3924482 -0.022499898 -0.41654944 2
14.220407 -0.096796736 2.2523437 9
4.5405502 -0.030907022 -0.39725587 2
13.930914 -0.097257696 2.7079613 48
7.0301719 -0.050307717 -0.36844519 4
14.502134 -0.1063081 3.3481715 11
7.1547093 -0.053696495 -0.12488942 3
13.787219 -0.10588033 3.6943834 25
1.6729174 -0.01489133 -0.44827461 6
7.294589 -0.066205405 0.12733276 21
1.9116324 -0.017683569 -0.44135398 6
2.2242684 -0.020963855 -0.4323732 70
14.139337 -0.13573207 1.2370886 34
2.698236 -0.026372977 -0.42737901 4
19.05793 -0.18960172 2.3401353 4
3.380439 -0.034221046 -0.41508701 2
14.194305 -0.1461702 2.2482765 10
4.5483842 -0.046838377 -0.39795309 2
13.928526 -0.1458645 2.7075799 43
7.0259595 -0.074804768 -0.36823583 3
14.550392 -0.15745653 3.3594191 13
7.2024679 -0.079198465 -0.12572713 3
13.775176 -0.15387659 3.6912775 28
1.6709235 -0.020706872 -0.44775698 7
7.3423023 -0.092270948 0.12817048 16
1.911559 -0.024356306 -0.44135398 6
2.2202554 -0.028677162 -0.43160996 69
2.6981273 -0.035791416 -0.42737901 4
19.259611 -0.25884619 2.3649967 4
3.3763292 -0.045966726 -0.41459954 2
14.164081 -0.19530815 2.2435834 20
4.5322552 -0.062495153 -0.39655861 2
13.916154 -0.19431877 2.7052901 42
7.0396342 -0.099527113 -0.36896852 4
14.541959 -0.20813437 3.3576195 17
7.2421374 -0.10491862 -0.12642524 4
13.7591 -0.2017334 3.6871362 28
1.6631145 -0.026416633 -0.44568643 7
1.9212048 -0.031186894 -0.44360349 6
2.218179 -0.03639492 -0.43122834 69
2.701936 -0.045275606 -0.42800474 4
19.453102 -0.32936653 2.3888831 9
3.3920367 -0.057431631 -0.41654944 2
14.145579 -0.24197276 2.2407675 33
4.5439625 -0.07852184 -0.3976045 2
13.895762 -0.24255142 2.701474 42
7.0272627 -0.12388819 -0.36834049 3
14.535343 -0.25625306 3.3562698 21
7.417695 -0.13206641 -0.12949686 18
13.729383 -0.24683821 3.6793716 28
1.6688123 -0.032042835 -0.44723931 7
8.1692219 -0.1582834 0.14262106 1
1.9191425 -0.037519578 -0.44315359 6
8.0613947 -0.1576017 0.42256054 3
2.2180459 -0.043750465 -0.43122834 69
14.075438 -0.28009248 1.2316849 37
2.6978214 -0.054156017 -0.42737901 4
19.445948 -0.3937529 2.3881519 11
3.3918276 -0.068679705 -0.41654944 2
14.119024 -0.28835553 2.2367003 40
4.5596123 -0.093917958 -0.39899898 2
13.871327 -0.2881408 2.6968944 41
7.0527716 -0.14773449 -0.36970121 3
14.52662 -0.30428928 3.35447 21
7.6611247 -0.16181538 -0.13375525 7
13.716901 -0.29211837 3.6762657 28
1.6725596 -0.037663624 -0.44827461 7
8.17665 -0.18555413 0.14276068 1
1.9170592 -0.043838922 -0.44270366 6
14.228692 -0.32786351 0.74589211 30
2.2394698 -0.051993877 -0.43542615 74
14.058496 -0.32639679 1.2302905 37
2.6936772 -0.063009612 -0.42675328 4
19.529871 -0.46024695 2.3986325 5
3.4074435 -0.080895901 -0.41849938 3
14.102134 -0.33726054 2.2341974 42
4.5473056 -0.10954551 -0.39795309 2
13.85846 -0.33627325 2.6946049 40
7.0422301 -0.1721084 -0.36917788 4
14.507937 -0.35456634 3.3504212 24
7.7824574 -0.19155826 -0.13588443 2
13.692622 -0.33942297 3.6700542 29
1.6762726 -0.043894745 -0.44930989 6
8.2198925 -0.21668108 0.14352858 1
1.9149376 -0.050813306 -0.44225377 6
14.221405 -0.37985209 0.74557811 49
2.2333765 -0.060043313 -0.43428129 73
14.05123 -0.37776095 1.2297676 36
2.6973774 -0.072988883 -0.42737901 4
19.744349 -0.5377149 2.4252002 1
3.3872809 -0.092840388 -0.416062 3
14.081057 -0.38840052 2.2310686 50
4.5628066 -0.12665375 -0.3993476 4
13.847322 -0.38679072 2.6926966 30
7.029573 -0.19758162 -0.36854982 4
14.483165 -0.40708119 3.3450222 24
7.9016366 -0.22347307 -0.13797872 1
13.693217 -0.38966167 3.670572 30
1.6799626 -0.050153591 -0.45034516 6
1.9244777 -0.058125723 -0.44450328 6
14.182062 -0.42834616 0.74358934 45
2.2213793 -0.067481212 -0.43199161 70
14.031829 -0.42871118 1.2281988 37
2.7010405 -0.082996115 -0.42800474 4
19.928755 -0.61584157 2.4481115 1
3.3988221 -0.10562472 -0.4175244 2
14.05987 -0.43693662 2.2279398 55
4.5503883 -0.14220674 -0.39830172 2
13.843925 -0.43506286 2.6923151 22
7.0308366 -0.22218128 -0.36865449 3
14.088127 -0.44765982 3.2541418 9
13.944837 -0.44310668 -0.24353088 15
13.666673 -0.43665552 3.6638427 29
1.664331 -0.055502344 -0.44620407 7
14.18995 -0.47320846 0.24782418 24
1.9242744 -0.064507201 -0.44450328 6
14.18048 -0.47784814 0.74358934 48
2.2132816 -0.074969009 -0.4304651 68
14.006352 -0.47687522 1.226107 37
2.7086475 -0.092221498 -0.42925623 4
20.180546 -0.69061464 2.4793103 1
3.402421 -0.11703151 -0.41801187 3
14.034569 -0.48519304 2.2241855 59
4.5578289 -0.15836644 -0.39899898 2
13.830635 -0.48055959 2.6900253 9
7.0520182 -0.24626188 -0.3698059 4
13.952186 -0.48965919 3.2230988 54
13.91123 -0.49065283 -0.2429724 34
13.639967 -0.48346883 3.6571133 28
1.6602767 -0.060879577 -0.44516876 6
14.172226 -0.52214879 0.24754494 39
1.9259849 -0.071295865 -0.44495317 6
14.164754 -0.52682465 0.74285662 45
2.2287161 -0.082891852 -0.43351805 72
13.980803 -0.52242655 1.2240152 34
2.696465 -0.10123123 -0.42737901 4
3.39009 -0.12845647 -0.41654944 3
14.028843 -0.53402966 2.2235599 60
4.5612607 -0.17363146 -0.3993476 2
14.019169 -0.53611177 2.7270424 19
7.0431323 -0.27056986 -0.36938724 4
14.082807 -0.54346848 3.2536922 72
13.923421 -0.53975129 -0.24321674 44
13.626615 -0.53062725 3.6540074 26
1.6658449 -0.066907242 -0.44672167 6
14.148337 -0.57072926 0.24716099 40
1.9159886 -0.077623941 -0.44270366 6
14.148859 -0.57569724 0.7421239 46
2.2323363 -0.090830646 -0.43428129 73
13.974912 -0.5710628 1.2236667 37
2.7039905 -0.11096704 -0.4286305 4
14.010798 -0.5774281 1.7217702 65
3.405488 -0.14094603 -0.41849938 2
14.00913 -0.58225787 2.2207439 65
4.5466924 -0.18897301 -0.39812744 4
13.987789 -0.58381647 2.721318 66
7.0301723 -0.29465148 -0.36875919 5
14.008784 -0.58959126 3.2370455 78
13.885489 -0.5868299 -0.24258845 39
13.609237 -0.57753444 3.6498661 28
1.6771814 -0.073227316 -0.44982749 6
14.134272 -0.61958724 0.24695155 37
1.9098654 -0.084054478 -0.44135398 6
14.12293 -0.62155974 0.74086791 45
2.2320058 -0.098622404 -0.43428129 73
13.964871 -0.61948764 1.2229693 37
2.6996396 -0.12022926 -0.42800474 4
13.982917 -0.62517881 1.7186016 44
3.3930767 -0.15229848 -0.41703692 3
13.995281 -0.62817919 2.2188668 65
4.5718799 -0.20600872 -0.40039349 4
13.989589 -0.63281679 2.7220812 50
7.0330906 -0.31937075 -0.36896852 5
13.981333 -0.63733381 3.2311969 61
13.873478 -0.63241732 -0.24241392 38
13.603387 -0.62248456 3.6488311 27
1.6788452 -0.079172336 -0.45034516 6
14.120154 -0.66588962 0.24674211 40
1.919309 -0.090848051 -0.44360349 6
14.106708 -0.67019069 0.74013513 46
2.2159595 -0.10566489 -0.43122834 51
13.934762 -0.66689694 1.220529 34
2.7071185 -0.12955867 -0.42925623 4
3.3885875 -0.16335833 -0.41654944 3
13.959461 -0.67540514 2.2135479 70
4.5810828 -0.22244942 -0.40126503 4
7.0319929 -0.34269157 -0.36896852 5
14.358693 -0.70225728 3.3189278 22
13.829244 -0.67878228 -0.24168092 37
13.581838 -0.66901499 3.6436548 28
1.666997 -0.084154733 -0.44723931 7
14.109756 -0.71476942 0.24660251 37
1.9267651 -0.097942851 -0.4454031 6
14.08633 -0.71851248 0.73919314 49
2.2234399 -0.11341273 -0.43275481 71
13.918546 -0.71238971 1.2193089 36
2.6987586 -0.1386022 -0.42800474 4
21.257938 -1.0954802 2.6136103 5
3.4038563 -0.17600577 -0.41849938 3
13.949127 -0.72371912 2.2122965 76
4.5783305 -0.2375364 -0.40109071 2
16.686665 -0.86867034 3.247951 6
7.0427213 -0.36786085 -0.36959657 4
14.3581 -0.75247622 3.3193777 27
13.818803 -0.72663122 -0.24154131 36
13.563986 -0.71560615 3.6395135 30
1.6666931 -0.089973129 -0.44723931 7
14.077223 -0.76239508 0.24607892 39
1.9303032 -0.10487937 -0.44630289 6
14.079749 -0.76746118 0.73898381 51
2.2230306 -0.1211733 -0.43275481 71
13.898069 -0.75999111 1.2177401 38
2.7041757 -0.14834639 -0.42894334 4
21.477959 -1.1820036 2.6411526 5
3.3913286 -0.1872298 -0.41703692 3
13.926792 -0.77131391 2.2091677 76
4.5734944 -0.25329593 -0.40074208 2
16.612959 -0.92299157 3.2342126 3
7.0473771 -0.39277568 -0.36991057 5
14.347604 -0.80215555 3.3175783 30
13.804203 -0.77419162 -0.24133189 37
13.545974 -0.76208085 3.6353724 31
1.6682976 -0.095901296 -0.44775698 7
14.066491 -0.81106877 0.24593931 42
1.908525 -0.11037907 -0.44135398 6
14.061033 -0.81567872 0.73814642 51
2.2343538 -0.12961458 -0.43504456 74
13.887376 -0.8080368 1.2170428 38
2.6977251 -0.15743954 -0.42800474 4
21.701599 -1.2703085 2.6691825 6
3.406508 -0.19999737 -0.41898686 3
13.920073 -0.81969064 2.2085421 69
4.5606494 -0.26855621 -0.39969626 4
16.519487 -0.97565168 3.2166584 2
7.0379882 -0.41690081 -0.3694919 6
14.329153 -0.85130858 3.3139789 29
13.801415 -0.8223725 -0.24133189 36
13.529733 -0.80855376 3.6317489 28
1.6775941 -0.10231216 -0.45034516 6
14.051599 -0.85943264 0.24572989 43
1.9100732 -0.1171597 -0.44180387 6
14.034178 -0.86328435 0.73689038 51
2.2397664 -0.13777474 -0.43618938 75
13.880494 -0.85626256 1.2166941 37
2.7011027 -0.16709937 -0.4286305 4
14.025505 -0.87012261 1.7254263 8
3.3978636 -0.21139403 -0.41801187 3
13.909239 -0.86778373 2.2072906 79
4.5914998 -0.28645915 -0.40248519 2
13.980485 -0.87467819 2.7228444 4
7.03649 -0.44146544 -0.3694919 6
14.234685 -0.8955704 3.2928336 25
13.782495 -0.8695361 -0.24105263 36
13.5249 -0.85565442 3.6312313 30
1.6810824 -0.1084161 -0.45138043 6
14.038535 -0.90783125 0.24555536 37
1.9232651 -0.12470905 -0.44495317 6
14.007321 -0.9082678 0.73563427 46
2.2216396 -0.14444576 -0.43275481 71
13.861515 -0.90367234 1.2152996 39
2.7005029 -0.17652696 -0.4286305 4
3.3931437 -0.22299314 -0.4175244 3
13.87869 -0.91209006 2.2029104 69
4.5904722 -0.30248475 -0.40248519 2
7.0408845 -0.46642074 -0.3698059 6
13.86397 -0.9208439 3.2078018 52
13.755592 -0.91364551 -0.24063379 33
13.502711 -0.89921623 3.6260548 30
1.6633471 -0.11310396 -0.44672167 7
14.007517 -0.95248055 0.2450667 34
1.9247853 -0.1312187 -0.4454031 6
14.00805 -0.95742923 0.7358436 48
2.2172046 -0.15193141 -0.43199161 70
13.840386 -0.95082366 1.2137308 41
2.6999028 -0.18548119 -0.4286305 3
13.874688 -0.95561314 1.7076334 52
3.3884246 -0.23397049 -0.41703692 3
13.853745 -0.9590295 2.1994689 64
4.5655375 -0.31685135 -0.40039349 4
