# .PCD v0.7 - Point Cloud Data file format
VERSION 0.7
FIELDS x y z rgba
SIZE 4 4 4 4
TYPE F F F U
COUNT 1 1 1 1
WIDTH 373
HEIGHT 1
VIEWPOINT 0 0 0 1 0 0 0
POINTS 373
DATA ascii
5.847537 -0.86453199 -0.10317863 0
5.8227348 -0.88164538 -0.10279468 0
5.7960653 -0.89727831 -0.10237581 0
5.7770977 -0.91500241 -0.10209658 0
5.7758417 -0.93548226 -0.10213149 0
5.7745137 -0.95596457 -0.10216638 0
5.7790294 -0.97744954 -0.10230601 0
5.765729 -0.99591434 -0.10213149 0
5.7425241 -1.0125619 -0.10178243 0
5.7310824 -1.0311844 -0.10164282 0
5.7276316 -1.0501837 -0.10164282 0
5.7298279 -1.0712731 -0.10174754 0
5.7242794 -1.0898938 -0.10171262 0
5.6968832 -1.1052983 -0.10129377 0
5.6892629 -1.123409 -0.10122395 0
5.6853065 -1.1432614 -0.10122395 0
5.6849961 -1.1648942 -0.10129377 0
5.67698 -1.1839149 -0.10122395 0
5.6608658 -1.2022216 -0.10101452 0
5.6507711 -1.2207077 -0.10090981 0
5.6523347 -1.2417122 -0.10101452 0
5.6499186 -1.261871 -0.10104944 0
5.6398525 -1.2792728 -0.10094472 0
5.6238871 -1.2952753 -0.10073529 0
5.6154366 -1.3139871 -0.10066548 0
5.612762 -1.3340431 -0.10070039 0
5.6119585 -1.3545656 -0.10077019 0
5.6033115 -1.3731948 -0.10070039 0
5.5751977 -1.3869525 -0.10028153 0
5.5742002 -1.4073844 -0.10035134 0
5.5692534 -1.4268333 -0.10035134 0
5.5664263 -1.4457965 -0.10038625 0
5.557478 -1.4641991 -0.10031643 0
5.5368781 -1.4794596 -0.10003719 0
5.5316801 -1.4987781 -0.10003719 0
5.5302711 -1.5191374 -0.100107 0
5.5307136 -1.5400417 -0.10021172 0
5.5253043 -1.559338 -0.10021172 0
5.4989533 -1.5716075 -0.099827766 0
5.4953547 -1.591349 -0.099862665 0
5.4974418 -1.6127737 -0.1000023 0
5.4917789 -1.6319532 -0.1000023 0
5.4879632 -1.6516896 -0.10003719 0
5.4687748 -1.6667551 -0.09979286 0
5.4591017 -1.6846551 -0.099723049 0
5.4531879 -1.7037009 -0.099723049 0
5.4548345 -1.7251374 -0.099862665 0
5.4468746 -1.7435584 -0.099827766 0
5.4296479 -1.7579155 -0.099618338 0
5.4237885 -1.7759111 -0.099618338 0
5.4213533 -1.7960907 -0.09968815 0
5.4188418 -1.8162746 -0.099757954 0
5.4124694 -1.8351787 -0.099757954 0
5.3927898 -1.84952 -0.09951362 0
5.3844118 -1.8676777 -0.099478714 0
5.3835206 -1.8884472 -0.099583432 0
5.3693571 -1.9045535 -0.099443816 0
5.3626761 -1.9232845 -0.099443816 0
5.3412285 -1.9356068 -0.099164575 0
5.3363175 -1.9549272 -0.099199481 0
5.331336 -1.9742368 -0.099234387 0
5.3300304 -1.9949377 -0.099339098 0
5.8476901 -0.85517043 0.30972421 0
5.780057 -0.84631014 0.51108128 0
5.7507367 -0.84406757 0.71366698 0
5.847537 -0.86453199 -0.10317863 0
5.7789292 -0.86366665 0.10199186 0
5.7814622 -0.86610854 0.3063747 0
5.7770677 -0.86648113 0.51108128 0
5.7241983 -0.86059475 0.71074206 0
5.8227348 -0.88164538 -0.10279468 0
5.7897153 -0.88595092 0.1022362 0
5.7785583 -0.88527584 0.3063747 0
5.7621918 -0.8848272 0.5100354 0
5.7250838 -0.88117468 0.71122956 0
5.7960653 -0.89727831 -0.10237581 0
5.7966247 -0.90669066 0.10241073 0
5.7557011 -0.90234792 0.30532798 0
5.7413535 -0.90215206 0.5084666 0
5.7201691 -0.89984632 0.71098578 0
5.7770977 -0.91500241 -0.10209658 0
5.7796016 -0.92470759 0.10216638 0
5.764349 -0.92433101 0.30595604 0
5.7422647 -0.92181778 0.50881523 0
5.7209129 -0.92043859 0.71147329 0
5.7758417 -0.93548226 -0.10213149 0
5.7585778 -0.9419713 0.10185225 0
5.7591166 -0.94412363 0.30585137 0
5.7272158 -0.93992037 0.50776935 0
5.7098303 -0.93911409 0.71049833 0
5.7745137 -0.95596457 -0.10216638 0
5.7493377 -0.96107763 0.10174754 0
5.7498765 -0.96323109 0.30553734 0
5.7258644 -0.96023583 0.50794363 0
5.6947713 -0.95706546 0.70903593 0
5.7790294 -0.97744954 -0.10230601 0
5.7479186 -0.9814772 0.10178243 0
5.7307301 -0.98060113 0.30469999 0
5.7205143 -0.97988063 0.50776935 0
5.6757441 -0.97425133 0.70708597 0
5.765729 -0.99591434 -0.10213149 0
5.7503676 -1.0025656 0.10188715 0
5.715467 -0.99853671 0.30407193 0
5.7111712 -0.99881339 0.50724638 0
5.6840401 -0.99611342 0.70854843 0
5.7425241 -1.0125619 -0.10178243 0
5.7330518 -1.0201797 0.10164282 0
5.7237449 -1.0205849 0.30469999 0
5.6958814 -1.0166426 0.50620055 0
5.6844368 -1.0166473 0.70903593 0
5.7310824 -1.0311844 -0.10164282 0
5.7215858 -1.0387568 0.1015032 0
5.7124681 -1.0381315 0.30428126 0
5.682498 -1.0347341 0.50532901 0
5.669136 -1.0343457 0.70757347 0
5.7276316 -1.0501837 -0.10164282 0
5.7082777 -1.0559059 0.10132867 0
5.7009544 -1.0566094 0.3038626 0
5.68081 -1.054927 0.5055033 0
5.6461587 -1.0495117 0.70513606 0
5.7298279 -1.0712731 -0.10174754 0
5.7025919 -1.0754544 0.10129377 0
5.6817188 -1.0725448 0.30302522 0
5.6811957 -1.0745002 0.50585192 0
5.6463614 -1.0699532 0.70562357 0
5.7242794 -1.0898938 -0.10171262 0
5.7127414 -1.0969988 0.1015381 0
5.6818624 -1.0931257 0.30323455 0
5.6656718 -1.092062 0.50480604 0
5.6427822 -1.0886714 0.70562357 0
5.6968832 -1.1052983 -0.10129377 0
5.6971025 -1.1146295 0.10132867 0
5.6821265 -1.1127293 0.30344391 0
5.6600642 -1.1104604 0.50463176 0
5.638948 -1.1083617 0.70562357 0
5.6892629 -1.123409 -0.10122395 0
5.6855297 -1.1319537 0.10118905 0
5.6782079 -1.1325567 0.30344391 0
5.6444311 -1.1278687 0.50358588 0
5.6391344 -1.1278337 0.70611101 0
5.6853065 -1.1432614 -0.10122395 0
5.6735044 -1.1511941 0.10104944 0
5.6759758 -1.1537586 0.30354857 0
5.6482692 -1.1491532 0.50428313 0
5.6155119 -1.1445302 0.70367366 0
5.6849961 -1.1648942 -0.10129377 0
5.665534 -1.1701823 0.10097963 0
5.6503997 -1.169113 0.30239719 0
5.6440196 -1.1698475 0.50428313 0
5.607595 -1.1633185 0.70318621 0
5.67698 -1.1839149 -0.10122395 0
5.6788187 -1.1946447 0.10129377 0
5.640214 -1.1885794 0.30208316 0
5.6360025 -1.1887193 0.5039345 0
5.6032939 -1.1838636 0.70318621 0
5.6608658 -1.2022216 -0.10101452 0
5.6550603 -1.2102753 0.10094472 0
5.6399364 -1.2090975 0.30229253 0
5.6181827 -1.2054596 0.50271428 0
5.6049495 -1.204667 0.70391744 0
5.6507711 -1.2207077 -0.10090981 0
5.6449394 -1.2287318 0.10084001 0
5.6395845 -1.2296282 0.30250186 0
5.6061544 -1.2233642 0.50201708 0
5.5929527 -1.2225289 0.70294243 0
5.6523347 -1.2417122 -0.10101452 0
5.628901 -1.2458359 0.10063057 0
5.6313577 -1.2484421 0.30229253 0
5.6115751 -1.2450838 0.50288862 0
5.5750861 -1.2390299 0.70123625 0
5.6499186 -1.261871 -0.10104944 0
5.6323214 -1.2672327 0.10077019 0
5.6096506 -1.2631606 0.30135047 0
5.6071949 -1.2646643 0.50288862 0
5.5668554 -1.2576082 0.7007488 0
5.6398525 -1.2792728 -0.10094472 0
5.6319876 -1.2867941 0.10084001 0
5.6054311 -1.281756 0.30135047 0
5.5952015 -1.2814722 0.50219136 0
5.5587845 -1.2751739 0.70026129 0
5.6238871 -1.2952753 -0.10073529 0
5.6218457 -1.3041077 0.10073529 0
5.6028681 -1.3017666 0.30145514 0
5.583159 -1.2982147 0.50149411 0
5.5641918 -1.2958517 0.70147997 0
5.6154366 -1.3139871 -0.10066548 0
5.6036344 -1.3205129 0.10049096 0
5.6021776 -1.322234 0.3016645 0
5.561142 -1.3135734 0.49992532 0
5.5596342 -1.3152665 0.70147997 0
5.612762 -1.3340431 -0.10070039 0
5.5912118 -1.3382035 0.10035134 0
5.597528 -1.3417813 0.3016645 0
5.5681472 -1.3357662 0.5009712 0
5.5395684 -1.3309553 0.69953007 0
5.6119585 -1.3545656 -0.10077019 0
5.5903921 -1.3586566 0.10042115 0
5.579226 -1.3580056 0.30093178 0
5.5673227 -1.3561375 0.50131983 0
5.5291033 -1.3488724 0.69879889 0
5.6033115 -1.3731948 -0.10070039 0
5.5856156 -1.3781625 0.10042115 0
5.5666957 -1.375556 0.30051309 0
5.5606208 -1.3750845 0.50114554 0
5.5205073 -1.3672099 0.69831145 0
5.5751977 -1.3869525 -0.10028153 0
5.5768919 -1.39668 0.10035134 0
5.5676723 -1.3964367 0.30082709 0
5.5362196 -1.3906022 0.4994024 0
5.5272522 -1.3893754 0.69977379 0
5.5742002 -1.4073844 -0.10035134 0
5.5620451 -1.4146464 0.10017681 0
5.5666351 -1.4168482 0.30103645 0
5.5274701 -1.4089345 0.49905378 0
5.5105824 -1.4066786 0.69831145 0
5.5692534 -1.4268333 -0.10035134 0
5.555387 -1.4325838 0.10014191 0
5.5541701 -1.4333038 0.30061778 0
5.5324125 -1.4297491 0.49992532 0
5.4981999 -1.4229549 0.69733644 0
5.5664263 -1.4457965 -0.10038625 0
5.5506058 -1.4509981 0.10014191 0
5.5394726 -1.4501537 0.3000944 0
5.5314956 -1.449097 0.50027394 0
5.4896111 -1.4401727 0.69684899 0
5.557478 -1.4641991 -0.10031643 0
5.5435739 -1.469852 0.100107 0
5.5285854 -1.4679435 0.29978037 0
5.5187016 -1.4663504 0.49957672 0
5.4922242 -1.4613678 0.69782394 0
5.5368781 -1.4794596 -0.10003719 0
5.5384092 -1.4891936 0.100107 0
5.5311418 -1.4893101 0.30019906 0
5.5058546 -1.483532 0.49887949 0
5.4870896 -1.4805304 0.69782394 0
5.5316801 -1.4987781 -0.10003719 0
5.5216022 -1.5053616 0.099897578 0
5.5220566 -1.5075563 0.29998973 0
5.4907708 -1.5010748 0.49800789 0
5.4780583 -1.4986271 0.69733644 0
5.5302711 -1.5191374 -0.100107 0
5.5102654 -1.5239899 0.09979286 0
5.5167608 -1.5268227 0.29998973 0
5.4912577 -1.5218284 0.49853083 0
5.4534011 -1.5133867 0.69489902 0
5.5307136 -1.5400417 -0.10021172 0
5.5051813 -1.5422542 0.09979286 0
5.5037055 -1.5439128 0.29957107 0
5.4859123 -1.5409871 0.49853083 0
5.4521747 -1.5325371 0.69538653 0
5.5253043 -1.559338 -0.10021172 0
5.5093827 -1.5641921 0.099967383 0
5.4870276 -1.5588802 0.29894301 0
5.4769387 -1.5580803 0.49818221 0
5.4525194 -1.5531908 0.69611776 0
5.4989533 -1.5716075 -0.099827766 0
5.4964781 -1.5802431 0.099827766 0
5.4873109 -1.5796818 0.29925704 0
5.463809 -1.5749816 0.49748495 0
5.4511528 -1.5723639 0.69660521 0
5.4953547 -1.591349 -0.099862665 0
5.4829702 -1.5981401 0.09968815 0
5.4932671 -1.6021817 0.29988506 0
5.4410653 -1.5890173 0.49591616 0
5.4415431 -1.5912185 0.69611776 0
5.4974418 -1.6127737 -0.1000023 0
5.4776406 -1.6163136 0.09968815 0
5.4799795 -1.6190832 0.29946637 0
5.4431281 -1.6102616 0.49661341 0
5.4229126 -1.6053104 0.69441158 0
5.4917789 -1.6319532 -0.1000023 0
5.4719653 -1.635424 0.09968815 0
5.4647274 -1.6353391 0.29894301 0
5.4473014 -1.6311604 0.49748495 0
5.4153743 -1.62366 0.69416779 0
5.4879632 -1.6516896 -0.10003719 0
5.4662232 -1.6545149 0.09968815 0
5.4494286 -1.6515081 0.29841965 0
5.433948 -1.6478523 0.49678773 0
5.4172716 -1.6448603 0.69514281 0
5.4687748 -1.6667551 -0.09979286 0
5.4585018 -1.6729991 0.099653237 0
5.4493585 -1.6722778 0.29873365 0
5.4148302 -1.6627163 0.49556756 0
5.4114971 -1.6637602 0.69514281 0
5.4591017 -1.6846551 -0.099723049 0
5.4507194 -1.6914502 0.099618338 0
5.445395 -1.6918823 0.29883832 0
5.4223113 -1.6857479 0.49678773 0
5.4075518 -1.6832294 0.69538653 0
5.4531879 -1.7037009 -0.099723049 0
5.4333353 -1.7068706 0.099408902 0
5.4356461 -1.7096814 0.29862899 0
5.4049911 -1.7010761 0.49574184 0
5.3864965 -1.6973224 0.69343662 0
5.4548345 -1.7251374 -0.099862665 0
5.4349666 -1.72825 0.099548534 0
5.4201293 -1.7256155 0.29810563 0
5.4104109 -1.7235614 0.49678773 0
5.3729739 -1.7137016 0.69246167 0
5.4468746 -1.7435584 -0.099827766 0
5.4327078 -1.7484363 0.099618338 0
5.4143772 -1.7435799 0.29810563 0
5.3929834 -1.7387682 0.49574184 0
5.374516 -1.7348853 0.69343662 0
5.4296479 -1.7579155 -0.099618338 0
5.4306831 -1.76768 0.09968815 0
5.4123635 -1.7627618 0.29831499 0
5.387188 -1.7566427 0.49574184 0
5.3762817 -1.7551628 0.69441158 0
5.4237885 -1.7759111 -0.099618338 0
5.4114952 -1.7813023 0.099443816 0
5.413765 -1.7841444 0.29873365 0
5.3813329 -1.7744975 0.49574184 0
5.3647761 -1.7711146 0.69368041 0
5.4213533 -1.7960907 -0.09968815 0
5.3995523 -1.7982858 0.099339098 0
5.4075041 -1.8030311 0.29873365 0
5.3788862 -1.7945321 0.4960905 0
5.3510303 -1.7873148 0.69270545 0
5.4188418 -1.8162746 -0.099757954 0
5.3951373 -1.8177609 0.099374004 0
5.3898225 -1.8180655 0.29810563 0
5.3801408 -1.8158456 0.49678773 0
5.3466396 -1.8066177 0.69294918 0
5.4124694 -1.8351787 -0.099757954 0
5.3906522 -1.8372276 0.099408902 0
5.379663 -1.8355786 0.2978963 0
5.3775406 -1.8359023 0.49713635 0
5.3384223 -1.824628 0.69270545 0
5.3927898 -1.84952 -0.09951362 0
5.3842063 -1.8560336 0.099408902 0
5.3769984 -1.8556491 0.29810563 0
5.3428497 -1.8449075 0.49452168 0
5.3376489 -1.8451972 0.69343662 0
5.3844118 -1.8676777 -0.099478714 0
5.3739185 -1.8734998 0.099339098 0
5.3742599 -1.8757232 0.29831499 0
5.3401394 -1.8648602 0.49487031 0
5.3293014 -1.8631629 0.6931929 0
5.3835206 -1.8884472 -0.099583432 0
5.3635736 -1.8909172 0.099269286 0
5.3639131 -1.893142 0.29810563 0
5.324204 -1.880172 0.49399874 0
5.315279 -1.8791075 0.69221795 0
5.3693571 -1.9045535 -0.099443816 0
5.3663588 -1.9129852 0.099443816 0
5.3459859 -1.9078263 0.2974776 0
5.3326192 -1.9041057 0.49539325 0
5.3068185 -1.8969818 0.69197422 0
5.3626761 -1.9232845 -0.099443816 0
5.3577671 -1.9310278 0.099408902 0
5.3321142 -1.9228334 0.29705891 0
5.3221922 -1.9213552 0.49504462 0
5.3038979 -1.9168437 0.69246167 0
5.3412285 -1.9356068 -0.099164575 0
5.3513341 -1.9487842 0.099408902 0
5.3366284 -1.9455389 0.29768693 0
5.3004799 -1.9344568 0.49365011 0
5.3049712 -1.9371451 0.69343662 0
5.3363175 -1.9549272 -0.099199481 0
5.3276105 -1.9612346 0.099094771 0
5.3354273 -1.9662273 0.29800096 0
5.3015132 -1.9547805 0.49434736 0
5.3019013 -1.9570261 0.69392407 0
5.331336 -1.9742368 -0.099234387 0
5.3169832 -1.9784248 0.099024951 0
5.3285313 -1.9848396 0.29800096 0
5.2927904 -1.9725783 0.49417305 0
5.2782989 -1.9692758 0.69173044 0
5.3300304 -1.9949377 -0.099339098 0
5.3119164 -1.9976761 0.099059857 0
5.3159628 -2.0013163 0.29768693 0
