# .PCD v0.7 - Point Cloud Data file format
VERSION 0.7
FIELDS x y z intensity
SIZE 4 4 4 4
TYPE F F F F
COUNT 1 1 1 1
WIDTH 1334
HEIGHT 1
VIEWPOINT 0 0 0 1 0 0 0
POINTS 1334
DATA ascii
-1.6290843 1.7047386 0.54438156 17
-0.99591887 1.0425338 -0.02516637 96
-1.6383913 1.715677 0.63565958 7
-0.87411141 0.91758651 -0.33957058 39
-0.99979621 1.0498892 0.025305988 86
-0.89352274 0.93861902 -0.29918489 36
-1.3038714 1.3701569 0.099124312 7
-0.93384773 0.98132211 -0.26331642 9
-1.6039389 1.6860681 0.20359582 12
-1.3721493 1.4429148 -0.3153719 33
-1.6234643 1.7077867 0.28931785 17
-0.9859333 1.0375049 -0.17573561 60
-1.6271696 1.7128822 0.37419128 19
-0.98251444 1.0342692 -0.12480702 50
-1.629054 1.7154652 0.45984969 7
-0.98180401 1.0342435 -0.074735753 66
-1.6150749 1.701934 0.54168218 16
-0.99089736 1.044553 -0.025131466 84
-1.6403688 1.7297959 0.63876545 7
-0.86559272 0.9150185 -0.33750004 34
-0.99749929 1.0548257 0.025340894 90
-0.88622481 0.93748397 -0.2978352 34
-1.6351681 1.7303509 0.12476893 8
-1.3335969 1.4112254 -0.37742022 32
-1.6363528 1.73221 0.20847654 15
-1.3725296 1.4534402 -0.31662342 33
-1.6229439 1.7192174 0.2902928 18
-0.99184269 1.0510465 -0.17744178 62
-1.6103364 1.7070562 0.37168834 18
-0.96932793 1.0275475 -0.12358684 55
-1.632485 1.7311394 0.46252102 8
-0.98366761 1.0434779 -0.075154446 60
-1.6091242 1.7075613 0.54168218 16
-0.97627598 1.0363607 -0.024852226 77
-1.6263738 1.7270734 0.63565958 9
-0.8504892 0.90536219 -0.33284131 27
-0.98833585 1.0524702 0.025201276 90
-0.88828194 0.94625497 -0.29963478 30
-1.0017983 1.067553 0.076724522 3
-1.3891175 1.4802948 -0.39459303 100
-1.6248434 1.7320995 0.20777929 15
-1.3715016 1.4625453 -0.31756201 26
-1.619648 1.7277687 0.29078028 17
-0.98409539 1.0501571 -0.17671056 39
-1.6043683 1.7126666 0.37168834 19
-0.95483863 1.0192922 -0.12219235 45
-1.6277741 1.7382601 0.46290264 7
-0.9772892 1.0439889 -0.074945092 60
-1.6044856 1.7145902 0.54213202 15
-0.97675073 1.0441434 -0.024956942 81
-1.6335299 1.7468501 0.64083594 9
-0.85523051 0.91680115 -0.33594716 22
-0.97783673 1.0486015 0.02502675 97
-0.88763106 0.95220077 -0.30053461 18
-1.0062356 1.0798104 0.077352546 12
-1.5552621 1.668981 -0.44344014 100
-1.6160715 1.7348447 0.20743066 16
-1.37985 1.4817803 -0.32069072 27
-1.6095496 1.7290523 0.29004908 17
-1.6037619 1.7240418 0.3729398 18
-0.93906152 1.0094898 -0.12062354 14
-1.6150115 1.7367437 0.46099457 8
-0.96684015 1.0400796 -0.074421734 24
-1.6024705 1.7244631 0.54348177 14
-0.97718275 1.0519422 -0.025061656 84
-1.6366245 1.7624505 0.64445943 9
-0.84152228 0.90844333 -0.33180603 17
-0.96465981 1.0417378 0.024782417 92
-0.87768304 0.94814289 -0.2982851 5
-0.99567741 1.0759869 0.076829188 24
-1.5667605 1.6931325 -0.44840118 100
-1.6154176 1.7463255 0.2081279 17
-1.6616734 1.7969579 -0.38764465 28
-1.6061988 1.7375759 0.29053652 8
-0.98078185 1.0613753 -0.17744178 7
-1.6057765 1.7383358 0.37481701 18
-0.93823588 1.0156887 -0.12097216 22
-1.6142673 1.7481396 0.46252102 8
-0.93204522 1.0096939 -0.07201428 26
-1.5977628 1.7314786 0.54393166 15
-0.97486091 1.0568163 -0.025096562 88
-1.642249 1.7809347 0.64911819 10
-0.84619325 0.91990608 -0.33491185 13
-0.96372485 1.0480424 0.024852226 92
-1.2686907 1.3801737 -0.43280584 5
-0.98534578 1.0719305 0.076305829 37
-1.5581841 1.6957 -0.44763795 100
-1.6173996 1.7607572 0.20917378 16
-1.6634067 1.8114778 -0.38952184 23
-0.95693904 1.0428531 -0.1737857 10
-1.602674 1.7465622 0.37544277 16
-0.93199098 1.016021 -0.12062354 30
-1.6121358 1.7581047 0.46366587 7
-0.92311662 1.0070521 -0.071595594 33
-1.5969752 1.7427922 0.54573125 17
-0.97270185 1.0615176 -0.025131466 72
-1.6519928 1.8034652 0.65532982 8
-0.83646274 0.91572219 -0.33232367 12
-0.95754677 1.0482796 0.024782417 65
-1.3232387 1.4491309 -0.45305145 5
-0.96947938 1.0620877 0.075363785 60
-1.5496088 1.6982284 -0.44687468 100
-1.6058725 1.7605044 0.20847654 14
-0.84799325 0.92997414 0.15453033 1
-0.95481282 1.0474877 -0.17402944 16
-1.5925766 1.7477652 0.37450415 14
-0.9177053 1.0074848 -0.11922905 32
-1.615551 1.7736009 0.46633717 8
-0.92246151 1.0130613 -0.071804941 43
-1.5872515 1.7437551 0.54438156 12
-0.96091563 1.0560324 -0.024922037 73
-1.6443876 1.8077918 0.65481222 5
-0.82952702 0.91419911 -0.33077076 11
-0.95791221 1.0560592 0.024887133 100
-1.3247173 1.4609592 -0.45530096 4
-0.96863544 1.0682558 0.075573131 100
-1.5413316 1.7004485 -0.44611144 100
-1.5960122 1.7613907 0.2079536 5
-0.99592727 1.0995111 -0.23496459 4
-0.84740663 0.9358716 0.15501782 2
-0.94981867 1.0493424 -0.1737857 18
-1.5748414 1.739856 0.37168834 5
-0.9090122 1.0046129 -0.1185318 34
-1.6159352 1.7865096 0.46824533 8
-0.91624075 1.0133119 -0.071595594 50
-1.6020629 1.7724161 0.55158001 9
-0.95472652 1.056246 -0.024852226 75
-1.6332028 1.8075013 0.65274167 5
-0.82762384 0.91852427 -0.3312884 8
-0.9463734 1.0503165 0.024677703 100
-1.3198652 1.4653441 -0.45530096 4
-0.97158247 1.0790519 0.07609649 94
-1.5353869 1.7058182 -0.44611144 100
-1.6058458 1.7847242 0.21004534 1
-0.97774184 1.0866545 -0.23152302 8
-0.82305825 0.91506201 0.151118 2
-0.94235188 1.0480579 -0.17305449 22
-1.6321427 1.8158617 0.38670605 1
-0.90150511 1.0033339 -0.11800887 38
-1.6086899 1.7903981 0.46786368 8
-0.91020614 1.013373 -0.071386255 54
-1.6131017 1.7965693 0.55742872 9
-0.95103365 1.0595723 -0.024852226 73
-1.6333348 1.8203804 0.65532982 7
-0.81668365 0.91276938 -0.32818255 8
-0.93985099 1.0507973 0.024607893 90
-1.3027954 1.4570972 -0.4512518 5
-0.96762133 1.0826055 0.07609649 100
-1.5320399 1.7140949 -0.44687468 100
-0.83232594 0.9315604 0.1092933 1
-0.96980488 1.0858111 -0.23058443 11
-0.80647808 0.9032647 0.14868061 2
-0.93586016 1.048543 -0.172567 24
-0.89932394 1.007961 -0.11818319 39
-1.5942765 1.787491 0.46557397 8
-0.89718151 1.0062671 -0.070653543 59
-1.6078031 1.803924 0.55787861 9
-0.95778608 1.074995 -0.025131466 84
-1.671622 1.8768469 0.67344719 10
-0.83530569 0.94016564 -0.3369824 7
-0.94414496 1.0630422 0.024817321 55
-1.2938197 1.4572641 -0.44990209 6
-0.94527584 1.0650634 0.07463108 92
-1.5234412 1.7164952 -0.44611144 100
-0.83700299 0.94340199 0.11033916 2
-0.95159066 1.0729331 -0.22714287 9
-0.79805231 0.90013313 0.14770564 2
-0.92429465 1.0428895 -0.17110457 27
-0.85147208 0.961061 0.20336483 1
-0.90240616 1.0185506 -0.11905474 47
-7.4975691 8.4655266 2.1981196 18
-0.89631164 1.0123835 -0.070862897 65
-1.6337848 1.8460078 0.56912619 9
-0.95270252 1.0768344 -0.025096562 100
-1.6791388 1.8985879 0.67914116 15
-0.89592165 1.0155088 -0.36286432 8
-0.93910581 1.0648316 0.024782417 80
-1.2913027 1.4646952 -0.45080194 4
-0.94287252 1.0698552 0.074735753 100
-0.9943189 1.1282302 -0.29231939 1
-0.82316822 0.93435824 0.10894467 2
-0.94783956 1.0762483 -0.22714287 17
-0.80015248 0.90887296 0.14868061 1
-0.91933721 1.0446194 -0.17086083 30
-0.83245468 0.94622993 0.1996104 1
-0.88831705 1.0097272 -0.11766025 44
-7.4809403 8.5063868 2.201936 34
-0.89145356 1.0140059 -0.070758224 63
-1.6967974 1.9307446 0.59342086 10
-0.94233906 1.0726417 -0.024922037 84
-1.6737761 1.9058894 0.67965883 12
-0.9649322 1.1014571 -0.39236969 8
-0.93274814 1.0650945 0.024712607 100
-1.2823315 1.4647946 -0.44945222 4
-0.93518627 1.0686309 0.074421734 94
-0.95417285 1.0903268 -0.28163409 4
-0.80022401 0.91473252 0.10633 4
-0.93497437 1.0691415 -0.22495279 25
-0.80220109 0.91763866 0.14965557 2
-0.91307276 1.0448328 -0.17037337 29
-0.81874979 0.93722868 0.19710746 1
-0.88216537 1.0098209 -0.11731163 45
-7.4615331 8.5442781 2.204989 31
-0.89316237 1.0231299 -0.071176901 60
-7.4649119 8.5541725 2.6211298 27
-0.9385891 1.0759246 -0.024922037 60
-1.6607645 1.9044405 0.67707068 13
-0.97883236 1.1252244 -0.3996166 7
-0.92115176 1.0592899 0.024503179 96
-1.0087276 1.1604083 -0.35497275 3
-0.94062078 1.0824419 0.075154446 100
-0.95293659 1.0966147 -0.28239733 18
-0.78918672 0.90849525 0.10528414 7
-0.92735106 1.0679241 -0.22401418 27
-0.80419821 0.92642957 0.15063052 2
-0.91202223 1.0510119 -0.17086083 26
-0.81806201 0.94306535 0.19773319 1
-0.87341285 1.006874 -0.11661438 45
-7.4432373 8.583622 2.2084234 30
-0.88435274 1.0202048 -0.070758224 58
-7.4592543 8.608161 2.6296778 31
-0.92959052 1.0731485 -0.024782417 48
-1.6604297 1.9175283 0.67965883 18
-0.99131548 1.1476395 -0.4063459 7
-0.91091365 1.0549315 0.024328655 98
-0.98047715 1.1358938 -0.34642464 12
-0.9172647 1.0630366 0.073584363 42
-0.95295054 1.1043936 -0.28354219 31
-0.78601038 0.91124475 0.10528414 9
-0.92361766 1.0711547 -0.22401418 29
-0.7828148 0.90818065 0.14721818 2
-0.91612244 1.0632123 -0.17232326 29
-0.80445164 0.9339416 0.19523023 1
-0.87379372 1.0144454 -0.11713732 42
-7.4247589 8.622941 2.211858 30
-0.87818027 1.0202579 -0.070548877 61
-7.4431419 8.6503954 2.6346269 37
-0.92583889 1.0763868 -0.024782417 51
-1.666321 1.9379606 0.68483526 15
-0.99736518 1.1628239 -0.41048703 6
-0.91503572 1.0672131 0.024538083 73
-0.97904283 1.1422684 -0.34732443 19
-0.81218761 0.94792998 0.06541995 14
-0.94908988 1.1077131 -0.28354219 32
-0.7789368 0.90944308 0.1047612 9
-0.92501211 1.0803741 -0.22526565 28
-0.77447635 0.90487534 0.14624323 1
-0.89691943 1.0483034 -0.16939841 27
-0.78321147 0.91572708 0.19085006 1
-0.87672263 1.0250598 -0.11800887 47
-7.5170903 8.7920599 2.2484932 14
-0.86942315 1.017244 -0.070130184 60
-8.8268738 10.331284 3.1371675 21
-0.91428345 1.0704888 -0.024572989 51
-1.670836 1.956988 0.68949395 16
-0.99705756 1.1707108 -0.41203994 6
-0.92037874 1.0810592 0.024782417 100
-0.98641694 1.1590352 -0.35137355 32
-0.80757934 0.9492383 0.065315276 24
-0.94394505 1.1095241 -0.28316057 33
-0.77575725 0.9121567 0.1047612 9
-0.92379457 1.0866063 -0.2258914 31
-0.7764554 0.91362357 0.14721818 2
-0.8932544 1.0514281 -0.16939841 28
-0.78768229 0.9274897 0.1927273 1
-0.87442857 1.0296328 -0.11818319 41
-10.460824 12.321895 3.1418612 5
-0.87103605 1.0263641 -0.070548877 64
-7.5250268 8.8700676 2.6854658 38
-0.90795457 1.0706233 -0.024503179 50
-1.6714896 1.9716504 0.69259977 13
-0.98548055 1.1653332 -0.40893409 6
-0.9049809 1.070521 0.024468275 90
-0.98739624 1.1684253 -0.35317314 35
-0.80555004 0.95357698 0.06541995 22
-0.94006658 1.1128122 -0.28316057 31
-0.75971395 0.89963663 0.10301808 7
-0.92891526 1.1003907 -0.22808148 37
-0.76814067 0.91025972 0.14624323 2
-0.8921389 1.0575742 -0.16988587 34
-0.79208076 0.9392941 0.1946045 1
-0.86312294 1.0235399 -0.11713732 41
-7.5086761 8.9073658 2.2645214 30
-0.87002242 1.0324527 -0.070758224 61
-7.4827218 8.8828669 2.6814167 46
-0.89905995 1.0676675 -0.024363559 48
-7.3774762 8.7641344 3.0695939 26
-0.98513383 1.1732042 -0.41048703 7
-0.89481062 1.0660151 0.024293751 92
-0.98080611 1.1688795 -0.35227334 39
-0.80221623 0.95638335 0.06541995 24
-0.94879305 1.1311288 -0.28697675 28
-0.75912958 0.90533638 0.10336671 6
-0.92379928 1.1021128 -0.22776861 34
-0.76495838 0.91293573 0.14624323 3
-0.89481539 1.0682905 -0.17110457 32
-0.77357894 0.92387873 0.19085006 1
-0.86210269 1.0296019 -0.11748594 40
-7.4561133 8.9079304 2.2580338 45
-0.86897618 1.0385472 -0.070967562 58
-7.4654188 8.9253759 2.6863654 72
-0.89789265 1.0738677 -0.024433369 45
-7.3666587 8.8135509 3.0778761 29
-0.98598075 1.1825712 -0.41255757 9
-0.88596255 1.0629879 0.02415413 68
-0.97422528 1.1693014 -0.35137355 45
-0.79376048 0.95303893 0.065001264 28
-0.94860852 1.1389593 -0.28812161 24
-0.74831557 0.89879388 0.10232083 5
-0.9237377 1.1098855 -0.22870721 31
-0.74018377 0.88965821 0.14209966 3
-0.88727272 1.0668292 -0.17037337 29
-0.78550392 0.94480097 0.1946045 1
-0.86232495 1.0372009 -0.11800887 35
-0.85513538 1.0292839 -0.070130184 58
-0.89541632 1.0785339 -0.024468275 41
-7.3555913 8.8629961 3.0861585 29
-0.99047047 1.196422 -0.41618103 8
-0.88097137 1.0645336 0.024119226 38
-0.97634882 1.1802024 -0.35362303 41
-0.77897358 0.94195145 0.06405922 24
-0.9421249 1.1392375 -0.28735834 20
-0.75279027 0.91061437 0.10336671 4
-0.9223749 1.1161485 -0.22933295 22
-0.73201644 0.88611507 0.14112473 4
-0.87975103 1.0653281 -0.16964214 24
-0.76711065 0.92925644 0.19085006 1
-0.85996777 1.041741 -0.11818319 37
-7.4562216 9.0354795 2.2771149 2
-0.85407889 1.0353444 -0.070339531 58
-7.4587226 9.0449305 2.7066112 2
-0.89037377 1.08011 -0.024433369 47
-7.3442631 8.9124737 3.0944405 30
-0.99242145 1.2073342 -0.41876921 8
-0.8594768 1.045972 0.023630559 26
-0.97222292 1.1836035 -0.35362303 42
-0.77204227 0.93989962 0.063745201 20
-0.93191278 1.134933 -0.28545028 18
-0.74455076 0.90707624 0.10266946 4
-0.92473805 1.126997 -0.23089729 16
-0.74276727 0.90554786 0.14380583 5
-0.88124925 1.0743787 -0.1706171 27
-0.75650972 0.92263031 0.18897286 1
-0.86516708 1.0555232 -0.11940337 47
-7.4321036 9.0705614 2.2794044 2
-0.85425657 1.0429543 -0.070653543 54
-7.4410329 9.084692 2.7111101 1
-0.87665266 1.0706787 -0.02415413 56
-7.3244576 8.9487371 3.0985816 32
-0.97986031 1.2001433 -0.41514575 5
-0.81427836 0.99769229 0.0224787 20
-0.97322059 1.1928607 -0.35542265 42
-0.76892138 0.94245446 0.063745201 18
-0.92442185 1.1334527 -0.28430542 18
-0.74405682 0.91262847 0.10301808 4
-0.91600406 1.1239322 -0.22964582 14
-0.74352151 0.91262311 0.14453706 5
-0.88144279 1.0819123 -0.1713483 36
-0.76093066 0.93432373 0.19085006 1
-0.8515991 1.0460255 -0.11800887 44
-7.4143739 9.1103859 2.2832205 1
-0.85709572 1.0535278 -0.071176901 50
-7.4354644 9.1395493 2.7201083 2
-0.86931241 1.0689255 -0.024049416 66
-7.3069263 8.9879684 3.1037581 33
-0.97952574 1.2078874 -0.41669869 5
-0.80340946 0.99106675 0.022269269 30
-0.97416687 1.2021378 -0.35722226 42
-0.77065545 0.95134073 0.064163886 21
-0.93177974 1.1502417 -0.28773996 24
-0.73350292 0.90580082 0.10197222 5
-0.90108579 1.1131456 -0.22683001 14
-0.73050153 0.90273845 0.14258714 6
-0.88265496 1.0911558 -0.17232326 42
-0.76511693 0.9461906 0.1927273 1
-0.85295236 1.0551898 -0.11870612 37
-7.4186802 9.1776714 2.2939057 1
-0.85485244 1.0579181 -0.071281582 42
-7.4206572 9.1866741 2.7264068 2
-0.86557561 1.0719537 -0.024049416 86
-7.2912841 9.0329599 3.1104875 34
-0.97872555 1.2159845 -0.4182516 5
-0.80370688 0.99853837 0.022373985 37
-0.96019202 1.1933844 -0.35362303 42
-0.76733011 0.95402491 0.064163886 21
-0.93001837 1.1567092 -0.28850323 29
-0.74016368 0.92090678 0.10336671 5
-0.89947462 1.1195204 -0.22745575 14
-0.72858942 0.90683013 0.14283088 7
-0.87138259 1.0849438 -0.17086083 42
-0.76180959 0.9488554 0.1927273 2
-0.85425234 1.0643759 -0.11940337 38
-7.3899093 9.2109251 2.2954323 1
-0.84222227 1.0501374 -0.070548877 37
-7.3942518 9.2229309 2.7291062 2
-0.87058467 1.0858898 -0.024293751 95
-7.277832 9.0809669 3.118252 32
-0.98774105 1.2359943 -0.42394564 7
-0.79629755 0.99679011 0.022269269 30
-0.95945936 1.2014642 -0.35497275 40
-0.75402439 0.94421232 0.063326515 26
-0.92964917 1.1645517 -0.28964809 32
-0.74315852 0.93127114 0.10423827 6
-0.89432901 1.1211092 -0.22714287 15
-0.72030997 0.90328646 0.14185593 8
-0.86739999 1.0881305 -0.17086083 36
-0.74371678 0.93297321 0.18897286 2
-0.85425645 1.0720261 -0.1199263 44
-7.3674955 9.248951 2.2984853 2
-0.84352773 1.0593208 -0.070967562 32
-7.3717198 9.2608852 2.7327054 2
-0.85931629 1.079535 -0.024084322 95
-7.2677393 9.1335278 3.1275694 31
-0.98222005 1.237921 -0.42342797 8
-0.78055805 0.98376042 0.021920223 22
-0.96152508 1.212273 -0.35722226 37
-0.74576062 0.94057828 0.062907822 30
-0.92192036 1.1631737 -0.28850323 31
-0.74361485 0.93854469 0.1047612 10
-0.90042049 1.1364551 -0.22964582 16
-0.71854329 0.90722615 0.14209966 7
-0.86625141 1.0941133 -0.1713483 35
-0.73064834 0.92317176 0.1864699 4
-0.85050946 1.0750012 -0.1199263 41
-7.363585 9.3072023 2.3068807 2
-0.84868318 1.0730779 -0.071700267 30
-7.3458042 9.2913923 2.7345049 2
-0.85058326 1.0762522 -0.023944702 84
-7.2465887 9.1724863 3.1322281 31
-0.97332692 1.2351019 -0.42135742 8
-0.77464473 0.98333746 0.021850415 26
-0.96090424 1.2202153 -0.35857198 34
-0.75235623 0.95573044 0.063745201 31
-0.9289875 1.180108 -0.29193777 35
-0.72817749 0.92534798 0.10301808 13
-0.89889044 1.1426966 -0.23027156 16
-0.72518873 0.922212 0.14404957 6
-0.86733389 1.1033733 -0.17232326 34
-0.71887773 0.91484427 0.18427983 5
-0.84675193 1.0779634 -0.1199263 51
-7.3528833 9.3606386 2.31375 2
-0.85603321 1.0901717 -0.072642311 26
-7.3446088 9.3568354 2.7462025 2
-0.84064937 1.0713487 -0.023770178 66
-7.2264514 9.212925 3.1374047 28
-0.97117352 1.2417047 -0.4223927 8
-0.76258349 0.97500956 0.021606078 41
-0.95423871 1.2204914 -0.35767215 31
-0.75024515 0.95992458 0.063849874 33
-0.94278616 1.2067111 -0.29766205 38
-0.72355449 0.92644066 0.10284378 9
-0.89226514 1.1428692 -0.22964582 16
-0.7219649 0.92473799 0.14404957 6
-0.88423991 1.1329975 -0.17646682 33
-0.72297055 0.92669278 0.18615703 6
-0.84175855 1.0793417 -0.11975199 45
-7.3305941 9.4030104 2.3175662 1
-0.85571516 1.0980277 -0.072956331 27
-7.3414054 9.4236593 2.7578998 2
-0.84059101 1.0790092 -0.023874892 51
-7.2049332 9.2518091 3.1420634 27
-0.97631234 1.2572937 -0.42653382 7
-0.75900495 0.97779787 0.021606078 56
-0.940202 1.2116637 -0.35407296 32
-0.74182552 0.95635521 0.063431181 30
-0.96263427 1.24102 -0.30529439 46
-0.71787465 0.92581147 0.10249515 6
-0.91247356 1.1772026 -0.23590319 20
-0.71370751 0.92110115 0.14307462 6
-0.88615948 1.1440775 -0.17768551 26
-0.71473145 0.92308879 0.18490556 6
-0.84408426 1.0901504 -0.12062354 36
-7.3121486 9.4471712 2.3221457 2
-0.85554409 1.1057469 -0.073270351 36
-7.3060789 9.4461479 2.7570002 2
-0.83785409 1.0836648 -0.023909798 42
-7.1934237 9.3071957 3.1518984 26
-0.9872508 1.2805837 -0.43326309 7
-0.75436628 0.9788577 0.021571174 71
-0.94072354 1.2211134 -0.35587254 35
-0.73726386 0.95735669 0.063326515 20
-0.95949405 1.2459285 -0.30567604 47
-0.7231459 0.93936324 0.10371533 5
-0.92281574 1.1991663 -0.23965763 20
-0.70322549 0.9141466 0.14161219 8
-0.88337022 1.1487377 -0.17792925 27
-0.71150517 0.92557794 0.18490556 5
-0.85241675 1.108886 -0.12236666 41
-7.2839103 9.4788656 2.3236721 2
-0.86019552 1.1198139 -0.074003048 37
-7.2849321 9.4870481 2.7614992 2
-0.83406597 1.086583 -0.023909798 41
-7.1785293 9.3552399 3.159663 28
-0.98394924 1.2855562 -0.43378076 7
-0.75580561 0.98783749 0.021710794 56
-0.93527168 1.2228417 -0.35542265 34
-0.73634392 0.96309757 0.063535862 22
-0.93963766 1.2289946 -0.300715 40
-0.7198627 0.9418816 0.10371533 5
-0.92222226 1.2070891 -0.24059623 21
-0.70725965 0.92606133 0.14307462 8
-0.87574154 1.1470807 -0.17719805 22
-0.70827013 0.92805582 0.18490556 4
-0.84612358 1.108687 -0.12201804 27
-7.2698331 9.5292072 2.329778 2
-0.87202603 1.1434557 -0.075363785 31
-7.2730398 9.5403137 2.7695973 2
-0.8157233 1.0704017 -0.023490939 42
-7.161046 9.4002199 3.1663923 31
-0.97711843 1.2859063 -0.43274546 8
-0.75114292 0.98887748 0.02167589 52
-0.94278187 1.2416195 -0.35992166 28
-0.73780793 0.97202522 0.06395454 26
-0.94009012 1.2385221 -0.30224147 43
-0.71175301 0.93803996 0.10301808 5
-0.91442144 1.2055795 -0.23965763 19
-0.71241802 0.93959731 0.1447808 8
-0.87772727 1.1580409 -0.17841674 24
-0.707412 0.93367165 0.1855313 6
-0.84826416 1.1195742 -0.12288959 24
-7.2140017 9.5247917 2.3225272 27
-0.88249671 1.1656008 -0.076619849 27
-7.1938252 9.505043 2.7520511 45
-0.81077516 1.0716481 -0.023456035 40
-7.1375141 9.4374847 3.1705334 31
-0.97727716 1.2954785 -0.434816 8
-0.74166673 0.98351026 0.021501366 56
-0.96190345 1.2760253 -0.36891973 25
-0.74780518 0.99201041 0.065105937 29
-0.94166851 1.2496359 -0.30414957 32
-0.71326959 0.94688427 0.10371533 5
-0.90070176 1.1961397 -0.23715468 20
-0.70555258 0.93732023 0.14404957 8
-0.88561535 1.1769594 -0.18085413 26
-0.70668757 0.93916911 0.18615703 7
-0.8551302 1.1368583 -0.1244584 20
-7.1771722 9.5452051 2.3213823 66
-0.87362272 1.1622877 -0.076201163 26
-7.1805005 9.5565844 2.7596996 48
-0.80721676 1.074331 -0.023456035 40
-7.1247439 9.485815 3.1788156 29
-0.97853899 1.3066137 -0.43740419 6
-0.74679184 0.9971686 0.021745699 52
-0.99036783 1.322888 -0.38151699 20
-0.73835462 0.98661923 0.064582579 35
-0.95376486 1.274924 -0.3094922 26
-0.70996022 0.94936806 0.10371533 6
-0.89791358 1.2007018 -0.23746756 21
-0.70125169 0.93806511 0.14380583 9
-0.88170719 1.1798899 -0.18085413 24
-0.70813388 0.94796032 0.18740851 6
-0.86069304 1.1526079 -0.1258529 19
-0.8518424 1.1411709 -0.07463108 21
-0.80585319 1.0803478 -0.023525843 38
-7.1054435 9.529213 3.1850274 30
-1.0030235 1.3486042 -0.45034516 5
-0.7444998 1.0013739 0.021780603 46
-1.0868753 1.462412 -0.42065847 6
-0.72418606 0.97476172 0.063640527 31
-0.94367796 1.2702 -0.30758414 23
-0.72106284 0.97091174 0.10580707 9
-0.90313643 1.2165176 -0.23997049 21
-0.69797313 0.94050711 0.14380583 8
-0.87876612 1.1845547 -0.18109787 23
-0.70952696 0.95677328 0.18866 6
-0.87920851 1.1860157 -0.12916481 20
-7.1821833 9.688467 2.3442793 11
-0.84904313 1.1457418 -0.074735753 23
-7.174448 9.6850967 2.7826445 12
-0.80207741 1.083154 -0.023525843 38
-7.0951276 9.5850115 3.19538 29
-1.002663 1.3584884 -0.4524157 6
-0.75287503 1.0200557 0.022129651 48
-1.1569663 1.5681254 -0.44990209 6
-0.71485186 0.96924663 0.063117169 33
-0.93552125 1.2689093 -0.30643925 22
-0.712771 0.96713269 0.10510983 11
-0.89867193 1.2198193 -0.23997049 20
-0.70175064 0.95252669 0.14526826 9
-0.87580329 1.189213 -0.18134159 24
-0.69798476 0.94810885 0.1864699 7
-0.88214833 1.1987059 -0.13021068 33
-7.1512809 9.7210503 2.3458059 7
-0.84010482 1.1424102 -0.074317068 26
-7.1481333 9.7238903 2.7862437 9
-0.79829127 1.0859474 -0.023525843 40
-7.0764995 9.6299553 3.2021093 26
-0.99677271 1.360422 -0.45189807 6
-0.74676782 1.0195819 0.022059841 51
-1.1581187 1.5817893 -0.45260152 4
-0.71854317 0.98140526 0.063745201 37
-0.92528832 1.2642461 -0.30453119 19
-0.70115578 0.95835876 0.10388964 16
-0.90023869 1.2309214 -0.24153483 19
-0.70411241 0.96310508 0.14648695 8
-0.87846631 1.2020316 -0.18280403 21
-0.6935057 0.94894451 0.18615703 4
-0.88618612 1.2130392 -0.13143085 36
-7.1914043 9.8474264 2.3702295 2
-0.83375686 1.1421092 -0.074107721 26
-7.1382723 9.7818384 2.7956917 1
-0.7909596 1.0838811 -0.023421129 41
-7.0530853 9.6686468 3.206768 25
-0.99315459 1.3654552 -0.4524157 6
-0.73279679 1.0074979 0.021745699 48
-1.1471373 1.57774 -0.45035201 5
-0.72215867 0.9936009 0.064373232 45
-0.9266392 1.2754101 -0.30643925 18
-0.70366049 0.96886069 0.1047612 23
-0.89150882 1.2275064 -0.24028336 18
-0.69508362 0.95740265 0.14526826 8
-0.88846654 1.2242173 -0.18572889 18
-0.70294899 0.96894747 0.18959859 3
-0.91469812 1.2612863 -0.13631159 41
-9.5376501 13.15156 3.1578891 2
-0.82762015 1.141634 -0.073898375 26
-7.1286674 9.8370142 2.8046896 1
-0.79303682 1.094733 -0.023595655 51
-7.0385523 9.7198095 3.2155681 30
-0.99314594 1.3750052 -0.45448625 7
-0.72810465 1.0084288 0.021710794 38
-1.1359202 1.5738342 -0.4481025 6
-0.71885955 0.99599046 0.064373232 54
-0.92240554 1.2784752 -0.30643925 19
-0.70160908 0.97280502 0.10493552 29
-0.89068401 1.2354183 -0.24122196 19
-0.69057661 0.95821291 0.14502454 8
-0.88418806 1.227311 -0.18572889 18
-0.70204109 0.97447908 0.19022433 3
-0.91516733 1.2707798 -0.13700882 36
-7.1448545 9.9248285 2.3770986 1
-0.81896383 1.1380312 -0.07347969 25
-7.0430741 9.7906513 2.7844441 6
-0.78706682 1.0941099 -0.023525843 50
-7.023201 9.7666216 3.2233324 31
-0.99284256 1.3847439 -0.4565568 6
-0.73873913 1.0303391 0.022129651 33
-1.1329657 1.5807599 -0.4490023 6
-0.70723623 0.98712862 0.063640527 58
-0.92250943 1.2880721 -0.30796573 19
-0.7005288 0.97848791 0.10528414 32
-0.89578187 1.2512144 -0.24372493 20
-0.69086128 0.96534044 0.14575575 8
-0.88473362 1.2366941 -0.18670385 19
-0.69978452 0.97853029 0.1905372 4
-0.91072625 1.2739664 -0.13700882 20
-9.4730263 13.251312 3.1662846 2
-0.81170201 1.1358657 -0.073165677 27
-7.0151014 9.8202963 2.7862437 8
-0.7867288 1.101733 -0.023630559 58
-7.013761 9.8256674 3.2347205 28
-0.98264313 1.3801597 -0.45396861 6
-0.74325454 1.0443162 0.022373985 31
-1.1297007 1.5878805 -0.44990209 6
-0.71073115 0.99935716 0.064268559 64
-0.91368127 1.2847247 -0.30643925 22
-0.69843441 0.98242974 0.10545845 30
-0.90170723 1.2688255 -0.24654076 22
-0.69438505 0.97745609 0.14721818 8
-0.89880079 1.2656713 -0.19060367 27
-0.69750768 0.98257786 0.19085006 4
-0.88689011 1.2493606 -0.13404553 16
-9.4267092 13.284301 3.1662846 2
-0.80888742 1.1403214 -0.073270351 26
-6.9943037 9.863801 2.7916427 9
-0.7782529 1.0979466 -0.023490939 58
-6.991703 9.8674316 3.2404146 28
-0.97001445 1.3725384 -0.45034516 6
-0.7338357 1.038738 0.022199461 25
-1.1275231 1.59659 -0.4512518 5
-0.70839047 1.0034635 0.064373232 61
-0.90805918 1.2863022 -0.30605766 24
-0.69155478 0.97997797 0.10493552 29
-0.89613426 1.2703509 -0.24622789 26
-0.6921131 0.98149616 0.14746192 7
-0.90009618 1.2769133 -0.19182236 42
-0.6895225 0.97854751 0.18959859 3
-0.86760473 1.2312759 -0.13177948 15
-9.3915892 13.333173 3.1701007 1
-0.80950171 1.14967 -0.073689036 24
-6.9867511 9.9263992 2.8024402 4
-0.77671725 1.1039273 -0.023560748 64
-6.9649987 9.9028368 3.2440381 27
-0.96743661 1.3790789 -0.45138043 6
-0.72561312 1.0347439 0.022059841 21
-1.1219426 1.6005164 -0.4512518 5
-0.70373702 1.0042946 0.064268559 59
-0.9069432 1.2942878 -0.30720252 25
-0.68698692 0.9807539 0.1047612 30
-0.8905611 1.2718534 -0.245915 29
-0.69665068 0.99529028 0.14916809 7
-0.89904779 1.2849267 -0.19255358 38
-0.69063097 0.98742342 0.19085006 3
-0.85416573 1.2212358 -0.13038498 15
-9.335988 13.353005 3.167048 2
-0.78260076 1.1197473 -0.071595594 17
-6.9732623 9.981081 2.8109884 2
-0.77972865 1.1164688 -0.023770178 76
-6.9480805 9.9524355 3.2523203 24
-0.96482426 1.3856182 -0.4524157 6
-0.75626856 1.0865084 0.023106987 23
-1.1052192 1.5884265 -0.44675279 6
-0.70478904 1.0133035 0.064687252 52
-0.91026717 1.3087276 -0.30987382 28
-0.69152057 0.99459714 0.10598138 27
-0.88949847 1.2798203 -0.24685362 34
-0.68411142 0.98467386 0.14721818 6
-0.90361553 1.3011009 -0.19450349 46
-0.70069861 1.0093002 0.1946045 2
-0.78626919 1.1325576 -0.12062354 19
-7.0349913 10.137117 2.3984692 2
-0.74681109 1.0765234 -0.068664782 33
-6.9583702 10.034185 2.8190866 2
-0.78038394 1.1257573 -0.023909798 88
-6.9331045 10.005207 3.2616377 23
-0.95998192 1.3889775 -0.4524157 6
-0.7763409 1.1236916 0.023839988 35
-1.1018829 1.5954815 -0.44765261 6
-0.70011318 1.0141138 0.064582579 47
-0.90323389 1.3088238 -0.30911061 29
-0.70162416 1.0166829 0.10807312 23
-0.89175612 1.2926733 -0.24873082 37
-0.67954338 0.98542148 0.14697444 5
-0.88892812 1.2895379 -0.19230984 54
-0.69941312 1.014993 0.19523023 3
-0.75837839 1.1009749 -0.116963 33
-9.2335157 13.409768 3.1647582 1
-0.73833096 1.0726724 -0.068246089 43
-7.7718673 11.291233 3.1646116 1
-0.77644926 1.1284748 -0.023909798 88
-6.9156518 10.054817 3.2699201 27
-0.9570694 1.3956735 -0.45345098 7
-0.76995611 1.1232306 0.023770178 57
-1.1015351 1.6075474 -0.44990209 5
-0.69639134 1.0166732 0.064582579 35
-0.89510345 1.3072655 -0.30796573 32
-0.69676769 1.0176035 0.10789881 16
-0.89035916 1.3008236 -0.24966943 36
-0.68601525 1.0026505 0.14916809 4
-0.88195479 1.2895101 -0.19182236 50
-0.69345832 1.0142884 0.1946045 2
-0.74534422 1.0905881 -0.11556852 25
-7.0136528 10.266226 2.4167869 2
-0.73326784 1.0737221 -0.068141423 41
-6.9765081 10.215682 2.8559787 2
-0.76554346 1.1214033 -0.023700368 92
-6.9005337 10.11201 3.2802727 28
-0.94760108 1.3927828 -0.45138043 7
-0.76470977 1.1243913 0.023735272 80
-1.1022099 1.6212431 -0.45260152 4
-0.70388681 1.0357375 0.065629296 26
-0.890535 1.3103818 -0.30796573 36
-0.69527274 1.0234464 0.10824744 10
-0.88558567 1.304078 -0.24966943 34
-0.69125485 1.0182977 0.151118 3
-0.87276417 1.2861633 -0.19084741 32
-6.9017982 10.17477 1.9472965 2
-0.73034853 1.0766945 -0.1138254 28
-6.9469209 10.245149 2.4061015 1
-0.73287749 1.0812348 -0.068455435 50
-6.9477663 10.254088 2.8595779 1
-0.75694227 1.1175792 -0.023560748 50
-6.8764238 10.156428 3.2864845 28
-0.94273329 1.3960824 -0.45138043 6
-0.75406718 1.1171094 0.023525843 67
-1.0921837 1.6186196 -0.45080194 4
-0.74605793 1.1060764 0.069920845 29
-0.88705301 1.3151103 -0.30834734 38
-0.70617563 1.0473428 0.11051348 11
-0.86888337 1.2891431 -0.24622789 30
-0.69102395 1.0256431 0.15184921 3
-0.78842819 1.1706549 -0.17329822 10
-6.8529987 10.179138 1.943542 9
-0.72992349 1.0841957 -0.11434833 29
-6.9352331 10.305167 2.4144971 7
-0.72240949 1.0738436 -0.067827404 47
-6.9369388 10.315474 2.8699255 9
-0.74745876 1.1119165 -0.023386225 33
-6.8560114 10.20282 3.2937315 27
-0.94215661 1.4057835 -0.45345098 7
-0.75350243 1.1247187 0.023630559 72
-1.0756836 1.6062299 -0.44630289 6
-0.75349969 1.1251391 0.070967562 73
-0.88573372 1.3230927 -0.3094922 35
-0.72467703 1.082918 0.11399971 23
-0.84680521 1.2658978 -0.24122196 8
-0.68964666 1.0313492 0.15233669 2
-0.7547493 1.1287085 -0.16671728 14
-6.8455529 10.24122 1.9510508 23
-0.72724164 1.0883934 -0.11452264 26
-0.71200258 1.0663923 -0.067199372 50
-0.73599696 1.1027461 -0.023141891 24
-6.8403687 10.252817 3.302531 28
-0.93534887 1.4056836 -0.4524157 6
-0.75419819 1.1338714 0.023770178 90
-1.0681937 1.6065425 -0.4454031 6
-0.74976468 1.1276314 0.070967562 92
-0.87590736 1.3178477 -0.30758414 30
-0.72438937 1.0902939 0.11452264 46
-0.82730281 1.2456614 -0.23684181 9
-0.68732047 1.0352845 0.15258044 3
-0.74002236 1.1146673 -0.16427989 18
-6.8268447 10.286909 1.9554311 28
-0.71371585 1.0758564 -0.11295383 26
-6.8573322 10.340681 2.4118259 8
-0.70404798 1.0620888 -0.066780686 54
-0.72239459 1.0901785 -0.022827748 23
-6.8276649 10.307657 3.3128839 23
-0.93600702 1.4168369 -0.45500392 7
-0.75153613 1.1380346 0.023805084 75
-1.065007 1.6133288 -0.44630289 6
-0.74692363 1.1319089 0.071072236 100
-0.86504471 1.310913 -0.30529439 18
-0.71418768 1.0827111 0.11347678 56
-0.81555539 1.2368543 -0.23465173 9
-0.69480842 1.0541322 0.15501782 3
-0.72957414 1.1072978 -0.16281746 21
-6.7985024 10.322224 1.9576212 27
-0.70776457 1.0750133 -0.11260521 30
-8.9573536 13.605194 3.1662846 2
-0.7005223 1.0644176 -0.066780686 56
-6.8953547 10.481217 2.8964698 2
-0.71309119 1.0843395 -0.022653224 25
-6.8096852 10.35887 3.3216836 25
-0.92127752 1.4057159 -0.45034516 6
-0.7376942 1.1255983 0.023490939 70
-1.0572336 1.6137763 -0.4454031 6
-0.74625033 1.1395222 0.071386255 100
-0.85593337 1.3075043 -0.30376795 15
-0.70148712 1.0719839 0.11208228 41
-0.77533144 1.1852825 -0.22432704 8
-6.8004022 10.396067 1.5253168 3
-0.72896379 1.1148218 -0.16354866 23
-6.7862043 10.382271 1.9645042 32
-0.69528913 1.0641341 -0.11121072 33
-8.9074306 13.637931 3.1662846 3
-0.70425928 1.0786849 -0.067513391 59
-6.8867121 10.552115 2.9090669 1
-0.7016511 1.0750998 -0.02240889 29
-6.7819319 10.395518 3.3258247 25
-0.91636473 1.4089234 -0.45034516 6
-0.73138344 1.1249417 0.023421129 83
-0.86972106 1.33823 -0.36846983 3
-0.74662179 1.1488185 0.071804941 100
-0.84601593 1.3022525 -0.30185983 16
-0.70750684 1.0894649 0.11365108 41
-0.75075364 1.1565009 -0.21838254 12
-6.7752228 10.440903 1.5282418 12
-0.72163177 1.1124901 -0.16281746 27
-6.7638988 10.427438 1.9685715 31
-0.68615079 1.0581958 -0.11033916 35
-8.8619041 13.672238 3.167048 2
-0.70157593 1.0828127 -0.067618065 55
-6.8625507 10.595716 2.9144659 2
-0.70659071 1.0909697 -0.022688128 28
-6.7623987 10.445077 3.3341072 25
-0.91458422 1.4169827 -0.45189807 7
-0.72548038 1.1240005 0.023351319 83
-0.79977548 1.2395821 -0.3405759 14
-0.74585491 1.1564529 0.072118953 100
-0.83933783 1.3018975 -0.30109662 16
-0.74147522 1.1505436 0.11975199 41
-0.74263436 1.1523422 -0.21713105 15
-6.7480893 10.474994 1.5299479 20
-0.71578878 1.1115391 -0.16232997 27
-6.7520542 10.489187 1.9757676 26
-0.68460929 1.0639354 -0.11068779 38
-8.8292685 13.72136 3.1716275 2
-0.68933719 1.0716951 -0.066780686 62
-6.837914 10.634809 2.9189649 11
-0.71034676 1.1052047 -0.022932461 30
-6.7446909 10.497876 3.3434246 27
-0.91196448 1.4232613 -0.45293337 7
-0.72694498 1.1349458 0.023525843 81
-0.79334176 1.2390841 -0.33967611 32
-0.73232305 1.1437818 0.071176901 100
-0.82866567 1.2947525 -0.29880691 16
-0.7398029 1.1563528 0.12010061 47
-0.74179989 1.1599202 -0.21806967 19
-6.727519 10.523574 1.5336039 26
-0.70442224 1.1023219 -0.1606238 25
-6.728931 10.529832 1.9792091 28
-0.68536741 1.0729163 -0.11138504 47
-6.8604345 10.743879 2.4778459 2
-0.68451774 1.0724112 -0.066676013 54
-6.8112335 10.675039 2.9234638 33
-0.70237529 1.1008115 -0.022792844 30
-6.7378922 10.56416 3.3574009 25
-0.90802765 1.4280659 -0.45345098 7
-0.72317755 1.13735 0.023525843 78
-0.78818333 1.2400632 -0.33922619 42
-0.7229709 1.137902 0.070653543 99
-0.81677353 1.286036 -0.29613557 14
-0.73576218 1.158928 0.12010061 56
-0.74006712 1.1657089 -0.21869542 20
-6.7117329 10.575994 1.5379913 23
-0.70395279 1.1096808 -0.16135503 27
-6.708004 10.578277 1.9839021 30
-0.6784181 1.0702535 -0.11086211 51
-8.7272558 13.767876 3.1685743 2
-0.68202645 1.0763624 -0.066780686 62
-6.7935262 10.725554 2.9311123 55
-0.69104052 1.0914296 -0.02254851 28
-6.7123365 10.605572 3.3630948 25
-0.89145064 1.4134105 -0.44775698 7
-0.71773887 1.1384267 0.023490939 87
-0.78029865 1.2381349 -0.3378765 40
-0.7185961 1.1406698 0.070653543 100
-0.76182401 1.209288 -0.2778179 9
-0.72620124 1.153187 0.11922905 54
-0.73348069 1.1651987 -0.21806967 19
-6.6953878 10.640331 1.5435972 21
-0.70074397 1.1140558 -0.16159877 25
-6.6831069 10.629043 1.9885952 26
-0.66918808 1.0642997 -0.10999054 53
-6.815763 10.844224 2.4896758 3
-0.67788875 1.0789732 -0.066780686 61
-6.7699089 10.779617 2.9387608 75
-0.68578124 1.0923816 -0.022513606 25
-6.6859436 10.654175 3.3703418 23
-0.88036251 1.406688 -0.44465113 6
-0.70951813 1.1341442 0.023351319 87
-0.77183932 1.2342418 -0.33607689 38
-0.72096241 1.1533327 0.071281582 100
-0.73366326 1.1736505 -0.2690407 18
-0.7242828 1.1590945 0.11957768 54
-0.71894425 1.1509978 -0.21494098 19
-6.6697726 10.682158 1.5462784 22
-0.69580007 1.1148109 -0.16135503 27
-6.6668787 10.685824 1.9948525 28
-0.66441453 1.0649387 -0.10981624 52
-8.634409 13.844807 3.1716275 2
-0.6762318 1.0847225 -0.066990033 61
-6.7559471 10.84122 2.9491084 70
-0.68513548 1.0998608 -0.022618318 28
-6.6650543 10.703687 3.378624 26
-0.80614519 1.2981538 -0.40945172 2
-0.70344532 1.1332161 0.023281511 93
-0.76136166 1.2269932 -0.33337748 39
-0.71924019 1.1591111 0.071490921 100
-0.73370165 1.1828777 -0.27056718 26
-0.72128206 1.1633091 0.11975199 43
-0.71492237 1.1535002 -0.21494098 16
-6.6491685 10.732376 1.5501782 23
-0.69399434 1.1206082 -0.1618425 26
-6.652204 10.741463 2.0011098 24
-0.66383892 1.0723336 -0.11033916 53
-6.7801814 10.956652 2.504559 3
-0.66403544 1.0734881 -0.066152655 60
-6.7354836 10.892916 2.9567568 66
-0.68569142 1.1089299 -0.022757938 28
-6.6559277 10.768456 3.3920827 22
-0.76107222 1.2351719 -0.38874623 2
-0.70492882 1.1440548 0.023456035 97
-0.75524431 1.2261928 -0.33247766 36
-0.70995378 1.1531111 0.070967562 100
-0.72236478 1.1737278 -0.26789585 31
-0.72243702 1.1743044 0.12062354 39
-0.70591754 1.1474524 -0.21337664 22
-6.6312222 10.783113 1.5543218 21
-0.68611646 1.1161388 -0.16086754 26
-6.633287 10.794912 2.0067415 24
-0.66322035 1.0797372 -0.11086211 52
-6.7253165 10.948961 2.4976897 2
-0.66256231 1.0790881 -0.066361994 61
-6.7115579 10.93512 2.9621553 75
-0.68181658 1.1113166 -0.022757938 29
-6.6364799 10.821266 3.4013999 25
-0.7035507 1.1503419 -0.36131141 5
-0.70197421 1.1482145 0.023490939 67
-0.75604063 1.2371355 -0.33472717 37
-0.70592409 1.1555825 0.070967562 100
-0.71744478 1.1744417 -0.26751423 31
-0.71646196 1.1732931 0.12027492 38
-0.70396656 1.1532815 -0.21400237 30
-6.6162863 10.843475 1.5596839 21
-0.67808127 1.1117483 -0.15989259 26
-6.6079068 10.838238 2.0104959 24
-0.6565249 1.076827 -0.11033916 53
-6.7320085 11.046137 2.5144811 3
-0.66190857 1.0865115 -0.066676013 54
-6.6915932 10.98844 2.9702537 75
-0.67273402 1.1051493 -0.022583414 30
-6.6167388 10.874073 3.4107175 24
-0.63037938 1.0388331 -0.32559437 10
-0.69277626 1.1421093 0.023316415 81
-0.75373811 1.2431 -0.33562699 36
-0.7018863 1.1580395 0.070967562 100
-0.70825303 1.1685439 -0.26560614 31
-0.70926505 1.1706746 0.11975199 49
-0.69993627 1.155732 -0.21400237 30
-6.5989575 10.900466 1.5645587 20
-0.67830759 1.1209017 -0.16086754 26
-6.5904794 10.895043 2.0167532 28
-0.6517306 1.0774076 -0.11016486 52
-8.4609842 13.99278 3.1784964 1
-0.65914524 1.0905246 -0.066780686 56
-6.674356 11.046759 2.9797015 59
-0.67921048 1.124608 -0.022932461 36
-6.5927215 10.920256 3.4179645 23
-0.60482824 1.004616 -0.31420633 17
-0.68981671 1.1462338 0.023351319 83
-0.74838942 1.244054 -0.33517709 38
-0.70710331 1.175887 0.071909614 94
-0.71024048 1.1811039 -0.26789585 33
-0.71030676 1.1816812 0.12062354 54
-0.68572348 1.1412361 -0.21087368 30
-6.5751796 10.947257 1.5679711 20
-0.67541289 1.1249644 -0.16111128 28
-6.5727353 10.951859 2.0230107 29
-0.64796543 1.0796763 -0.11016486 52
-6.6557431 11.094545 2.5148625 8
-0.65944356 1.0996701 -0.067199372 50
-6.6417627 11.08002 2.9824011 49
-0.69275403 1.1561326 -0.023525843 56
-6.5744128 10.97635 3.4283171 22
-0.60131758 1.0067213 -0.31420633 29
-0.68273622 1.1434836 0.023246605 81
-0.7340554 1.2299248 -0.33067805 45
-0.68969142 1.1560504 0.070548877 66
-0.70611298 1.1835761 -0.26789585 34
-0.71025985 1.1909981 0.12132079 49
-0.68173593 1.1436226 -0.21087368 30
-6.5501337 10.992312 1.5711397 22
-0.67148155 1.1273153 -0.16111128 29
-6.5587225 11.01547 2.0305195 29
-0.64623147 1.0853552 -0.11051348 52
-0.64947355 1.0916668 -0.06657134 48
-6.6189861 11.129934 2.9895995 57
-0.69484484 1.1688573 -0.023735272 81
-6.5518508 11.025804 3.4365995 24
-0.60173941 1.0154618 -0.31627688 32
-0.67975944 1.1475807 0.023281511 100
-0.72380066 1.2224184 -0.32797864 39
-0.68381906 1.154894 0.070339531 100
-0.69997758 1.1826545 -0.26713261 34
-0.70914137 1.1986145 0.12184373 47
-0.67975116 1.1493958 -0.21149944 32
-6.5278888 11.04245 1.5750395 22
-0.65845358 1.114271 -0.15891764 33
-6.5352254 11.059265 2.0345869 27
-0.64649248 1.0944661 -0.11121072 49
-6.5891066 11.159338 2.5190604 55
-0.64971995 1.1008071 -0.066990033 50
-6.5890098 11.168075 2.9936485 46
-0.68791687 1.1659881 -0.023630559 81
-6.5388012 11.087407 3.4490225 23
-0.58938003 1.0025675 -0.31161815 34
-0.68000406 1.1567239 0.023421129 100
-0.72073001 1.2264922 -0.32842854 41
-0.67674851 1.1521077 0.070025519 100
-0.68988031 1.1749328 -0.2648429 30
-0.70293576 1.1976463 0.12149511 47
-0.68593454 1.16868 -0.21462812 30
-6.5183544 11.110268 1.5816205 24
-0.65877146 1.123298 -0.15989259 33
-6.5085664 11.102462 2.0383413 26
-0.64669704 1.1035922 -0.11190797 48
-6.5470982 11.17266 2.5171523 26
-0.64808458 1.1064025 -0.067199372 51
-6.5283027 11.149505 2.9828508 23
-0.67778164 1.1580275 -0.023421129 81
-6.5195718 11.143512 3.4593754 24
-0.58410478 1.0011793 -0.31058288 39
-0.67596185 1.1590906 0.023421129 100
-0.72233325 1.2391019 -0.33112797 41
-0.67895973 1.1646982 0.070653543 100
-0.68696904 1.1789104 -0.26522452 26
-0.69494927 1.193084 0.12079786 39
-0.67986321 1.1676528 -0.21400237 27
-6.5025005 11.172411 1.5872264 22
-0.65584493 1.1273065 -0.16013633 34
-6.4876099 11.151301 2.0433471 27
-0.63902771 1.0988412 -0.11121072 51
-6.4922748 11.168286 2.5110466 24
-0.65023959 1.1190193 -0.067827404 48
-6.5030503 11.195816 2.9891498 26
-0.67393792 1.1602685 -0.023421129 81
-6.4922857 11.181776 3.4645519 24
-0.58157432 1.0048839 -0.31110048 41
-0.66410142 1.1474799 0.023141891 92
-0.71138901 1.2296829 -0.32797864 32
-0.68088931 1.1774349 0.071281582 100
-0.68677944 1.1881002 -0.26675099 22
-0.6877898 1.1903274 0.12027492 34
-0.67203397 1.1630596 -0.2127509 29
-6.475347 11.211102 1.5896639 19
-0.66004306 1.1432284 -0.16208623 38
-6.4723392 11.214943 2.0508561 26
-0.63817513 1.1062424 -0.11173366 68
-6.4709024 11.216962 2.5171523 24
-0.65051579 1.1280903 -0.068246089 50
-6.4882684 11.256153 2.9994974 30
-0.66688901 1.157416 -0.023316415 72
-6.4763522 11.24455 3.4769752 21
-0.58112496 1.0118328 -0.31265342 43
-0.65511358 1.1411201 0.022967368 90
-0.6401661 1.1155344 -0.29693538 8
-0.67180586 1.1711425 0.070758224 100
-0.6867435 1.1971828 -0.26827747 24
-0.69077641 1.2047004 0.12149511 30
-0.66502339 1.1602567 -0.2118123 26
-6.4529467 11.262919 1.5938075 21
-0.65308911 1.1403577 -0.16135503 44
-6.4537644 11.273467 2.0574262 25
-0.63628858 1.111922 -0.11208228 75
-6.4492569 11.270155 2.5240216 25
-0.64756608 1.1320878 -0.06835077 59
-6.4653835 11.30749 3.0071459 28
-0.66681361 1.1666815 -0.023456035 95
-6.4581466 11.303988 3.4883633 23
-0.58028066 1.0189921 -0.31420633 42
-0.6580534 1.1555636 0.023211701 80
-0.59770674 1.0500189 -0.27893931 17
-0.66376245 1.1665368 0.070339531 100
-0.68138063 1.1979851 -0.26789585 29
-0.69029558 1.2141521 0.12219235 27
-0.66467017 1.1695563 -0.21306378 26
-6.4312444 11.316442 1.5981947 21
-0.64812422 1.1409042 -0.16111128 43
-6.4358354 11.333715 2.0643096 24
-0.64125472 1.1297308 -0.11365108 64
-6.4311614 11.334698 2.5331805 27
-0.64636856 1.1396652 -0.068664782 61
-6.4373484 11.354846 3.0134444 28
-0.65780574 1.1603042 -0.023281511 88
-6.4396057 11.363437 3.4997511 22
-0.57481968 1.0176475 -0.31317106 42
-0.65971243 1.1684157 0.023421129 67
-0.59002268 1.0454143 -0.27713972 26
-0.65575993 1.1618891 0.069920845 100
-0.6810531 1.2071961 -0.26942232 29
-0.69094622 1.2252318 0.12306391 22
-0.66931403 1.1873564 -0.21587959 28
-6.416038 11.386632 1.6047755 22
-0.64491218 1.1450019 -0.16135503 38
-6.408833 11.378489 2.0683768 23
-0.64414984 1.1441153 -0.11487127 57
-6.4146624 11.39814 2.5423391 24
-0.65119934 1.1575813 -0.069606826 68
-6.4148688 11.407822 3.0215428 28
-0.64493048 1.146906 -0.022967368 77
-6.4169364 11.416161 3.5090687 23
-0.56748718 1.0129061 -0.31110048 41
-0.64997 1.1601294 0.023211701 83
-0.5875051 1.0490654 -0.27758962 33
-0.65657842 1.1728847 0.070444204 99
-0.68546349 1.2249854 -0.27285689 27
-0.68666548 1.227636 0.12306391 13
-0.66537321 1.1895692 -0.21587959 27
-6.3976202 11.442497 1.6096504 20
-0.6430487 1.1505995 -0.1618425 32
-6.3873825 11.433554 2.0743213 21
-0.63043851 1.1289613 -0.11312816 47
-6.3921466 11.446774 2.5484452 24
-0.64540982 1.1562467 -0.069397487 71
-6.4016933 11.473274 3.0332398 27
-0.6380012 1.1439108 -0.022862652 81
-6.3902144 11.462116 3.5163157 23
-0.56694078 1.019848 -0.31265342 39
-0.64397413 1.1588953 0.023141891 90
-0.57910806 1.042592 -0.27534011 34
-0.65538853 1.1804081 0.070758224 100
-0.69092721 1.2444161 -0.27667305 19
-6.3695536 11.476804 1.1483641 9
-0.656425 1.1832479 -0.21431525 23
-6.3701515 11.487329 1.612819 19
-0.64576489 1.1649908 -0.16354866 26
-6.3704076 11.497251 2.08183 25
-0.61896592 1.1171038 -0.11173366 56
-6.3692698 11.499932 2.5553141 26
-0.64137012 1.1584923 -0.069397487 87
-6.3814178 11.53136 3.0426881 31
-0.63981164 1.1566299 -0.023072081 92
-6.3744726 11.528306 3.5297742 22
-0.56617588 1.026896 -0.31420633 38
-0.63799417 1.1576334 0.023072081 90
-0.57358479 1.0411931 -0.27444029 36
-0.64837414 1.1774399 0.070444204 100
-0.67805642 1.2313426 -0.27323848 9
-6.3611608 11.556567 1.1541163 20
-0.65705222 1.1941854 -0.21587959 15
-6.3481932 11.542542 1.61745 16
-0.62734979 1.1411445 -0.15989259 32
-6.3540215 11.562696 2.0896518 29
-0.61602247 1.1210035 -0.11190797 71
-6.3470502 11.554788 2.5625648 22
-0.6315549 1.1502197 -0.068769448 84
-6.358006 11.584313 3.050786 30
-0.63961738 1.1658692 -0.023211701 92
-6.3564887 11.591139 3.5421977 21
-0.56351447 1.0305612 -0.31472397 36
-0.63778538 1.1668724 0.023211701 87
-0.56714404 1.0380585 -0.2730906 38
-0.63851613 1.1691788 0.069816172 100
-0.59565097 1.0906891 -0.2415642 9
-6.3389173 11.61193 1.1574283 23
-0.66044956 1.2103437 -0.21838254 11
-6.3278222 11.601232 1.6225686 19
-0.61481005 1.1276417 -0.15769894 38
-6.33253 11.619494 2.0959091 29
-0.61878008 1.1353931 -0.11312816 78
-6.3282762 11.616528 2.5713422 26
-0.62562543 1.1489092 -0.068560109 81
-6.3287125 11.626975 3.056185 54
-0.63649976 1.1698511 -0.023246605 100
-6.2975268 11.579316 3.5318449 28
-0.56083483 1.0342201 -0.31524161 33
-0.63561451 1.1726075 0.023281511 87
-0.56723022 1.0468855 -0.27489018 39
-0.6325289 1.1678879 0.069606826 100
-0.57875067 1.068593 -0.23622155 18
-6.2992969 11.635736 1.1576025 23
-0.628016 1.1605226 -0.20899647 19
-6.2665119 11.584834 1.6172063 26
-0.60992616 1.1280345 -0.15745521 44
-6.252481 11.568542 2.0827687 47
-0.61102337 1.1305352 -0.11243091 78
-6.2494311 11.567725 2.555696 55
-0.62350947 1.1546007 -0.068769448 79
-6.2353225 11.55125 3.0305407 58
-0.62576562 1.1597468 -0.023002272 100
-6.2313938 11.553618 3.5173512 48
-0.55447656 1.031067 -0.3136887 30
-0.63151777 1.174819 0.023281511 87
-0.56910646 1.0591592 -0.27758962 38
-0.6371603 1.1858135 0.070548877 81
-0.57223052 1.065418 -0.23507671 25
-6.2115226 11.569882 1.1488869 64
-0.61275202 1.1418208 -0.20524204 38
-6.2082086 11.5734 1.6125753 60
-0.60430568 1.1265523 -0.15696773 56
-6.2038178 11.570062 2.0793271 85
-0.60142589 1.122125 -0.11138504 75
-6.1978912 11.568703 2.5511165 57
-0.62513238 1.1673344 -0.069397487 68
-6.1978998 11.573584 3.0309906 57
-0.62285978 1.1635786 -0.023037177 100
-6.1930432 11.574221 3.5173512 32
-0.55014479 1.0311959 -0.31317106 25
-0.62009043 1.162791 0.023002272 87
-0.56467462 1.0593208 -0.27713972 37
-0.63604331 1.1932073 0.070862897 82
-0.56961721 1.0690424 -0.23545831 32
-6.1749916 11.593936 1.1492356 67
-0.5978229 1.1229225 -0.20148762 32
-6.1744552 11.602687 1.613794 41
-0.60056627 1.1285503 -0.15696773 60
-6.1848941 11.627196 2.0858974 37
-0.59770167 1.1241132 -0.11138504 75
-6.2212234 11.705344 2.5766847 30
-0.61844701 1.1641095 -0.069083467 64
-6.2701159 11.802306 3.0854287 28
-0.62274945 1.1727021 -0.023176797 100
-6.2633209 11.799456 3.5794675 48
-0.55485547 1.0483814 -0.31782979 18
-0.61997169 1.1719112 0.023141891 87
-0.55478209 1.0491284 -0.27399039 36
-0.63581783 1.2023722 0.071281582 86
-0.56698668 1.072661 -0.23583993 39
-6.24262 11.815172 1.1691071 22
-0.59317356 1.1231518 -0.20117474 30
-6.2499371 11.839023 1.6437739 19
-0.59774756 1.132291 -0.15721147 62
-6.2514019 11.846806 2.1215644 25
-0.59397095 1.126089 -0.11138504 78
-6.2428069 11.840529 2.6018715 25
-0.61085874 1.1590862 -0.068664782 63
-6.258203 11.874753 3.0989258 28
-0.61978894 1.1765301 -0.023211701 100
-6.2133536 11.799649 3.573256 50
-0.55945814 1.0656097 -0.32248855 12
-0.61979872 1.1810436 0.023281511 83
-0.55129969 1.0509624 -0.27399039 35
-0.6290434 1.1991681 0.070967562 78
-0.56433785 1.0762742 -0.23622155 41
-6.2394738 11.904634 1.1759052 24
-0.58119506 1.1093647 -0.19835892 33
-6.2253742 11.887822 1.6476736 20
-0.59214729 1.1307499 -0.15672398 62
-6.226737 11.895474 2.1265705 24
-0.59854615 1.1439406 -0.11295383 69
-6.2253418 11.90292 2.6110306 24
-0.60608613 1.1593357 -0.068560109 71
-6.2278152 11.912711 3.1034248 28
-0.61588424 1.1785789 -0.023211701 92
-6.1509376 11.775667 3.5597973 49
-0.57764786 1.1105971 -0.33542949 5
-0.61710435 1.186963 0.023351319 87
-0.55355084 1.0651758 -0.27713972 33
-0.62422484 1.2016835 0.070967562 55
-0.55477136 1.0679798 -0.23393184 42
-6.2038198 11.947952 1.1778227 22
-0.57784146 1.1133415 -0.1986718 34
-6.2034473 11.957454 1.6540109 20
-0.58394831 1.1260688 -0.15574904 62
-6.1962099 11.953694 2.132515 22
-0.59048212 1.1391549 -0.1122566 71
-6.2003622 11.96683 2.6198077 23
-0.60897857 1.1758424 -0.069397487 73
-6.2023454 11.98088 3.1146722 30
-0.60379571 1.1668336 -0.022932461 88
-6.0840945 11.762512 3.5484095 49
-0.75971049 1.473174 -0.44413349 6
-0.61478949 1.1926649 0.023421129 83
-0.55250722 1.0722983 -0.27848941 33
-0.62185502 1.2074064 0.071176901 52
-0.55103976 1.0699099 -0.23393184 42
-6.1848717 12.013824 1.1821805 23
-0.57124025 1.1100821 -0.19773319 36
-6.1870961 12.02846 1.6608355 20
-0.58273679 1.1333966 -0.15648025 70
-6.1725082 12.010388 2.1387722 23
-0.58650237 1.1412089 -0.1122566 69
-6.1818795 12.033803 2.6297297 21
-0.61034399 1.1886214 -0.070025519 81
-6.1836195 12.047534 3.1263697 30
-0.59698087 1.1635966 -0.022827748 84
-6.0130229 11.725234 3.5308094 50
-0.75896108 1.4844171 -0.44672167 6
-0.60789275 1.1894616 0.023316415 78
-0.55053365 1.0776914 -0.27938923 31
-0.62762809 1.2291362 0.072328299 27
-0.55265886 1.0823176 -0.23622155 41
-6.1528635 12.054858 1.1840979 24
-0.56556612 1.1085503 -0.19710746 34
-6.1613073 12.081814 1.6652229 16
-0.58418626 1.1460351 -0.15794268 72
-6.1529632 12.075865 2.146594 25
-0.58070582 1.1396989 -0.11190797 69
-6.1523128 12.0798 2.6350722 23
-0.60619146 1.1907445 -0.070025519 87
-6.1653934 12.115938 3.1385171 28
-0.60016865 1.1799322 -0.023106987 84
