# .PCD v0.7 - Point Cloud Data file format
VERSION 0.7
FIELDS x y z intensity
SIZE 4 4 4 4
TYPE F F F F
COUNT 1 1 1 1
WIDTH 1366
HEIGHT 1
VIEWPOINT 0 0 0 1 0 0 0
POINTS 1366
DATA ascii
-4.8737483 15.590293 3.7710793 17
-3.718091 11.900813 -0.2176315 39
-4.8721857 15.604391 4.3802538 13
-0.4955197 1.5938699 -0.44723931 6
-4.8510337 15.613262 0.28538176 19
-0.56921422 1.8331696 -0.44315359 6
-4.8461914 15.616913 0.85694903 24
-0.65750092 2.1188049 -0.43122834 86
-4.8422794 15.613933 1.4302256 15
-0.80058223 2.5830712 -0.42831761 4
-4.8426085 15.63428 2.0096257 14
-1.0143495 3.2768335 -0.42118049 3
-4.9156423 15.889689 2.6343565 4
-1.3996572 4.5243568 -0.41433838 8
-4.839808 15.654234 3.184984 15
-2.1951053 7.1044054 -0.38969359 5
-4.8446007 15.689138 3.7908752 22
-3.6735749 11.904166 -0.217457 31
-4.8387475 15.689608 4.3994064 14
-0.48768508 1.5882028 -0.44516876 6
-4.8141069 15.687451 0.2864289 21
-0.56566906 1.8444606 -0.4454031 6
-4.8174038 15.717754 0.86155456 30
-0.64952606 2.1192102 -0.43084675 85
-4.8105073 15.705035 1.4370239 21
-0.78809208 2.5745168 -0.42644039 4
-4.812398 15.730813 2.0198627 15
-1.0023253 3.278456 -0.42093676 3
-4.8809299 15.974762 2.6456199 4
-1.38211 4.5234981 -0.41381544 8
-4.804059 15.732995 3.1975775 14
-2.1691287 7.1082029 -0.38948423 5
-4.8148208 15.787967 3.8106709 18
-3.6232569 11.888224 -0.21693341 27
-4.8059063 15.778474 4.4195938 14
-0.4838205 1.5954416 -0.44672167 6
-4.7807732 15.774969 0.28772035 19
-0.55414289 1.8296385 -0.44135398 6
-4.7833424 15.803291 0.86532277 24
-0.65008765 2.1477711 -0.43618938 94
-4.778151 15.796108 1.4438219 18
-0.78367275 2.5923793 -0.42894334 4
-4.7752581 15.806423 2.0274186 12
-0.99489063 3.2952373 -0.42264292 3
-4.8211393 15.978464 2.64343 27
-1.3691882 4.5378327 -0.41468704 7
-4.7717781 15.824855 3.2128422 12
-2.1385386 7.0966086 -0.38843751 4
-4.7804689 15.873718 3.827317 22
-3.5684791 11.856758 -0.2161306 31
-4.7736096 15.871005 4.4408174 15
-0.48046464 1.6045234 -0.44879225 6
-4.6952972 15.690025 0.28587043 57
-0.54831159 1.8334285 -0.44180387 5
-4.7458749 15.879215 0.86856759 22
-0.63808852 2.1349792 -0.43313646 89
-4.7469354 15.89287 1.4511431 18
-0.77122933 2.5837414 -0.42706612 4
-4.7416129 15.895281 2.0366805 11
-0.97998005 3.2872758 -0.42118049 3
-4.779438 16.042522 2.6512516 8
-1.3561851 4.5521312 -0.41555858 6
-4.7400427 15.920443 3.2288699 11
-2.1114769 7.0963726 -0.38801882 4
-4.7428074 15.950083 3.8417141 20
-3.5253632 11.86339 -0.21602589 27
-4.7407327 15.963499 4.4620409 14
-0.47705129 1.6136012 -0.4508628 5
-4.590076 15.535639 0.2827639 25
-0.54411614 1.8428071 -0.44360349 5
-4.7130232 15.972311 0.87275445 26
-0.62840903 2.1296618 -0.43160996 86
-4.7151017 15.989607 1.4584641 21
-0.76499707 2.5958924 -0.4286305 4
-4.7096491 15.991716 2.0469177 12
-0.96793962 3.2887721 -0.42093676 3
-3.7986801 12.915134 2.1322021 9
-1.3391614 4.5530152 -0.41520998 6
-4.7087979 16.01977 3.245661 11
-2.089509 7.1132808 -0.38854218 5
-4.7079563 16.037596 3.8588104 20
-3.4484637 11.754741 -0.21382689 34
-4.7078109 16.057808 4.4837813 13
-0.46492136 1.5930027 -0.44465113 5
-4.5223765 15.505495 0.28192618 38
-0.53877038 1.8484371 -0.44450328 4
-4.679028 16.06345 0.87683672 24
-0.6209718 2.1318421 -0.43160996 86
-4.6737332 16.055706 1.4629964 16
-0.75372446 2.5909595 -0.42737901 4
-4.6770763 16.088116 2.0571547 13
-0.95479137 3.2864125 -0.42020553 3
-4.7444334 16.341085 2.6950533 4
-1.3199281 4.5461817 -0.4141641 6
-4.6736412 16.107756 3.2601626 13
-2.0629959 7.1147776 -0.38822815 5
-4.676898 16.14003 3.8795059 22
-3.4040759 11.755179 -0.21361746 29
-4.6689105 16.133528 4.5003457 11
-0.45935822 1.5946157 -0.44465113 5
-4.4566112 15.480832 0.2811932 59
-0.53177643 1.8484336 -0.44405338 4
-4.6483164 16.16798 0.88165158 28
-0.61515433 2.139657 -0.43275481 88
-4.6407628 16.152349 1.4703174 17
-0.74086022 2.5802841 -0.42518893 4
-4.6422458 16.178759 2.0666604 14
-0.94769031 3.304991 -0.42215544 4
-4.7123985 16.444897 2.7094455 2
-1.3051494 4.5545912 -0.41451269 6
-4.637928 16.195692 3.2746642 13
-2.0392451 7.1257758 -0.38843751 4
-4.6430316 16.234951 3.8984015 16
-3.3564303 11.743917 -0.2131986 31
-4.6348443 16.227745 4.5220861 11
-0.45431706 1.5980679 -0.44516876 6
-4.416204 15.544385 0.28206578 38
-0.5226593 1.8409055 -0.44180387 4
-4.6120172 16.255199 0.88552445 26
-0.61143231 2.1550124 -0.43542615 93
-4.6077261 16.250875 1.4778128 17
-0.73292518 2.5866556 -0.42581466 4
-4.6052089 16.263626 2.0754352 10
-0.93777025 3.314009 -0.42288667 4
-4.6775379 16.541084 2.7225859 3
-1.2892418 4.5591197 -0.41451269 6
-4.5984473 16.272242 3.2868762 11
-2.0083897 7.1117072 -0.38728613 6
-4.6075082 16.32608 3.916398 20
-3.3045568 11.717071 -0.2125005 32
-4.6022811 16.329359 4.545898 11
-0.45447594 1.6201044 -0.4508628 6
-4.3851304 15.642499 0.28356671 46
-0.51728189 1.8464715 -0.44270366 5
-4.5753322 16.331947 0.88887399 24
-0.59914315 2.1401186 -0.43199161 87
-4.5756674 16.355118 1.485831 14
-0.72601962 2.5968077 -0.42706612 4
-4.5697803 16.356077 2.0851846 11
-0.9225027 3.3018055 -0.42093676 4
-3.6043174 12.909202 2.1228158 4
-1.2743915 4.56743 -0.41486132 6
-4.5669241 16.378967 3.3051934 12
-1.9846267 7.1225219 -0.38749546 6
-4.5742698 16.416357 3.9343941 18
-3.277487 11.770345 -0.2132684 30
-4.570888 16.426422 4.5686741 12
-0.44600764 1.610432 -0.44775698 6
-4.3518977 15.724409 0.28478837 44
-0.51115543 1.848177 -0.44270366 5
-4.5472317 16.441357 0.89400291 26
-0.59047443 2.1364167 -0.43084675 85
-4.5447416 16.454706 1.4935008 16
-0.71950585 2.606818 -0.42831761 4
-4.5392637 16.457256 2.0961528 11
-0.91154754 3.3048465 -0.42093676 4
-4.6055226 16.708855 2.7451122 4
-1.2608243 4.577394 -0.41538426 7
-4.5365553 16.481094 3.3227482 11
-1.9615242 7.1309905 -0.38760012 6
-4.5409918 16.508472 3.9528399 16
-3.2151132 11.69631 -0.2117326 30
-4.5378857 16.519728 4.5904145 12
-0.44066438 1.6119022 -0.44775698 6
-4.3213401 15.817843 0.28621948 46
-0.50707716 1.8573815 -0.44450328 5
-4.5097919 16.530346 0.89798045 24
-0.58235252 2.1345749 -0.43008351 84
-4.5069242 16.531197 1.4990788 14
-0.71033865 2.6072836 -0.42800474 5
-4.5091777 16.562241 2.1076086 10
-0.90261227 3.3175855 -0.42215544 4
-3.4567645 12.714226 2.0868361 2
-1.2396158 4.5625405 -0.41364115 7
-4.5019555 16.569935 3.337631 11
-1.9394376 7.1432381 -0.38791415 6
-4.5073261 16.612617 3.9739852 22
-3.1569939 11.643772 -0.21058075 28
-4.5014162 16.613781 4.6121559 12
-0.43224004 1.60418 -0.44516876 7
-4.289506 15.919719 0.28779021 42
-0.50059098 1.8591402 -0.44450328 5
-4.4785323 16.64435 0.90331864 26
-0.57758307 2.1480706 -0.4323732 88
-4.4664707 16.622643 1.5058768 16
-0.69872797 2.6022387 -0.42675328 4
-4.4734678 16.660318 2.1180894 11
-0.88999647 3.3168817 -0.42166796 4
-3.4374332 12.819704 2.1021667 24
-1.2236807 4.5668402 -0.41364115 7
-3.346379 12.497584 2.5148625 7
-1.9085956 7.1329346 -0.3869721 6
-4.4695582 16.715626 3.9946809 18
-3.1168492 11.656652 -0.21061565 34
-4.4628406 16.702183 4.6323433 11
-0.42812639 1.6112802 -0.44672167 7
-4.2506328 16.008774 0.28911656 34
-0.49177399 1.8534282 -0.44270366 5
-4.4379687 16.737875 0.90750551 26
-0.57310081 2.1614594 -0.43466291 91
-4.4334202 16.732506 1.5144182 15
-0.68660718 2.593204 -0.42487606 4
-4.4276109 16.734173 2.1254015 11
-0.87681943 3.3162825 -0.42118049 4
-4.4662313 16.903997 2.7692034 10
-1.2107867 4.5826411 -0.41468704 7
-4.4283738 16.772564 3.3719769 8
-1.8811389 7.1298966 -0.38644874 6
-4.4315557 16.808384 4.0131269 20
-3.0761452 11.675732 -0.21075526 33
-4.4286499 16.821177 4.6608138 12
-0.42396846 1.6183711 -0.44827461 7
-4.2185235 16.114439 0.29075709 38
-0.48530173 1.8551334 -0.44270366 5
-4.3977041 16.822828 0.91127378 30
-0.56455988 2.1596482 -0.4338997 90
-4.3981447 16.836554 1.5224365 17
-0.68004501 2.6051419 -0.42644039 5
-4.3917217 16.835962 2.1363697 12
-0.86223298 3.3077981 -0.41971806 4
-1.195786 4.5906954 -0.41503564 7
-4.3866181 16.852518 3.3849518 11
-1.8562376 7.1364202 -0.38644874 6
-4.3924613 16.899195 4.0311227 18
-3.0514596 11.748332 -0.21187221 36
-3.633172 13.998034 3.8750391 11
-0.41831627 1.6198412 -0.44827461 7
-4.3656173 16.917124 0.30496335 22
-0.47882265 1.8568163 -0.44270366 5
-4.3593845 16.917376 0.91556531 26
-0.55162835 2.1406932 -0.42970186 83
-4.3602185 16.93284 1.5297575 17
-0.67094779 2.6074998 -0.42644039 5
-4.3571448 16.945395 2.1483128 11
-0.85068202 3.3107877 -0.41971806 4
-3.2683291 12.729297 2.0815172 8
-1.1777734 4.5871224 -0.41433838 7
-4.3541069 16.970417 3.4055593 6
-1.8308212 7.1409216 -0.38634408 6
-4.3542457 16.995598 4.0504684 18
-2.9940622 11.694985 -0.21072036 27
-3.5804601 13.995656 3.8708978 11
-0.40932414 1.6081862 -0.44465113 7
-4.3306947 17.027222 0.30667368 20
-0.47521874 1.8698084 -0.4454031 5
-4.3258653 17.033152 0.92100829 26
-0.54608506 2.1502171 -0.43122834 86
-4.3202024 17.023272 1.5365558 15
-0.66281348 2.6136551 -0.42706612 6
-4.3189316 17.043245 2.1587937 12
-0.84106988 3.321434 -0.42069301 4
-3.1647601 12.506994 2.0433471 43
-1.1598002 4.5834799 -0.41364115 7
-1.807842 7.1550136 -0.38676277 6
-3.5158646 13.925225 3.3157785 11
-2.9375637 11.64332 -0.2096034 33
-3.5221422 13.970604 3.8605449 12
-0.40276769 1.6058578 -0.44361585 6
-4.2906733 17.119823 0.30806988 21
-0.46679571 1.8638943 -0.44360349 5
-4.289175 17.139212 0.92592788 28
-0.54191285 2.1654418 -0.4338997 90
-4.2820163 17.123295 1.5442253 15
-0.65129095 2.6063709 -0.42550179 6
-3.3591537 13.452822 1.7025148 5
-0.83043104 3.3282018 -0.42118049 4
-3.0737691 12.328213 2.0123732 19
-1.1447564 4.5913668 -0.41398975 7
-3.1168475 12.510266 2.5060854 26
-1.7785109 7.1438384 -0.38582069 6
-4.2811217 17.209019 4.0941091 18
-2.8935285 11.639917 -0.20935906 18
-3.4663646 13.954691 3.8527803 34
-0.39855033 1.6128801 -0.44516876 7
-4.2510166 17.216234 0.30953586 21
-0.4574852 1.8541604 -0.44090405 5
-4.2494054 17.235521 0.93032408 24
-0.53529108 2.1711323 -0.43466291 91
-4.2441382 17.227129 1.5522438 15
-0.64171743 2.6067102 -0.42518893 5
-3.314548 13.474104 1.7037336 18
-0.82022905 3.3368638 -0.42191169 4
-3.0132852 12.267887 2.000797 13
-1.1287235 4.5953345 -0.41398975 7
-3.0282311 12.338031 2.46945 27
-1.7488041 7.1306052 -0.38477397 5
-3.4385149 14.030819 3.3351245 34
-2.8405161 11.599446 -0.20845154 21
-3.39467 13.872882 3.8268983 6
-0.3965725 1.6292781 -0.44930989 6
-4.2150092 17.330063 0.31131604 21
-0.45193014 1.8595335 -0.44180387 6
-4.2139192 17.338795 0.93513894 22
-0.52678204 2.1691723 -0.4338997 90
-4.2126513 17.359945 1.5628768 17
-0.63307917 2.6108541 -0.42550179 5
-3.2712305 13.501026 1.7056835 15
-0.80717713 3.3339179 -0.42118049 4
-3.0153537 12.454443 2.0295811 19
-1.1136118 4.6031199 -0.41433838 7
-2.7909298 11.545138 2.308789 32
-1.724846 7.1405487 -0.38498333 5
-3.2674305 13.536947 3.2150004 19
-2.7898328 11.558263 -0.20754401 23
-2.9804027 12.357248 3.4060588 17
-0.38953224 1.6250165 -0.44775698 6
-4.1808195 17.441177 0.3130613 19
-0.4475773 1.8686024 -0.44360349 6
-4.1691713 17.419441 0.93869781 16
-0.51464099 2.1519036 -0.43008351 84
-4.6901283 19.626297 1.7654266 18
-0.62579572 2.6187029 -0.42644039 5
-3.2250545 13.506009 1.7049522 29
-0.79335189 3.3249912 -0.41971806 4
-2.9636116 12.430305 2.0239494 23
-1.0998446 4.6166701 -0.41520998 8
-2.7603612 11.586798 2.3152766 35
-1.6997681 7.1404009 -0.3846693 5
-4.1686292 17.52519 4.158895 19
-2.7439182 11.544586 -0.20712517 20
-2.9439485 12.39577 3.4138234 14
-0.37970072 1.6074979 -0.44258058 6
-4.6325426 19.627649 0.35201502 57
-0.43971038 1.8644632 -0.44225377 6
-0.50840324 2.1574202 -0.43084675 85
-0.61755627 2.624717 -0.42706612 5
-2.8612452 12.170295 1.5350664 8
-0.78446352 3.3393352 -0.42118049 4
-2.9220061 12.448269 2.0252008 27
-1.0804323 4.6028347 -0.41364115 8
-4.2544775 18.139025 3.6215551 12
-1.6793885 7.1657367 -0.38571605 5
-4.1278644 17.626917 4.1795907 17
-2.6922209 11.505415 -0.20625255 19
-2.8777864 12.308152 3.3869061 12
-0.37583685 1.6163403 -0.44465113 6
-4.5527005 19.595003 0.35114241 66
-0.43452111 1.8716816 -0.44360349 6
-4.5443745 19.590225 1.0539416 94
-0.50086874 2.1591818 -0.43084675 85
-4.5325928 19.554895 1.7561883 76
-0.60660708 2.6191592 -0.42581466 5
-2.8344069 12.247897 1.5435972 6
-0.77190858 3.3381851 -0.42069301 4
-2.9078884 12.585421 2.0458503 15
-1.0652568 4.6104603 -0.41398975 7
-2.9112673 12.610077 2.515626 17
-1.6525708 7.1637702 -0.38529736 5
-2.9151394 12.646987 2.9963481 1
-2.6484494 11.499152 -0.20597331 24
-2.854732 12.404725 3.4107175 12
-0.37148574 1.6232919 -0.44620407 6
-4.4740162 19.565939 0.35033962 82
-0.4253802 1.8617883 -0.44090405 6
-4.4648552 19.557289 1.0513248 100
-0.49682489 2.176229 -0.4338997 90
-4.4589834 19.547289 1.7540965 83
-0.59394825 2.6058531 -0.42331171 5
-2.7929616 12.263524 1.5443285 2
-0.76025212 3.3408592 -0.42069301 4
-2.8249559 12.424062 2.0180049 18
-1.0483525 4.6143332 -0.41398975 7
-2.6488864 11.659098 2.3240535 31
-1.6249031 7.1578088 -0.3846693 4
-2.9205458 12.875639 3.0480866 4
-2.6087384 11.510278 -0.20600821 20
-2.8212366 12.457949 3.4226232 26
-0.36553314 1.6246426 -0.44620407 6
-4.3977842 19.54632 0.3497113 85
-0.416742 1.8537552 -0.43865454 6
-4.3860502 19.525988 1.0488126 100
-0.48497522 2.160795 -0.4304651 68
-4.3790202 19.526564 1.7507845 85
-0.58784926 2.6234329 -0.42581466 5
-2.8256581 12.610247 1.5867389 4
-0.74554884 3.3299327 -0.41898686 4
-2.7522485 12.302761 1.9967299 9
-1.0335417 4.6237979 -0.41451269 6
-2.5992861 11.638074 2.3179479 36
-1.5977857 7.1598177 -0.38445997 4
-2.844074 12.755016 3.0170436 13
-2.5711522 11.531025 -0.20621765 20
-2.77983 12.477148 3.4252112 31
-0.36027768 1.6277949 -0.44672167 6
-4.3174825 19.523256 0.34901324 71
-0.41456938 1.8762016 -0.44360349 6
-4.3036938 19.493176 1.0461959 96
-0.47616035 2.1567233 -0.42932025 83
-4.3022532 19.502817 1.7472982 85
-0.58081347 2.6351144 -0.42737901 4
-2.6479235 12.023417 1.5116674 24
-0.73547286 3.3423364 -0.42020553 4
-2.7041655 12.299261 1.9945397 11
-1.0178219 4.629324 -0.41468704 7
-2.5590694 11.648992 2.3183293 22
-1.5719286 7.1614494 -0.38425064 5
-3.1142998 14.200106 3.3562698 21
-2.508328 11.446609 -0.2045422 22
-2.7307777 12.472156 3.4210703 7
-0.35336035 1.6233796 -0.44516876 5
-4.2399626 19.49522 0.34824532 68
-0.40843192 1.8795415 -0.44405338 6
-4.2271428 19.469042 1.0441024 89
-0.4677954 2.1545351 -0.42855701 81
-4.2206373 19.45541 1.7417203 78
-0.56993842 2.6294036 -0.42612755 4
-4.2122693 19.449646 2.4434805 43
-0.72254103 3.3390627 -0.4194743 4
-2.6549573 12.279664 1.9898466 32
-0.99913114 4.6211643 -0.41364115 7
-2.5623302 11.861267 2.3587809 19
-1.5486046 7.1747026 -0.3846693 5
-2.9406486 13.635596 3.2203994 36
-2.4624565 11.427929 -0.20405354 22
-2.6807163 12.451395 3.4127882 12
-0.34728757 1.622714 -0.44465113 6
-4.160172 19.455149 0.34726799 78
-0.40146181 1.8790499 -0.44360349 6
-4.1520734 19.450474 1.042323 93
-0.46273148 2.1676753 -0.43084675 85
-4.1435504 19.427155 1.7378855 80
-0.56075716 2.6313767 -0.42612755 4
-4.1352611 19.421515 2.4381182 55
-0.71170789 3.3454478 -0.41996178 4
-2.6071517 12.26567 1.9860923 7
-0.98216671 4.6207256 -0.41329253 7
-2.5192823 11.862457 2.3572545 33
-1.5206503 7.1663876 -0.38393661 5
-2.8800964 13.584774 3.2060025 13
-2.4237909 11.442324 -0.20415826 18
-2.6872399 12.696924 3.4774928 16
-0.34360918 1.6333688 -0.44723931 6
-4.0827703 19.424543 0.34646517 76
-0.3916966 1.8651828 -0.44000426 6
-4.0722542 19.408163 1.0392876 100
-0.45516148 2.1692774 -0.43084675 85
-4.0593553 19.363503 1.730913 89
-0.54994917 2.6255844 -0.42487606 4
-4.0349069 19.280392 2.4186192 46
-0.69880611 3.3420827 -0.41923055 4
-2.7663019 13.24151 2.1425269 22
-0.96684724 4.6280265 -0.41364115 7
-2.4802628 11.88271 2.359544 19
-1.493585 7.1618762 -0.38341326 5
-2.6804216 12.86407 3.03369 21
-2.3724253 11.395898 -0.20318091 30
-2.7235477 13.093959 3.5836086 13
-0.33751482 1.6326665 -0.44672167 6
-3.9837995 19.287882 0.34377751 84
-0.38518304 1.8665386 -0.44000426 6
-3.971818 19.263815 1.030809 97
-0.44679406 2.1670072 -0.43008351 84
-3.9680257 19.262419 1.7206286 78
-0.54078013 2.6274881 -0.42487606 4
-3.9543815 19.230194 2.4105759 49
-0.68753594 3.3464458 -0.4194743 4
-2.6962273 13.134984 2.1237545 6
-0.95188713 4.6372285 -0.4141641 6
-2.4056342 11.729746 2.3274884 35
-1.4673749 7.1611757 -0.38309923 5
-2.3330297 11.406071 -0.20321584 19
-2.7196019 13.3078 3.6395135 19
-0.33181405 1.6338346 -0.44672167 6
-3.9108753 19.274233 0.34328881 84
-0.37827757 1.865962 -0.43955436 6
-3.896625 19.238409 1.0287156 97
-0.440007 2.1724019 -0.43084675 85
-3.8916693 19.231241 1.7166195 78
-0.53277886 2.6351686 -0.42581466 4
-3.8793843 19.204964 2.4057012 19
-0.67584962 3.3488257 -0.4194743 4
-2.4926171 12.36201 1.9973555 20
-0.93726838 4.6483355 -0.41486132 6
-2.3852322 11.840074 2.3477139 6
-1.4451256 7.1799607 -0.38383192 5
-2.3289137 11.581423 2.7273066 1
-2.2817857 11.357287 -0.20220359 22
-2.5415826 12.661865 3.4604108 15
-0.32270753 1.6179321 -0.44206294 7
-3.8338151 19.238737 0.34241623 73
-0.3736648 1.8768272 -0.44180387 6
-3.8238316 19.206175 1.0263082 42
-0.43012252 2.1623712 -0.42855701 98
-3.8109372 19.17631 1.7105186 25
-0.52319306 2.6350746 -0.42550179 4
-3.80691 19.19113 2.4022889 12
-0.66628647 3.3588369 -0.42044926 5
-2.6320972 13.280922 2.1444039 15
-0.91794211 4.6359434 -0.41346684 6
-2.6349652 13.319739 2.6392701 1
-1.4185032 7.1771245 -0.38341326 5
-2.2753787 11.512611 2.7093105 26
-2.2406218 11.347136 -0.20188944 22
-2.4752789 12.547028 3.4267642 14
-0.31882644 1.6265765 -0.44413349 6
-3.7569246 19.184624 0.34122944 23
-0.36818767 1.8818809 -0.44270366 6
-3.7524545 19.179546 1.0242147 34
-0.42520866 2.1753469 -0.43084675 85
-3.7400641 19.15169 1.7072067 27
-0.51293939 2.6290398 -0.42425033 4
-3.7318499 19.145195 2.3949764 16
-0.65704256 3.3707702 -0.42166796 5
-2.6095736 13.400095 2.1622374 11
-0.90028143 4.6272268 -0.41242099 6
-2.2719872 11.688371 2.3145132 7
-1.3969846 7.1935525 -0.38404128 5
-2.2401688 11.535397 2.7129097 12
-2.2083154 11.381987 -0.20237811 24
-2.3840253 12.299133 3.356883 16
-0.31489229 1.6352128 -0.44620407 6
-3.686867 19.163595 0.34063607 23
-0.35900196 1.867782 -0.43910447 6
-3.679451 19.161144 1.02254 36
-0.41761419 2.1768174 -0.43084675 100
-3.6720335 19.140505 1.705115 29
-0.50384575 2.6287863 -0.42393744 5
-2.7365124 14.291087 1.7866048 31
-0.64340973 3.3632939 -0.42044926 5
-2.3410251 12.248849 1.9751418 11
-0.88785958 4.6499119 -0.4141641 5
-2.3007104 12.060711 2.3866391 14
-1.3681248 7.1787658 -0.38299456 5
-2.2002506 11.54506 2.7133596 20
-2.1558518 11.322836 -0.20119135 19
-2.3414485 12.309277 3.3574009 14
-0.30961385 1.6401526 -0.44723931 7
-3.6091783 19.13768 0.33993798 23
-0.35179338 1.86717 -0.43865454 6
-3.5999651 19.125431 1.0199232 38
-0.40818003 2.1706157 -0.42932025 99
-3.5959499 19.122507 1.7023259 31
-0.49530217 2.6364393 -0.42487606 5
-2.6958356 14.363453 1.7944044 36
-0.62705159 3.3441682 -0.41776815 5
-0.8700788 4.6492181 -0.41381544 5
-2.2633369 12.105731 2.3938897 27
-1.3403388 7.1758785 -0.38257587 5
-2.3937175 12.815434 3.0098453 13
-2.1128719 11.322798 -0.20105173 23
-2.305867 12.369054 3.3713772 13
-0.30254656 1.6355774 -0.44568643 6
-3.5390151 19.15078 0.33993798 18
-0.34600839 1.8741961 -0.44000426 6
-3.5357161 19.151632 1.0206559 17
-0.39988998 2.1681657 -0.42855701 81
-3.5305359 19.161032 1.704592 14
-0.48670793 2.6440654 -0.42581466 5
-2.6704621 14.521615 1.8129284 27
-0.61142743 3.3248603 -0.41508701 7
-2.3486156 12.784033 2.0586779 20
-0.85168546 4.6404691 -0.41276959 6
-2.211509 12.061419 2.3835862 6
-1.316 7.1844425 -0.3827852 5
-2.2278302 12.1624 2.8546288 5
-2.0711725 11.318302 -0.20084229 22
-2.265806 12.39413 3.3760357 9
-0.29574031 1.6289687 -0.44361585 6
-3.4951208 19.270628 0.34185773 18
-0.34187642 1.8868382 -0.44270366 6
-3.4946251 19.287062 1.0272502 21
-0.39304698 2.171412 -0.42893866 99
-2.621773 14.498581 1.2890334 17
-0.47653311 2.6378891 -0.4245632 5
-2.6219356 14.528439 1.8126848 32
-0.60004491 3.3249161 -0.41484326 9
-2.3969879 13.295255 2.1397109 12
-0.83487844 4.6354241 -0.41207233 8
-1.2928765 7.1926985 -0.38299456 5
-2.1168132 11.776531 2.762399 24
-2.0223155 11.262127 -0.19972533 21
-2.2274244 12.416786 3.3801768 4
-0.29033715 1.6299404 -0.44361585 6
-3.4515119 19.396301 0.3438822 18
-0.33425364 1.8802867 -0.44090405 6
-3.4468398 19.409266 1.0331119 19
-0.3855013 2.1707702 -0.42855701 81
-2.5802879 14.544469 1.2923454 28
-0.46674931 2.6336198 -0.4236246 4
-2.578238 14.562466 1.8158534 25
-0.5873971 3.3211265 -0.41411206 10
-0.81765479 4.6324239 -0.41154939 8
-2.1816297 12.360026 2.4396839 21
-1.2683219 7.1930132 -0.3827852 5
-2.1463499 12.184958 2.8564286 9
-1.9951228 11.338047 -0.20094702 26
-2.2539685 12.822146 3.4883633 22
-0.28402895 1.6290904 -0.44309825 6
-3.4016492 19.510668 0.34569725 18
-0.32668456 1.8756827 -0.43955436 6
-3.4006312 19.545147 1.0397062 17
-0.37922284 2.1818399 -0.4304651 100
-2.5235572 14.534198 1.2906022 10
-0.45810559 2.6411517 -0.4245632 5
-2.5158587 14.504875 1.8075663 22
-0.57580137 3.3231566 -0.41411206 9
-0.8018201 4.6372132 -0.41172373 8
-2.1399918 12.389219 2.4438818 28
-1.2354988 7.1602178 -0.38079646 5
-2.0394397 11.831705 2.7718468 24
-1.9470439 11.295676 -0.20007439 22
-2.2010043 12.78234 3.4754221 9
-0.2799668 1.6395934 -0.44568643 6
-3.3506217 19.64325 0.34782645 15
-0.31915337 1.8730252 -0.43865454 6
-3.3470643 19.663801 1.0453585 18
-0.3712745 2.1812153 -0.43008351 84
-2.4808199 14.590059 1.2947857 30
-0.44954559 2.6466296 -0.42518893 5
-2.4371052 14.363301 1.7887983 25
-0.56726569 3.3467736 -0.41679317 6
-2.4201951 14.293848 2.2961452 27
-0.78695971 4.6478415 -0.41242099 8
-2.0649703 12.208845 2.4068646 13
-1.205837 7.1369157 -0.37933105 17
-2.0026698 11.865654 2.7781456 27
-1.8929939 11.227805 -0.19874801 20
-2.0197034 11.992117 3.2585318 21
-0.27456069 1.6424659 -0.44620407 5
-3.3060806 19.798809 0.35037449 19
-0.31485724 1.8875833 -0.44180387 6
-3.2990894 19.79948 1.0519528 18
-0.36204547 2.1728153 -0.42817542 65
-2.4364214 14.637937 1.2982719 8
-0.44095162 2.6520801 -0.42581466 5
-2.3993154 14.446135 1.7980604 32
-0.55850464 3.3663583 -0.41898686 4
-0.77105534 4.6525254 -0.41259527 7
-2.0306804 12.266338 2.4167869 15
-1.1792895 7.1312289 -0.37880769 28
-1.9968078 12.087913 2.8285346 8
-1.8550947 11.242237 -0.19888763 22
-2.0931416 12.698644 3.4485049 19
-0.26757786 1.6357884 -0.44413349 5
-3.2556481 19.924696 0.35239899 16
-0.30889466 1.8925173 -0.44270366 6
-3.2498865 19.93309 1.0584425 18
-0.35540688 2.1798785 -0.42932025 83
-3.2452085 19.926355 1.7662982 15
-0.43232641 2.6575024 -0.42644039 5
-2.3428276 14.417193 1.7934294 12
-0.54738563 3.3722062 -0.4194743 4
-0.75257695 4.6414223 -0.41137511 6
-1.9724727 12.17839 2.3980875 9
-1.1537498 7.1313596 -0.37859833 26
-1.9378093 11.990926 2.8042397 16
-1.8254035 11.307869 -0.19993477 21
-2.0411103 12.658193 3.435564 5
-0.26156062 1.6348051 -0.44361585 5
-3.2040796 20.048492 0.35438859 16
-0.30228615 1.8935841 -0.44270366 6
-3.2007248 20.072515 1.0652461 18
-0.34779495 2.1811059 -0.42932025 83
-3.1966443 20.069389 1.7779771 16
-0.420874 2.6453397 -0.42425033 4
-2.3008962 14.478217 1.8000103 22
-0.53748083 3.3858595 -0.42093676 5
-2.2941961 14.468637 2.3202362 35
-0.73543566 4.6381173 -0.41085216 7
-2.0402031 12.88133 2.5350883 26
-1.1375933 7.1905789 -0.38152915 6
-1.885906 11.934097 2.7893932 19
-1.7937123 11.363553 -0.20080739 17
-2.0766413 13.170936 3.5727384 1
-0.25704703 1.6433425 -0.44568643 4
-3.1522849 20.176123 0.35644796 19
-0.29327014 1.8792244 -0.43910447 5
-3.1518691 20.219734 1.0724685 18
-0.34199408 2.1939454 -0.43160996 86
-2.2839243 14.668552 1.2987949 5
-0.41102961 2.642889 -0.4236246 4
-2.2503467 14.486159 1.8000103 34
-0.52444029 3.3798683 -0.41996178 4
-0.71862954 4.6367188 -0.41050354 7
-1.1127899 7.1964798 -0.38163382 5
-1.7387929 11.270928 -0.19906214 24
-1.9935917 12.937529 3.5075159 6
-0.25160053 1.6461394 -0.44620407 5
-3.1032593 20.327356 0.35892621 20
-0.28582862 1.874457 -0.43775475 6
-3.0978048 20.339211 1.0782255 19
-0.33255947 2.1834807 -0.42932025 66
-2.2312057 14.666589 1.2979233 17
-0.40269381 2.6501663 -0.4245632 6
-2.2849536 15.055236 1.8697196 19
-0.51144814 3.3738282 -0.41898686 4
-2.0304852 13.410085 2.1481583 19
-0.70393467 4.6490483 -0.41137511 8
-2.1563151 14.25797 2.8029842 30
-1.0879591 7.2022953 -0.38173848 5
-1.8197035 12.06066 2.8159373 12
-1.6860268 11.187949 -0.19749144 27
-1.8420234 12.237586 3.3159897 8
-0.24585406 1.6470076 -0.44620407 5
-3.0529308 20.476513 0.36136955 17
-0.28014442 1.8812259 -0.43910447 6
-3.0458822 20.478308 1.0850291 19
-0.32522395 2.1865704 -0.42970186 67
-2.1852689 14.70976 1.3010609 11
-0.39343983 2.6515558 -0.4245632 6
-2.1805823 14.713592 1.8263341 23
-0.49850613 3.3677378 -0.41801187 4
-2.0723548 14.017012 2.2442091 38
-0.68857509 4.6573901 -0.41189805 8
-1.0645617 7.2179046 -0.38236654 5
-1.8093983 12.282868 2.8663263 9
-1.6434674 11.170025 -0.19707258 25
-1.8897401 12.859387 3.4826691 7
-0.23871028 1.6382976 -0.44361585 6
-2.9984207 20.603796 0.36342892 17
-0.27413699 1.8860492 -0.44000426 6
-2.995055 20.631126 1.0925655 19
-0.31561655 2.1740921 -0.42703056 79
-2.1330473 14.711384 1.3005379 16
-0.38304991 2.645093 -0.42331171 5
-2.1633184 14.95687 1.8555828 15
-0.48674661 3.3694575 -0.41801187 4
-0.67202783 4.6577935 -0.41172373 6
-1.7663515 12.257595 2.4072464 13
-1.0399272 7.2255301 -0.38257587 5
-1.7476542 12.157944 2.8357332 4
-1.6064637 11.189548 -0.19731691 23
-1.7856095 12.45285 3.3708594 21
-0.23298965 1.6391208 -0.44361585 6
-2.9455991 20.748766 0.36580244 15
-0.26891914 1.8966419 -0.44225377 6
-2.9456832 20.775414 1.0996832 19
-0.31105301 2.1965628 -0.43122834 86
-2.1480894 15.188256 1.3420241 5
-0.37381378 2.6464143 -0.42331171 5
-2.1166382 15.003643 1.8604575 8
-0.47834411 3.3907092 -0.42044926 4
-1.8950419 13.449844 2.1512871 18
-0.65298969 4.6403813 -0.4099806 5
-1.6934952 12.04983 2.3652685 3
-1.0133126 7.2192268 -0.38205251 5
-1.695682 12.080688 2.8163872 22
-1.5629606 11.149266 -0.1965141 22
-1.7223425 12.301822 3.328413 11
-0.22808345 1.6437114 -0.44465113 6
-2.8940749 20.883207 0.36800143 12
-0.26049119 1.8820803 -0.43865454 6
-2.8948498 20.91564 1.1065916 20
-0.30296016 2.1917481 -0.43008351 84
-2.0941725 15.169638 1.339758 33
-0.3661156 2.6554666 -0.4245632 5
-1.8553888 13.474714 1.6700976 9
-0.46574265 3.3824444 -0.41923055 4
-1.9995226 14.54021 2.3246164 28
-0.63976765 4.6583118 -0.41137511 6
-1.631114 11.891996 2.3332126 10
-0.98828435 7.214632 -0.38163382 6
-1.7198815 12.555408 2.9257133 11
-1.5162244 11.083063 -0.19525753 24
-1.7531903 12.831922 3.4702461 4
-0.22392765 1.6540307 -0.44723931 6
-2.8435576 21.031406 0.3704448 12
-0.25398725 1.8810028 -0.43820465 6
-2.8388999 21.052298 1.1132905 20
-0.29595321 2.1946862 -0.4304651 68
-2.0449164 15.184398 1.3404553 11
-0.35730699 2.656666 -0.4245632 5
-1.8096405 13.472923 1.6691227 32
-0.45235011 3.3722448 -0.41776815 4
-0.62112421 4.6427441 -0.40980628 7
-1.6257756 12.152255 2.3832045 16
-0.96435225 7.2178702 -0.38163382 5
-1.4751478 11.070449 -0.19494337 26
-1.5707816 11.803878 3.1907215 21
-0.21685557 1.647179 -0.44516876 6
-2.7894464 21.187914 0.37302774 12
-0.24843629 1.8896064 -0.44000426 6
-2.784121 21.204657 1.120827 20
-0.28663155 2.186023 -0.42855701 81
-1.9856236 15.164135 1.338015 27
-0.34859252 2.6657925 -0.42581466 5
-1.7649193 13.496873 1.6713163 11
-0.44031966 3.3718345 -0.4175244 4
-0.60568708 4.6508107 -0.41032922 8
-1.57591 12.117248 2.3751905 6
-0.93866092 7.2272983 -0.38194785 5
-1.7758728 13.692139 3.1875565 4
-1.4398419 11.10131 -0.19539714 24
-1.5501615 11.968305 3.2336853 29
-0.21085939 1.6460096 -0.44465113 6
-1.6678609 13.037751 0.22942933 6
-0.24274307 1.9001695 -0.44225377 6
-2.7248385 21.359344 1.1284679 20
-0.27850279 2.1831155 -0.4277938 80
-1.9281497 15.135397 1.3348774 31
-0.3387858 2.663074 -0.42518893 5
-1.7159424 13.507189 1.6718037 25
-0.42945641 3.3852417 -0.41898686 5
-0.58738548 4.6431165 -0.40945768 7
-1.5464129 12.223958 2.3950348 3
-0.91443008 7.2384567 -0.38236654 4
-1.5253792 12.091585 2.8136878 6
-1.3946422 11.070802 -0.19476886 27
-1.4906149 11.849318 3.2000387 12
-0.2036324 1.6371862 -0.44206294 7
-2.6720655 21.483166 0.3778795 15
-0.23538859 1.8952035 -0.44090405 6
-2.668941 21.519365 1.136423 21
-0.2709814 2.1880183 -0.42855701 81
-2.6612985 21.519236 1.8970318 16
-0.32732871 2.6505744 -0.42299888 6
-1.6682929 13.509156 1.6713163 27
-0.41763622 3.3867204 -0.41898686 5
-0.57068908 4.6411839 -0.40910906 7
-1.6028032 13.05381 2.5564592 20
-0.88740909 7.2377944 -0.38215721 4
-1.7659446 14.424054 3.3549199 26
-1.3511316 11.035905 -0.19407077 24
-1.4754969 12.069218 3.2580142 7
-0.19889799 1.6436061 -0.44361585 7
-2.6150556 21.641256 0.3804974 12
-0.22690366 1.880536 -0.43730485 6
-2.6105256 21.667355 1.1437501 18
-0.26419324 2.1928031 -0.42932025 83
-2.6056347 21.658501 1.9085364 14
-0.31830093 2.6496842 -0.42268598 5
-1.6192319 13.49913 1.6693665 7
-0.40605021 3.3901284 -0.41923055 5
-1.7612045 14.726186 2.3490202 42
-0.55718666 4.6588764 -0.41050354 7
-1.6156132 13.528859 2.6484292 14
-0.86293131 7.2367311 -0.38194785 4
-1.4335539 12.040017 2.7992909 26
-1.312598 11.040554 -0.19407077 25
-1.456368 12.26805 3.3102958 13
-0.19473758 1.6577208 -0.44723931 7
-1.5794655 13.46562 0.23665462 24
-0.22033837 1.8813165 -0.43730485 5
-1.5770224 13.485471 0.71155971 15
-0.25790599 2.2054117 -0.43160996 86
-1.574989 13.488487 1.1881071 13
-0.31019294 2.6605897 -0.42425033 6
-1.5569547 13.374563 1.6532797 20
-0.3926087 3.3777223 -0.4175244 5
-1.5940998 13.735444 2.1900828 15
-0.54046017 4.6568356 -0.41015494 7
-1.3932383 12.023008 2.3526752 8
-0.83720404 7.2357306 -0.38173848 4
-1.6106857 13.942096 3.2401948 13
-1.2845944 11.136449 -0.19567639 22
-1.3916498 12.083062 3.2590497 7
-0.18785597 1.6487933 -0.44465113 7
-1.532907 13.475024 0.23672445 60
-0.21421026 1.8859468 -0.43820465 5
-0.24799328 2.1867914 -0.4277938 80
-1.5238571 13.458267 1.1849694 36
-0.30201522 2.6714702 -0.42581466 6
-1.5249509 13.510106 1.6693665 29
-0.38237113 3.3928807 -0.41923055 4
-1.526202 13.542396 2.158483 46
-0.52398187 4.656713 -0.4099806 6
-1.3521352 12.035603 2.3542016 20
-0.8119396 7.2386093 -0.38173848 5
-1.413668 12.622975 2.932462 13
-1.2369769 11.045258 -0.19400094 21
-0.18125264 1.6417582 -0.44258058 6
-1.4866804 13.46612 0.2364801 55
-0.20880856 1.8943949 -0.44000426 6
-1.4816973 13.464128 0.709885 49
-0.23993112 2.1837404 -0.42703056 79
-1.4786105 13.479347 1.1863639 16
-0.29250771 2.6665664 -0.42487606 6
-1.4766862 13.483515 1.6654665 36
-0.37025708 3.3862364 -0.41825563 5
-1.460917 13.382689 2.1322021 46
-0.50685906 4.6505914 -0.40928334 6
-1.309666 12.016599 2.349622 18
-0.7855525 7.2194214 -0.3805871 6
-1.4303063 13.166176 3.0575347 21
-1.1910801 10.981915 -0.19281419 20
-1.4252027 13.162043 3.547374 29
-0.17621818 1.6461922 -0.44361585 6
-1.4417872 13.491111 0.23682916 24
-0.20240083 1.8970499 -0.44045416 6
-0.23310353 2.1884286 -0.4277938 80
-2.371233 22.298618 1.9618757 12
-0.28257155 2.6616781 -0.42393744 5
-0.35947815 3.3973787 -0.4194743 5
-0.49104124 4.6562953 -0.409632 6
-1.2660676 12.005478 2.3465691 33
-0.75847012 7.2042427 -0.37964505 7
-1.5625719 14.866896 3.4511991 9
-1.1552453 11.009871 -0.19323304 23
-0.17058012 1.6506701 -0.44465113 7
-2.320085 22.451004 0.39397064 13
-0.19437914 1.8841757 -0.43730485 6
-2.3163879 22.492004 1.1849908 22
-0.22648591 2.202939 -0.4304651 68
-2.306174 22.469685 1.9761693 15
-0.27200934 2.6548357 -0.42268598 5
-0.34822196 3.4045374 -0.42020553 5
-0.47518757 4.6619449 -0.4099806 5
-1.2417291 12.203402 2.3843493 29
-0.73246205 7.2109485 -0.37985441 6
-1.2711785 12.536269 2.9090669 1
-1.1176107 11.021796 -0.19337267 21
-1.2272534 12.124165 3.2652612 8
-0.16558501 1.6589447 -0.44672167 7
-2.2536483 22.618542 0.39676303 13
-0.1874706 1.8848755 -0.43730485 6
-2.251693 22.639076 1.1923178 17
-0.21743754 2.1900406 -0.4277938 80
-2.2444227 22.646126 1.9909858 18
-0.26312885 2.6597006 -0.42331171 5
-1.4512801 14.695614 1.8131722 27
-0.33359987 3.3840597 -0.4175244 5
-1.1879501 12.050647 1.9178867 2
-0.4589102 4.6635752 -0.4099806 6
-1.1902978 12.117785 2.3667948 33
-0.70670348 7.2074981 -0.37954038 6
-1.2150692 12.414566 2.8798234 5
-1.0697778 10.9301 -0.19169722 21
-1.1868057 12.147602 3.2704377 7
-0.1596076 1.6575897 -0.44620407 6
-2.1956818 22.803045 0.39986953 10
-0.18122037 1.8854867 -0.43730485 5
-2.1879287 22.805847 1.2006916 17
-0.20941666 2.1868777 -0.42703056 79
-2.1799507 22.806541 2.0044076 16
-0.25543579 2.6723571 -0.42518893 5
-1.403674 14.712203 1.8146347 22
-0.32331613 3.3950284 -0.4187431 4
-0.44244128 4.6631656 -0.40980628 5
-1.1397194 12.012215 2.3454244 36
-0.6844914 7.2276974 -0.38048244 6
-1.3484865 14.265493 3.30813 11
-1.0280514 10.895941 -0.19103403 26
-1.1418564 12.124744 3.2631907 5
-0.15303759 1.6465684 -0.44309825 6
-1.2700888 13.691121 0.24000549 11
-0.17643386 1.9055122 -0.44180387 5
-2.1237409 22.980404 1.2094841 17
-0.20216401 2.1875601 -0.42703056 79
-2.1189539 22.972359 2.0183527 13
-0.24610654 2.6732323 -0.42518893 5
-1.3699253 14.908759 1.8382773 30
-0.31128272 3.3941596 -0.41849938 4
-1.089747 11.90521 1.893483 15
-0.42534167 4.64675 -0.40823749 5
-1.1079656 12.127562 2.3671765 22
-0.66070682 7.2459545 -0.38131982 6
-1.1247151 12.358505 2.8649766 28
-0.99417412 10.945269 -0.19183685 22
-1.1396388 12.571168 3.3822474 6
-0.14763354 1.6509409 -0.44413349 7
-2.063997 23.126545 0.40527982 7
-0.16978081 1.9061165 -0.44180387 5
-2.0597866 23.170704 1.2191138 18
-0.19557025 2.1999855 -0.42932025 83
-2.0535364 23.146322 2.0329947 13
-0.23503076 2.6543984 -0.42206025 5
-1.3149083 14.879835 1.8341339 30
-0.29978088 3.3991802 -0.41898686 4
-1.0415987 11.834166 1.8815941 15
-0.40981641 4.6561456 -0.40893474 5
-1.0630515 12.102018 2.3614521 22
-0.63610893 7.256175 -0.38173848 4
-1.0849625 12.401183 2.8739748 27
-0.94883281 10.866996 -0.19040576 23
-0.14170401 1.6495216 -0.44361585 7
-1.9984536 23.31093 0.40838632 10
-0.16113319 1.8833977 -0.43640503 5
-1.9929889 23.342924 1.2278017 15
-0.18872416 2.2104356 -0.43122834 100
-1.9884636 23.337973 2.0492058 13
-0.22643371 2.6630757 -0.42331171 5
-1.2522146 14.757744 1.8185345 12
-0.28774694 3.3982279 -0.4187431 5
-1.004943 11.892843 1.8903543 15
-0.39322636 4.6535769 -0.40858611 5
-1.0579147 12.545826 2.4473162 7
-0.609438 7.2424293 -0.38090113 4
-1.0662934 12.698122 2.94191 15
-0.91473168 10.916072 -0.19120856 23
-0.1365793 1.6577075 -0.44568643 6
-1.1318941 13.767446 0.24112245 4
-0.1548761 1.8878332 -0.43730485 5
-1.9243624 23.506998 1.2360708 18
-0.18084639 2.2091243 -0.43084675 85
-1.9209423 23.515549 2.0641966 13
-0.21713574 2.6638501 -0.42331171 5
-0.27443859 3.3814044 -0.41654944 4
-0.96533334 11.919907 1.8941088 17
-0.37762201 4.6628647 -0.40928334 6
-1.0587056 13.10128 2.5549326 50
-0.58335239 7.2345586 -0.38037777 3
-1.0092995 12.544426 2.9054677 33
-0.87085819 10.847442 -0.189952 24
-1.0320064 12.882819 3.4629991 17
-0.13048853 1.6543221 -0.44465113 6
-1.8659444 23.709064 0.41512296 7
-0.14981225 1.9077898 -0.44180387 5
-1.8563414 23.692774 1.2454911 18
-0.17175429 2.1921268 -0.42741215 64
-1.8535912 23.710812 2.0807562 14
-0.20829727 2.6704998 -0.42425033 6
-1.1616312 14.926434 1.8382773 10
-0.26340112 3.3922377 -0.41776815 4
-0.92173827 11.8976 1.8900415 8
-0.36042091 4.652236 -0.40823749 5
-1.0228046 13.232129 2.5797377 17
-0.55778641 7.2325683 -0.38016844 3
-0.95833147 12.454609 2.8838725 9
-0.83344966 10.856397 -0.19005671 23
-0.99337137 12.969169 3.4852574 29
-0.12456744 1.6528413 -0.44413349 6
-1.7948728 23.87097 0.41784552 11
-0.1431514 1.9083011 -0.44180387 5
-1.787483 23.884338 1.2552257 15
-0.16454026 2.1985862 -0.42855701 81
-1.7829834 23.88006 2.0950499 14
-0.19926824 2.6751502 -0.42487606 6
-0.91753638 12.346976 1.5201983 7
-0.25155908 3.3931363 -0.41776815 4
-0.89025843 12.036674 1.9116293 12
-0.3431516 4.6395564 -0.40701729 5
-0.89050293 12.068692 2.3522935 8
-0.53385437 7.2523985 -0.38111049 4
-0.92755592 12.630851 2.9239137 9
-0.79218537 10.813371 -0.1892539 23
-0.11865987 1.6513392 -0.44361585 6
-0.98265374 13.708734 0.23990077 4
-0.13593286 1.9010142 -0.44000426 6
-1.7219498 24.081383 1.2652742 15
-0.15686627 2.199147 -0.42855701 81
-1.7127602 24.070963 2.1112607 14
-0.1885297 2.6561255 -0.42174736 6
-0.86799103 12.259017 1.5089864 20
-0.24055153 3.4058745 -0.41923055 4
-0.85952044 12.169612 1.9322786 23
-0.32779333 4.6526508 -0.40806317 5
-0.85154378 12.116769 2.3610706 9
-0.50853711 7.2542181 -0.38111049 4
-0.87285399 12.48238 2.8888216 9
-0.75604582 10.811947 -0.18918408 25
-0.88545007 12.694263 3.4096823 15
-0.11355312 1.6613801 -0.44620407 5
-1.6574364 24.249723 0.42426801 7
-0.12883233 1.8897892 -0.43730485 5
-1.6508924 24.278542 1.2753228 19
-0.14918827 2.1996813 -0.42855701 81
-1.6424363 24.279556 2.1290405 14
-0.1797199 2.6567361 -0.42174736 6
-0.82158417 12.176662 1.4985056 17
-0.22845688 3.3947699 -0.41776815 4
-0.31101921 4.6458149 -0.40736595 5
-0.81463361 12.168499 2.3706112 4
-0.48328227 7.2379284 -0.38016844 4
-0.82355368 12.366596 2.8613772 28
-0.72227859 10.874379 -0.19023123 23
-0.86168903 13.007625 3.493022 7
-0.10791736 1.6598198 -0.44568643 5
-1.585453 24.45092 0.42768866 7
-0.12248775 1.8941165 -0.43820465 5
-1.5779536 24.467525 1.2849525 16
-0.14189243 2.2001638 -0.42855701 81
-1.5747061 24.483698 2.1464715 15
-0.17095268 2.6652327 -0.42299888 6
-0.78806853 12.32011 1.5158111 20
-0.21559362 3.379698 -0.41581824 4
-0.29561237 4.646821 -0.40736595 5
-0.89060694 14.038496 2.734293 27
-0.45788625 7.2375784 -0.38006377 4
-0.77769023 12.326607 2.8514795 23
-0.68242919 10.846899 -0.18970767 23
-0.80151749 12.775331 3.4298701 17
-0.102124 1.6601863 -0.44568643 6
-1.5122192 24.653904 0.43114424 12
-0.1158748 1.8945327 -0.43820465 6
-1.5040917 24.662268 1.2948964 13
-0.13421203 2.2006457 -0.42855701 81
-1.500001 24.666039 2.1619854 15
-0.16176708 2.6677849 -0.42331171 5
-0.75404048 12.471396 1.5340914 18
-0.2040346 3.384393 -0.41630572 4
-0.7393865 12.300198 1.9516766 21
-0.2789107 4.6398692 -0.40666869 5
-0.84535295 14.104231 2.7465048 5
-0.43262112 7.2391329 -0.38006377 4
-0.73534989 12.340919 2.8541789 5
-0.64064586 10.783341 -0.18855581 23
-0.56786215 9.5864305 2.573179 13
-0.095768407 1.6508896 -0.44309825 6
-1.4341118 24.796783 0.43355268 4
-0.10982224 1.9046531 -0.44045416 6
-0.55347008 9.5988617 0.50389063 5
-0.12607932 2.1932609 -0.42703056 79
-0.55002773 9.5975313 0.84105289 14
-0.152229 2.6643889 -0.42268598 5
-0.54671204 9.5982456 1.1804266 19
-0.19266888 3.3930125 -0.41728067 5
-0.54505253 9.5986958 1.5227332 29
-0.26192558 4.6268907 -0.40544853 5
-0.54236466 9.6105442 1.8710731 30
-0.40790817 7.2505684 -0.3805871 3
-0.53742141 9.5824871 2.2157679 45
-0.53870875 9.6054401 -0.16792706 18
-0.53445357 9.5593281 2.5654144 24
-0.090004705 1.6512139 -0.44309825 6
-0.52307659 9.5962915 0.16775253 28
-0.10339932 1.903061 -0.44000426 5
-0.52017391 9.6047249 0.50410002 41
-0.11842205 2.1936877 -0.42703056 79
-0.51598948 9.5894451 0.84018135 32
-0.14317971 2.6609342 -0.42206025 5
-0.51317638 9.5682888 1.1765267 25
-0.18205267 3.4055262 -0.4187431 4
-0.50334734 9.4466791 1.4983294 18
-0.24577187 4.6277766 -0.40544853 5
-0.50195169 9.4515295 1.8397803 37
-0.38344133 7.2439036 -0.38016844 3
-0.49712214 9.4226952 2.178426 55
-0.5043382 9.5912876 -0.16764782 24
-0.49228331 9.3932953 2.52038 39
-0.084923118 1.6592206 -0.44516876 6
-0.483466 9.4782324 0.16565825 42
-0.09616258 1.8917331 -0.43730485 5
-0.48051509 9.4528065 0.49604025 52
-0.11114626 2.1940684 -0.42703056 79
-0.47625297 9.4339056 0.82641071 69
-0.13399024 2.6633902 -0.42237309 4
-0.47172037 9.4094315 1.1567839 62
-0.16966952 3.3962276 -0.4175244 4
-0.47044316 9.4167299 1.4933236 31
-0.23072235 4.6345353 -0.40597141 5
-0.46554953 9.3845949 1.8264238 72
-0.35766152 7.2352238 -0.37964505 4
-0.46288753 9.3971243 2.1721272 92
-0.46495602 9.4391174 -0.16496015 41
-0.4605605 9.3832989 2.5172741 55
-0.079131186 1.6595069 -0.44516876 6
-0.45012495 9.4398355 0.16496015 69
-0.089980789 1.893988 -0.43775475 6
-0.44600224 9.4225054 0.49436548 100
-0.10385724 2.202287 -0.42855701 81
-0.44294304 9.4275494 0.82571346 102
-0.1256202 2.673686 -0.42393744 4
-0.43995994 9.3990469 1.1553215 62
-0.15812795 3.3908229 -0.41679317 5
-0.43674219 9.4005556 1.4905078 31
-0.21491066 4.6432738 -0.40666869 5
-0.43479154 9.3939323 1.8279504 60
-0.33292875 7.2204094 -0.37880769 4
-0.43172041 9.3986073 2.1721272 97
-0.43136212 9.4266987 -0.16471581 121
-0.42894948 9.4099379 2.5240035 35
-0.073970415 1.66748 -0.44723931 6
-0.41734952 9.445344 0.16502996 75
-0.083540753 1.8981842 -0.43865454 6
-0.41396517 9.4059744 0.49342343 71
-0.096296132 2.1967354 -0.42741215 96
-0.41115817 9.4170237 0.82466763 59
-0.11620127 2.6721349 -0.4236246 4
-0.40826708 9.4263077 1.1584901 37
-0.14594932 3.3834212 -0.41581824 4
-0.40573859 9.405899 1.4911336 26
-0.19942501 4.6419706 -0.40649435 5
-0.40325877 9.4248142 1.8336746 28
-0.30857462 7.2414823 -0.37985441 4
-0.40320444 9.5013008 2.1955223 45
-0.39950359 9.414093 -0.16447149 49
-0.40247568 9.5232553 2.5540264 27
-0.067202419 1.6445652 -0.44102767 6
-0.38724738 9.4766464 0.16555353 34
-0.077246062 1.8984507 -0.43865454 6
-0.38460377 9.4931746 0.49792436 39
-0.088310391 2.1892114 -0.42588571 93
-0.38204417 9.5119677 0.83286029 34
-0.10726078 2.6705317 -0.42331171 5
-0.38128671 9.5347185 1.171652 29
-0.13488568 3.3878536 -0.41630572 5
-0.37540916 9.4704208 1.5011454 28
-0.18282844 4.6326842 -0.40562281 5
-0.37532917 9.5104542 1.8500841 33
-0.28432205 7.2364779 -0.37954038 5
-0.37238672 9.5201111 2.1995716 49
-0.37084359 9.5233316 -0.16635634 23
-0.3681058 9.4956455 2.5462618 26
-0.061678167 1.6505812 -0.44258058 6
-0.3549659 9.5439472 0.16670538 30
-0.070431076 1.9026161 -0.43955436 6
-0.351868 9.5504055 0.50085515 35
-0.080885395 2.1953924 -0.42703056 79
-0.34934744 9.5271816 0.83408046 37
-0.09718322 2.6630108 -0.42206025 5
-0.34605154 9.5281172 1.1706771 30
-0.12289865 3.400228 -0.41776815 5
-0.34210899 9.5112152 1.5074027 28
-0.16629691 4.6233387 -0.40475124 5
-0.33976892 9.4921465 1.8462679 33
-0.25765651 7.2334795 -0.37933105 5
-0.33713916 9.5116749 2.1973219 45
-0.33622041 9.5326204 -0.16649596 25
-0.33296335 9.487278 2.5436735 26
-0.055981144 1.6527172 -0.44309825 6
-0.32110783 9.5291395 0.16642615 30
-0.063332632 1.8892168 -0.43640503 5
-0.31812683 9.5395985 0.50022715 34
-0.073744453 2.2113585 -0.43008351 84
-0.31588846 9.5223675 0.83355749 35
-0.087626949 2.6554365 -0.42080876 5
-0.31187582 9.5014896 1.1672646 29
-0.11089842 3.3966684 -0.41728067 6
-0.30872074 9.5064278 1.506464 31
-0.1502253 4.6258826 -0.40492558 5
-0.30644035 9.4873867 1.8451231 35
-0.23214693 7.2263498 -0.37891236 6
-0.30338159 9.4952621 2.1932726 49
-0.30281371 9.5297375 -0.16642615 24
-0.29941487 9.4748659 2.54005 28
-0.05044752 1.6606264 -0.44516876 6
-0.2876035 9.5222073 0.16628654 33
-0.056503177 1.8816348 -0.43460542 5
-0.28392893 9.5107059 0.49865705 41
-0.065672822 2.1998281 -0.4277938 80
-0.28241289 9.5154476 0.83286029 38
-0.078706048 2.6675732 -0.42268598 5
-0.27812305 9.4826784 1.1648273 29
-0.098810472 3.3890977 -0.41630572 6
-0.27496049 9.4877024 1.5033354 31
-0.13395458 4.6503005 -0.40701729 5
-0.27275354 9.4687757 1.8413069 32
-0.2070367 7.2311096 -0.37912172 6
-0.26956737 9.4728889 2.1878741 55
-0.26903555 9.5127468 -0.16611201 26
-0.26645017 9.4797163 2.5410855 28
-0.044462625 1.6646625 -0.44620407 6
-0.2543605 9.5231533 0.16628654 33
-0.050348639 1.897405 -0.43820465 5
-0.25041938 9.4996595 0.49802902 41
-0.057198957 2.1843534 -0.42474085 75
-0.24665651 9.4825592 0.82989693 37
-0.068826929 2.6638944 -0.42206025 5
-0.24507843 9.4855766 1.165071 30
-0.086978815 3.3894219 -0.41630572 6
-0.24138501 9.4708309 1.5005195 32
-0.11772439 4.6507397 -0.40701729 5
-0.238197 9.4755983 1.8424517 36
-0.18048029 7.2298236 -0.37901706 5
-0.2347995 9.4718657 2.1874242 47
-0.2352401 9.4896393 -0.16569315 26
-0.23297535 9.4651384 2.5369444 28
-0.038428541 1.6551509 -0.44361585 5
-0.218904 9.5000315 0.16586767 28
-0.043705344 1.9112146 -0.44135398 6
-0.21716399 9.4964819 0.49781963 38
-0.049575292 2.1845398 -0.42474085 75
-0.21323818 9.4694195 0.82867676 35
-0.059791829 2.6759677 -0.42393744 5
-0.20996052 9.4705343 1.1631211 30
-0.075193316 3.3916893 -0.41654944 5
-0.20789181 9.4518671 1.4973909 31
-0.10083637 4.621244 -0.40440264 4
-0.2047012 9.4567442 1.8386356 36
-0.15550114 7.2423892 -0.37964505 5
-0.20296744 9.4531088 2.182925 55
-0.20172796 9.4724102 -0.16537902 25
-0.19932 9.436923 2.5291798 26
-0.032939196 1.6552693 -0.44361585 5
-0.18712543 9.4867105 0.16562334 36
-0.037252486 1.9055039 -0.44000426 6
-0.18547352 9.4871655 0.49729633 42
-0.042596448 2.1984324 -0.42741215 80
-0.18153119 9.4541388 0.82728231 36
-0.050691474 2.6643012 -0.42206025 5
-0.17836423 9.4612541 1.1619024 28
-0.06409438 3.399859 -0.4175244 5
-0.17647527 9.448555 1.4967651 32
-0.085399374 4.6155767 -0.4038797 5
-0.17287005 9.4318533 1.8336746 31
-0.13141261 7.2388721 -0.37943572 4
-0.17165594 9.455678 2.1833749 57
-0.17020473 9.4670286 -0.16527429 23
-0.16782498 9.4259415 2.5260739 29
-0.027450273 1.6553694 -0.44361585 6
-0.15543306 9.4732828 0.16537902 34
-0.030554228 1.8822351 -0.43460542 6
-0.15210596 9.4717779 0.49645892 42
-0.035274867 2.1965985 -0.42703056 63
-0.15008159 9.4487114 0.82675934 38
-0.041732471 2.656554 -0.42080876 6
-0.14662047 9.4379749 1.1589775 29
-0.052133903 3.3941076 -0.41679317 5
-0.14343007 9.4451628 1.4961394 32
-0.070124276 4.6178269 -0.40405402 4
-0.14138757 9.4186335 1.8310033 31
-0.10728641 7.2312799 -0.37901706 5
-0.13836022 9.4367342 2.1788759 52
-0.13701473 9.4575672 -0.16509975 25
-0.13475288 9.4148808 2.5229681 29
-0.021671347 1.6554551 -0.44361585 5
-0.12228871 9.4677687 0.16527429 36
-0.023959383 1.8803816 -0.43415552 6
-0.11861318 9.4383011 0.49467951 42
-0.027532494 2.1908188 -0.42588571 62
-0.11704663 9.4451942 0.82641071 34
-0.03255621 2.6645846 -0.42206025 5
-0.11348113 9.4225492 1.1570276 29
-0.040073007 3.3764043 -0.41459954 5
-0.11025351 9.4278288 1.4933236 33
-0.054098785 4.6260123 -0.40475124 4
-0.10846179 9.415143 1.8302399 33
-0.08195132 7.2236214 -0.37859833 4
-0.10515979 9.4137764 2.1734772 60
-0.1038929 9.4479904 -0.16492525 23
-0.10186459 9.4133625 2.5224504 27
-0.015967127 1.6632477 -0.44568643 5
-0.089165881 9.4601393 0.16513468 36
-0.017539188 1.8960431 -0.43775475 6
-0.085650489 9.4366608 0.49457484 42
-0.019867582 2.1889384 -0.42550406 76
-0.083993852 9.4355831 0.82553917 42
-0.023357591 2.6765335 -0.42393744 5
-0.080591589 9.4228878 1.1570276 28
-0.028354144 3.3844638 -0.41557449 4
-0.07714662 9.4044523 1.4895692 33
-0.037174053 4.6301641 -0.4050999 5
-0.075546362 9.4095755 1.8290951 35
-0.056674447 7.2158751 -0.37817967 4
-0.072251536 9.4082403 2.1721272 55
-0.070745021 9.4262991 -0.16454129 22
-0.068922214 9.4020691 2.5193446 30
-0.0098017016 1.6517041 -0.44258058 5
-0.056033976 9.4423962 0.16482052 37
-0.010977175 1.9058363 -0.44000426 6
-0.052629277 9.4229221 0.49384215 42
-0.01183341 2.1870334 -0.42512247 76
-0.049230386 9.4019575 0.82257593 37
-0.013528043 2.6726506 -0.42331171 5
-0.04765638 9.4151716 1.1560526 28
-0.016550403 3.3865273 -0.41581824 4
-0.044245996 9.3888626 1.4870663 30
-0.020904008 4.6063566 -0.40300813 4
-0.041000143 9.3960457 1.8264238 31
-0.030295094 7.2320123 -0.37901706 3
-0.037723266 9.3967495 2.1694279 55
-0.037762377 9.4064922 -0.16419223 25
-0.036045086 9.3867979 2.5152035 29
-0.0040175817 1.6440009 -0.44051 5
-0.021382239 9.4245415 0.16450639 39
-0.0039913738 1.9058638 -0.44000426 6
-0.018086601 9.4190569 0.49363276 41
-0.0042335535 2.2047305 -0.42855701 81
-0.016398193 9.3960943 0.8220529 36
-0.0041793408 2.6608293 -0.42143452 5
-0.013124858 9.397419 1.153859 30
-0.0041371821 3.386565 -0.41581824 4
-0.009827259 9.3850107 1.4864405 33
-0.0048172097 4.6004248 -0.40248519 5
-0.008179551 9.3686466 1.8210812 32
-0.0050415783 7.2220869 -0.37849367 3
-0.0049166963 9.3909779 2.1680782 55
-0.0032869878 9.4045668 -0.16415733 26
-0.001634061 9.3636847 2.508992 26
0.001733652 1.6555961 -0.44361585 5
0.011491707 9.4065599 0.16419223 34
0.0026527927 1.9000199 -0.43865454 6
0.014782113 9.4110737 0.49321413 38
0.003456838 2.2008054 -0.4277938 80
0.016377555 9.38414 0.82100707 35
0.0051157372 2.6647785 -0.42206025 5
