# .PCD v0.7 - Point Cloud Data file format
VERSION 0.7
FIELDS x y z intensity
SIZE 4 4 4 4
TYPE F F F F
COUNT 1 1 1 1
WIDTH 1374
HEIGHT 1
VIEWPOINT 0 0 0 1 0 0 0
POINTS 1374
DATA ascii
2.3127151 -4.6063304 -0.4509438 5
4.0204406 -8.007678 1.7417046 20
3.8629014 -7.6972504 -0.45134532 5
4.0298848 -8.0334797 2.0749483 35
4.0146084 -8.0065136 -0.15633865 24
4.017283 -8.0153379 2.4023585 20
3.9948788 -7.9984975 0.15605941 29
0.88871592 -1.7801533 -0.45935005 2
4.0019989 -8.0162525 0.46955824 31
1.0344036 -2.0728798 -0.45030925 70
3.990339 -7.9998841 0.78213561 32
1.2718729 -2.5509825 -0.45146993 4
3.9835663 -7.9932919 1.0965804 21
1.6392491 -3.2907012 -0.45140409 4
3.9829402 -7.9955301 1.4147935 24
2.298315 -4.6157575 -0.45111811 3
3.9784677 -7.9935427 1.7355988 26
3.83512 -7.7089 -0.45124069 5
3.9827285 -8.0091105 2.0650506 41
3.9711182 -7.9857621 -0.15567546 22
3.977783 -8.0026674 2.394594 22
3.9567938 -7.9884062 0.15560566 32
0.87934917 -1.776105 -0.45755047 2
3.9536173 -7.9890027 0.46715081 39
1.0358663 -2.0940754 -0.45412543 74
3.9500263 -7.98876 0.77969521 34
1.2651577 -2.5587275 -0.45209566 4
3.9412072 -7.9744258 1.0921932 21
1.632724 -3.3050175 -0.45262277 4
3.9436364 -7.9863582 1.4107262 28
2.2848344 -4.6291118 -0.45164105 5
3.9380348 -7.9785233 1.7294928 29
3.8121865 -7.7269478 -0.45155466 5
3.9423568 -7.9943094 2.0578523 44
3.9326088 -7.9780521 -0.15525661 24
3.9421391 -8.0009069 2.389935 26
3.9235969 -7.9913993 0.15539622 37
0.8748613 -1.7826624 -0.45845026 2
3.9125121 -7.9758582 0.46558073 42
1.0202699 -2.0798728 -0.45030925 70
3.9156184 -7.9857149 0.77812648 38
1.2596958 -2.5702236 -0.45334715 4
3.9072332 -7.9756546 1.0904869 23
1.6133202 -3.2946513 -0.45042911 4
3.9027088 -7.9734626 1.4060332 31
2.2704134 -4.6406388 -0.45198968 5
3.9041219 -7.979876 1.7268214 31
3.7887011 -7.747385 -0.45197338 5
3.9007354 -7.9800086 2.0506537 46
3.8933241 -7.9683743 -0.15480286 26
3.9014711 -7.9885802 2.3821707 29
3.8886786 -7.9906621 0.15511699 45
0.87289542 -1.7944676 -0.46069977 3
3.8829002 -7.9858737 0.46537137 48
1.0109236 -2.0800669 -0.44954604 69
3.8715239 -7.9695463 0.77516311 38
1.2476784 -2.5694923 -0.45240852 4
3.875901 -7.9821029 1.089512 25
1.6061438 -3.3091924 -0.45164782 4
3.8653686 -7.9674859 1.4025916 30
2.2481153 -4.6359868 -0.45076951 5
3.8662846 -7.9764652 1.7230054 31
3.7663743 -7.7738008 -0.45270607 6
3.865515 -7.9819751 2.0475044 46
3.8567703 -7.9639177 -0.1544538 28
3.8617775 -7.9778066 2.3749237 29
3.8463373 -7.9778419 0.15459342 48
0.86546648 -1.7958992 -0.46024984 2
3.8458047 -7.9838576 0.46442932 48
1.0070647 -2.0906579 -0.45107248 71
3.8359015 -7.9668565 0.77359438 37
1.2378452 -2.5720518 -0.45209566 4
3.8397357 -7.9819446 1.0875622 26
1.6026063 -3.332947 -0.4540852 5
3.8318603 -7.9726982 1.4010272 32
2.2293296 -4.6384187 -0.45024657 5
3.8256652 -7.9633675 1.717281 30
3.7392163 -7.7869005 -0.45270607 6
3.8367858 -7.9936628 2.0470545 46
3.8310146 -7.9852114 -0.15459342 38
3.8249929 -7.9762287 2.3702648 32
3.8132939 -7.9803934 0.15438399 50
0.85751253 -1.7953924 -0.45935005 2
3.8179121 -7.9972334 0.46442932 54
0.99976081 -2.0941606 -0.45107248 95
3.8072112 -7.9783993 0.77342004 46
1.2271587 -2.5727911 -0.45146993 4
3.7998886 -7.9702125 1.0841498 28
1.584131 -3.3241847 -0.45213532 5
3.8031576 -7.9842424 1.4007144 35
2.2208359 -4.6623607 -0.45181534 5
3.7927809 -7.9660382 1.7149915 29
3.7111549 -7.7981019 -0.4526014 8
3.8038366 -7.996449 2.0443552 49
3.8014002 -7.9949231 -0.1545236 29
3.7954688 -7.986043 2.3692296 32
3.7837029 -7.9900403 0.15431418 52
0.85124016 -1.7983748 -0.45935005 2
3.7776985 -7.9809651 0.46275455 57
0.99412394 -2.1011868 -0.45183572 96
3.7776356 -7.9880385 0.77307147 39
1.2198586 -2.5806308 -0.45209566 4
3.7720449 -7.983428 1.0841498 25
1.5716696 -3.3278995 -0.45189157 5
3.7715981 -7.9860935 1.3988371 31
2.2113526 -4.6844988 -0.45320985 5
3.76579 -7.9810047 1.715373 28
3.6864667 -7.8164287 -0.4529154 7
3.7659287 -7.9885254 2.0389564 49
3.7723088 -8.002059 -0.1544189 41
3.7681427 -7.9968381 2.3687119 28
3.7580359 -8.0043545 0.15434909 55
0.8485834 -1.8082443 -0.46114969 2
3.7481213 -7.9904866 0.46254522 58
0.98511678 -2.1010888 -0.45107248 95
3.7480369 -7.9975677 0.77272278 42
1.2121326 -2.5864506 -0.45240852 5
3.7472341 -7.9994879 1.0846373 28
1.558942 -3.3294971 -0.45140409 5
3.7386749 -7.9884739 1.3969599 33
2.1899214 -4.6813602 -0.45216399 5
3.7409666 -7.997005 1.7161362 31
3.6656022 -7.8394651 -0.45354342 8
3.7394178 -8.0009699 2.0389564 52
3.7325053 -7.9898143 -0.15393023 33
3.7402043 -8.009943 2.3687119 33
3.7309155 -8.0192366 0.15438399 53
0.84390986 -1.8147293 -0.46204948 2
3.7266564 -8.0137386 0.46317327 57
0.9806264 -2.1096852 -0.45221734 100
3.7181368 -8.0027246 0.77202559 42
1.2047609 -2.594249 -0.45303425 5
3.7192876 -8.0125198 1.0846373 26
1.5523231 -3.3457229 -0.45286649 5
3.7129951 -8.0026207 1.3972728 32
2.1752241 -4.6904044 -0.45233828 5
3.7138541 -8.011796 1.7165178 28
3.6440926 -7.8648977 -0.45427614 8
3.7114661 -8.0139742 2.0389564 52
3.7076697 -8.0057764 -0.15400003 34
3.7111881 -8.0170422 2.3671591 30
3.7009521 -8.0243015 0.15424436 48
0.83299214 -1.8068995 -0.45935005 2
3.6994951 -8.028513 0.46327791 48
0.97654134 -2.1202281 -0.45374379 100
3.6876805 -8.0102253 0.77150261 33
1.1944994 -2.5946414 -0.45240852 5
3.6918666 -8.0230064 1.0843935 17
1.544538 -3.3580661 -0.45384148 4
3.6866891 -8.0191221 1.3978986 25
2.1596696 -4.6997795 -0.45251262 6
3.6864457 -8.0222836 1.7161362 25
3.6246603 -7.8914585 -0.4551135 8
3.6913762 -8.0404062 2.0425556 35
3.6855397 -8.0313921 -0.15424436 36
3.6799588 -8.0229244 2.3650885 25
3.6729202 -8.0371714 0.15424436 50
0.82667994 -1.8097961 -0.45935005 2
3.6764259 -8.0522785 0.46390596 55
0.96950501 -2.1234548 -0.45374379 100
3.6685421 -8.0387239 0.77307147 44
1.1854349 -2.5987952 -0.45240852 6
3.6613686 -8.0304251 1.0836623 19
1.5344532 -3.3670499 -0.45432895 4
3.666862 -8.0499191 1.4010272 30
2.1416004 -4.7036624 -0.45216399 5
3.6543531 -8.0261679 1.714228 27
3.5954382 -7.9004273 -0.45490417 8
3.6592512 -8.0443735 2.0403061 41
3.6641042 -8.0587702 -0.1545236 25
3.655129 -8.0427551 2.3671591 27
3.6506159 -8.0626945 0.1544887 43
0.82035726 -1.8126708 -0.45935005 2
3.640065 -8.0468655 0.46285927 48
0.95767146 -2.1180496 -0.45183572 96
3.6398742 -8.0539312 0.77324575 32
1.179155 -2.6103234 -0.45366001 6
3.6382186 -8.0540113 1.0851247 16
1.5153384 -3.3561027 -0.45213532 4
3.6371155 -8.0590677 1.4004015 27
2.1317227 -4.7256393 -0.4535585 5
3.6313667 -8.0538263 1.717281 22
3.5664575 -7.9135518 -0.45490417 9
3.6305432 -8.0595083 2.040756 38
3.639236 -8.078805 -0.15466323 34
3.6325834 -8.0677967 2.3707826 25
3.6259491 -8.0869694 0.15469813 29
0.81609887 -1.8210005 -0.46069977 3
3.6217542 -8.0813932 0.46411529 42
0.94786471 -2.1160045 -0.4506909 100
3.6174388 -8.0793161 0.77446592 30
1.1684219 -2.6108172 -0.45303425 5
3.6127269 -8.0763521 1.0863434 14
1.5038381 -3.363446 -0.45237905 4
3.613801 -8.0825357 1.4022788 23
2.1184654 -4.7403278 -0.45425573 5
3.6088369 -8.0790014 1.7199525 18
3.5436988 -7.9368958 -0.45553222 8
3.6071537 -8.0828085 2.0434554 33
3.6101992 -8.089633 -0.15462832 26
3.6067607 -8.0857201 2.3723354 24
3.6096685 -8.1227045 0.15515189 35
0.8132202 -1.8308204 -0.46249935 1
3.6024387 -8.1140661 0.4652667 39
0.93967623 -2.1175058 -0.45030925 94
3.5932527 -8.1010017 0.77533752 31
1.1581557 -2.6110663 -0.45240852 5
3.5971894 -8.1136942 1.0897558 15
1.4958931 -3.3756742 -0.453354 4
3.5879641 -8.1005182 1.4032173 22
2.0962603 -4.7349405 -0.45303556 5
3.5883846 -8.1052856 1.7230054 19
3.5230169 -7.9613886 -0.45626491 8
3.5913661 -8.1196775 2.0497539 24
3.5867903 -8.1131592 -0.15483776 22
3.5831993 -8.1088629 2.3754413 24
3.5796814 -8.1315956 0.15508209 29
0.80682439 -1.833648 -0.46249935 1
3.582938 -8.1467028 0.46641809 33
0.93502027 -2.1260016 -0.45145413 100
3.5719821 -8.1256399 0.77655768 22
1.1474453 -2.6114759 -0.45178279 5
3.5728364 -8.1352892 1.0909745 14
1.488888 -3.3917813 -0.45481643 4
3.5683975 -8.1328917 1.4066589 17
2.0829484 -4.7473392 -0.4535585 5
3.5632226 -8.1249533 1.7245318 14
3.4935999 -7.9699793 -0.45605558 7
3.5723865 -8.1535835 2.0551529 24
3.568074 -8.1476107 -0.15525661 22
3.5618436 -8.137249 2.3801 19
3.5608673 -8.1660366 0.15550095 26
0.79574734 -1.8257345 -0.45979998 1
3.5616577 -8.1756392 0.46736014 28
0.93151385 -2.1382518 -0.4533622 98
3.5571182 -8.1691122 0.77952093 19
1.1383228 -2.6154654 -0.45178279 5
3.5507517 -8.1622734 1.0929244 11
1.4754562 -3.393317 -0.45432895 3
3.5549457 -8.1797209 1.4126034 13
2.0695403 -4.7618909 -0.45425573 6
3.5457916 -8.1625519 1.7298744 11
3.4633725 -7.9766288 -0.45574155 7
3.5547633 -8.1910305 2.0614514 19
3.5595067 -8.2058792 -0.15612923 18
3.5449457 -8.176219 2.3878646 18
3.5434413 -8.2041178 0.15598962 21
0.79245871 -1.8356577 -0.46159956 1
3.5410111 -8.2063599 0.46840689 24
0.92482221 -2.1432927 -0.45374379 99
3.5419958 -8.2125807 0.78248423 15
1.1346596 -2.6321211 -0.45397288 6
3.5348072 -8.2037868 1.0968242 8
1.4588915 -3.3875072 -0.45286649 3
3.5396497 -8.2229242 1.4179221 10
2.0552695 -4.7745757 -0.45477867 5
3.5304682 -8.2055378 1.736362 9
3.4331408 -7.9831667 -0.45542756 7
3.5299981 -8.2123404 2.0637012 19
3.5442605 -8.2494888 -0.15672261 18
3.5331526 -8.2275963 2.3992527 16
3.5383759 -8.2715921 0.15703675 15
0.78604639 -1.8384126 -0.46159956 1
3.5311806 -8.2627478 0.47091895 15
0.91116297 -2.1320658 -0.4506909 94
3.5320897 -8.2688675 0.7866677 9
1.1277922 -2.641516 -0.4549115 5
3.5271859 -8.2653723 1.1034052 7
1.4454999 -3.3889272 -0.45237905 4
3.5194471 -8.2552185 1.4213637 8
2.0401535 -4.7853861 -0.45512727 5
3.5241225 -8.2701883 1.7474288 7
3.4130793 -8.0134764 -0.45647424 8
3.5150504 -8.2568865 2.071799 16
3.5295358 -8.2949314 -0.1573509 15
3.5210457 -8.2789888 2.4106407 13
3.5297623 -8.3317671 0.15794428 12
0.782664 -1.8483232 -0.4633992 1
3.5209999 -8.3191671 0.47343111 12
0.90218461 -2.1316173 -0.44992763 93
3.5226107 -8.3270216 0.79102546 8
1.1170256 -2.6417975 -0.45428574 5
3.5207229 -8.3306608 1.1104735 6
1.4352067 -3.3976095 -0.45286649 4
3.5121219 -8.318409 1.430124 7
2.0218863 -4.7888079 -0.45477867 5
3.5166066 -8.3330851 1.7581142 6
3.3889682 -8.034543 -0.4569976 6
3.5149736 -8.3373423 2.0888956 13
3.5347261 -8.3882828 -0.1588867 10
3.5056233 -8.3232756 2.4199581 10
3.5184519 -8.3864489 0.15874709 3
0.77771437 -1.8546385 -0.46429899 1
3.5274529 -8.4161396 0.478246 2
0.9000507 -2.1474283 -0.45259899 97
3.5281663 -8.4219608 0.79886949 2
1.1062716 -2.6420367 -0.45366001 5
1.4325308 -3.4245749 -0.45579138 4
3.5264983 -8.4344988 1.4479576 1
2.0036213 -4.7921596 -0.45443004 5
3.5223191 -8.4286366 1.7756686 2
3.3609006 -8.0463238 -0.4569976 6
6.162365 -14.760542 3.6927965 8
7.4305453 -17.806919 -0.33679652 8
4.9058356 -11.762362 3.4148586 12
0.76376265 -1.8393441 -0.45979998 1
0.89330202 -2.15237 -0.45298058 100
1.0985558 -2.6495314 -0.45428574 5
10.599469 -25.576756 3.3994236 15
1.4160099 -3.4185503 -0.45432895 4
1.9937404 -4.8156924 -0.45599884 5
3.3320303 -8.0561609 -0.45689294 7
6.1353717 -14.841393 3.7076433 24
7.3981242 -17.904827 -0.33815783 8
4.877285 -11.80977 3.4236584 30
0.75733721 -1.8419991 -0.45979998 1
0.88951451 -2.1645546 -0.45488867 100
1.0908006 -2.6570051 -0.4549115 5
10.504099 -25.598907 3.3974741 15
1.3995491 -3.4124525 -0.45286649 4
1.9814527 -4.833684 -0.45704472 5
3.3084311 -8.0788317 -0.45752099 6
6.1019831 -14.907808 3.7188909 24
7.3658667 -18.004576 -0.33955404 8
4.8594275 -11.883944 3.440223 32
12.548103 -30.809645 0.5806765 7
0.75531143 -1.855461 -0.46249935 1
0.87603414 -2.1530983 -0.45183572 100
1.0830072 -2.6644561 -0.45553723 6
10.4087 -25.620705 3.395524 11
1.387478 -3.4152358 -0.45262277 4
1.9593232 -4.8276472 -0.45582449 5
3.2862129 -8.1051388 -0.45835835 7
6.0715504 -14.974916 3.7305884 21
7.3324084 -18.093767 -0.3407757 7
4.8388495 -11.946546 3.4536815 32
12.401724 -30.741671 0.5786171 21
0.74915427 -1.8579555 -0.46249935 1
12.405152 -30.765654 1.7384959 46
0.86962342 -2.1578126 -0.45221734 100
12.389504 -30.757795 2.9010661 30
1.0771165 -2.6753628 -0.45678869 5
10.325163 -25.658764 3.3960114 11
1.3813323 -3.4327092 -0.45432895 4
1.9447894 -4.8378153 -0.45617315 5
6.1864595 -15.397063 3.2254355 4
3.2637839 -8.1271124 -0.45898637 6
6.0487304 -15.061876 3.7472346 19
7.3021622 -18.192213 -0.34217188 7
4.8128729 -11.996593 3.4635167 30
12.256673 -30.674927 0.57659262 20
0.7444346 -1.864049 -0.4633992 1
12.259185 -30.712309 1.7330531 33
0.86100733 -2.1570377 -0.45145413 100
12.252001 -30.709887 2.8926992 30
1.0616536 -2.662406 -0.45397288 6
10.237816 -25.687328 3.3952801 11
1.3722799 -3.4448867 -0.45530388 4
1.9243138 -4.8331318 -0.45512727 5
6.1288347 -15.401075 3.2220011 3
3.241982 -8.1508818 -0.45971909 6
6.0227528 -15.149899 3.763881 15
7.2666717 -18.288212 -0.34349826 6
4.7895083 -12.060001 3.4769752 30
12.114223 -30.628265 0.5749172 20
0.73649043 -1.8630116 -0.46249935 1
12.111537 -30.652754 1.7272961 28
0.86213005 -2.181941 -0.45603353 100
12.106676 -30.656103 2.8836348 30
1.0523539 -2.6660955 -0.45397288 6
10.141527 -25.706289 3.3930864 11
1.3587906 -3.4459622 -0.45481643 4
1.9067013 -4.837966 -0.45495299 3
6.0721569 -15.415069 3.2204742 3
3.2127786 -8.1602907 -0.45961443 5
5.9898152 -15.221605 3.7764781 15
7.2313356 -18.38604 -0.34485954 6
4.7714114 -12.137775 3.494575 28
11.972248 -30.580984 0.57324171 20
0.72856253 -1.8619417 -0.46159956 1
11.969545 -30.605556 1.7222718 28
0.85021776 -2.1739664 -0.45374379 100
11.968399 -30.61838 2.8761394 22
1.047354 -2.6807923 -0.45585006 6
10.040906 -25.7138 3.3894305 7
1.3496406 -3.4580812 -0.45579138 4
1.8999388 -4.8705783 -0.45739332 3
6.0197382 -15.439828 3.2212374 2
3.1886251 -8.182621 -0.46024245 5
5.9578609 -15.296901 3.7899754 15
7.1946797 -18.481981 -0.34618592 4
4.7479267 -12.202968 3.5085511 26
11.830021 -30.531225 0.57153141 13
0.72346616 -1.868108 -0.46249935 1
11.820827 -30.539122 1.7162007 22
0.84049833 -2.1714284 -0.45259899 97
11.819755 -30.552198 2.8660295 22
1.040127 -2.6899593 -0.45678869 6
9.9496574 -25.744986 3.388943 7
1.3361307 -3.4590678 -0.45530388 3
1.8836433 -4.8790393 -0.45756766 2
5.9714589 -15.4754 3.2242906 2
3.1657929 -8.2086086 -0.46107981 5
5.9268589 -15.37579 3.8043723 15
7.1545625 -18.570431 -0.34737271 4
4.7233515 -12.266339 3.5220098 26
11.683283 -30.467772 0.56957674 13
0.72391516 -1.8888186 -0.46699843 1
11.686609 -30.492365 1.7113858 22
0.83150852 -2.1706824 -0.45183572 100
11.674569 -30.492794 2.8566165 22
1.0335553 -2.7009535 -0.45804018 6
1.3183776 -3.4488769 -0.453354 4
1.8680234 -4.889307 -0.45791626 2
5.9146032 -15.488814 3.2227643 2
3.1413932 -8.2308054 -0.46170786 4
5.8967657 -15.45829 3.819669 13
7.1243019 -18.67626 -0.34890851 4
4.6998544 -12.327063 3.5349507 25
8.6167231 -22.695616 0.42374441 3
0.71349937 -1.8802772 -0.46429899 0
11.558143 -30.47508 1.7081411 11
0.8253184 -2.1772432 -0.45259899 100
11.540528 -30.460699 2.8498185 14
1.0161943 -2.6821988 -0.45428574 6
1.312555 -3.4680824 -0.45530388 3
1.8523536 -4.8995252 -0.45826489 2
5.8715391 -15.530379 3.2273436 3
3.1126707 -8.2374411 -0.46149853 4
5.8681922 -15.53792 3.8345158 13
7.0873127 -18.775848 -0.35030469 5
4.6731615 -12.386772 3.547374 21
8.4783783 -22.56831 0.42081243 7
0.70556152 -1.8791074 -0.4633992 0
8.4833336 -22.605476 1.2653788 6
0.82223243 -2.1909966 -0.45488867 100
8.4839077 -22.618996 2.1135268 3
1.0068254 -2.6857295 -0.45428574 6
1.2990482 -3.4689252 -0.45481643 3
1.8324479 -4.8984971 -0.45756766 1
5.839993 -15.611461 3.2399371 3
3.0817978 -8.2426443 -0.46118447 4
5.8412042 -15.631328 3.8525119 13
7.0553155 -18.890392 -0.35198015 4
4.6488113 -12.453687 3.561868 22
8.3647089 -22.504049 0.41906717 7
0.69764078 -1.8779052 -0.46249935 0
8.3591881 -22.513247 1.2585752 9
0.81624573 -2.1995175 -0.45603353 100
8.3718433 -22.57148 2.1062055 7
1.0010951 -2.7005148 -0.45616296 5
1.2848628 -3.4678538 -0.4540852 3
1.8250192 -4.9310226 -0.46000803 1
3.0564151 -8.2669964 -0.46191719 3
5.8014345 -15.700158 3.8642094 11
7.0212126 -19.001188 -0.35358575 4
4.6294069 -12.535077 3.5805027 22
8.2676878 -22.49514 0.41833419 11
0.69209683 -1.8841082 -0.4633992 0
8.2662916 -22.51561 1.2570051 6
0.80315018 -2.1876094 -0.45298058 100
8.2600594 -22.510786 2.0978386 7
0.99234217 -2.7058477 -0.45647582 4
1.2728267 -3.4744041 -0.45432895 2
1.8091656 -4.9411049 -0.46035662 1
3.0344 -8.2963734 -0.46296394 3
5.7680063 -15.778881 3.8786061 11
6.9721127 -19.083145 -0.35463291 4
4.6013231 -12.600956 3.5944791 19
8.1795473 -22.497551 0.41784552 11
0.69217163 -1.9048283 -0.46789822 1
8.1719627 -22.501152 1.2545977 9
0.79684907 -2.1940901 -0.45374379 100
8.170557 -22.509516 2.0950499 7
0.98221743 -2.707438 -0.45616296 3
1.2647489 -3.4900239 -0.45579138 2
1.7810516 -4.9174175 -0.45756766 1
3.0040622 -8.3031569 -0.46275455 3
5.7354255 -15.861228 3.8939028 5
6.9380803 -19.197636 -0.35630831 4
4.5717478 -12.656915 3.6058671 16
8.0941992 -22.507151 0.41749647 11
0.68288183 -1.8998972 -0.46609858 0
8.0946035 -22.520607 1.254179 9
0.78918564 -2.1968582 -0.45374379 100
8.0825071 -22.511646 2.0926092 3
0.9674229 -2.695976 -0.45366001 2
1.2605968 -3.5168412 -0.45871624 1
2.9824636 -8.3342791 -0.46390596 2
5.6819911 -15.886657 3.8952522 1
6.9006443 -19.29397 -0.35766962 3
4.5486078 -12.72476 3.6208787 18
8.0114737 -22.511259 0.4170776 11
0.67265928 -1.8911347 -0.4633992 0
8.0159388 -22.548725 1.254179 9
0.78414184 -2.2069995 -0.45527029 100
8.0038776 -22.539722 2.0926092 3
0.9637658 -2.7140613 -0.45616296 1
1.246273 -3.5135186 -0.45774129 1
2.9561427 -8.347888 -0.46411529 1
4.6787109 -13.219605 3.2374957 1
6.8699312 -19.421625 -0.35958937 3
4.5241241 -12.797023 3.6369255 17
7.9374905 -22.552292 0.41732195 7
0.66346723 -1.8861181 -0.46159956 1
7.9312205 -22.559612 1.2532369 6
0.77551639 -2.2058837 -0.45450708 100
7.9264464 -22.558622 2.091912 3
0.95690399 -2.724864 -0.45741442 1
1.2326868 -3.514101 -0.45725381 1
2.9283054 -8.3619261 -0.46432465 1
4.6261005 -13.217463 3.2329965 3
6.8238816 -19.507778 -0.36074123 3
4.4985538 -12.867445 3.6524544 15
7.870554 -22.613857 0.41795024 7
0.65687937 -1.8884225 -0.46159956 0
7.8616033 -22.613573 1.2547023 6
0.76587731 -2.2030141 -0.4533622 100
7.8659654 -22.638849 2.0967927 3
0.95905095 -2.7617767 -0.46304604 1
1.2633488 -3.6421638 -0.47334057 1
2.8977916 -8.3683224 -0.46411529 1
4.5824838 -13.240897 3.2347963 3
6.7779722 -19.595734 -0.36192802 2
4.473177 -12.939671 3.6685014 17
7.8032804 -22.675226 0.41857851 7
0.65408629 -1.9017609 -0.46429899 0
7.7930093 -22.671095 1.2563771 6
0.75945932 -2.2093871 -0.45412543 99
7.7972507 -22.69632 2.099582 3
0.96993238 -2.8248937 -0.4730579 1
2.867269 -8.374608 -0.46390596 1
4.5349746 -13.253125 3.2338963 1
6.7457671 -19.725231 -0.36388266 2
4.4442263 -13.002735 3.6819599 16
7.7395391 -22.747763 0.41941625 3
0.65120804 -1.9151024 -0.46699843 0
7.7408195 -22.777584 1.2607733 3
0.7492159 -2.2045894 -0.45259899 73
2.8431423 -8.3997002 -0.46474332 1
4.4861884 -13.261491 3.2320969 1
6.7037697 -19.828224 -0.3653487 2
4.4155083 -13.067585 3.6959362 15
7.6957893 -22.880779 0.42137089 3
0.64576125 -1.9210583 -0.46789822 0
7.6996069 -22.905359 1.2664256 3
0.74901813 -2.2295237 -0.45717838 51
2.8176067 -8.4209375 -0.46537137 1
4.4448118 -13.291855 3.2356961 1
6.6760292 -19.964132 -0.36744297 2
4.3917465 -13.140786 3.7125006 15
0.63569838 -1.9120938 -0.46519879 0
0.74370623 -2.2395775 -0.45870483 26
2.7708435 -8.3733511 -0.46223122 0
4.3933682 -13.284318 3.2302971 1
6.6276402 -20.05187 -0.36862975 1
4.3700867 -13.22941 3.733206 15
9.8095732 -29.835978 0.54821497 6
0.62658656 -1.9068956 -0.4633992 0
9.7890863 -29.808737 1.6442912 5
0.74485093 -2.2681448 -0.46404752 28
2.7577386 -8.4323282 -0.46495271 0
4.3506026 -13.310687 3.2329965 3
6.5923791 -20.18133 -0.3705844 1
4.3430662 -13.303351 3.7497706 15
9.6855888 -29.809181 0.54709804 6
0.62714893 -1.9313129 -0.46879801 0
9.6652489 -29.781935 1.6409417 5
0.73653275 -2.2708597 -0.46404752 28
2.7206759 -8.4233732 -0.46390596 0
4.3143582 -13.365489 3.2424445 6
6.5452328 -20.276533 -0.37191078 1
4.3096523 -13.358878 3.7611585 12
9.5542755 -29.775932 0.54584146 6
0.62601674 -1.9521551 -0.47329703 0
9.5316448 -29.741081 1.6367549 5
2.7058299 -8.4784842 -0.46641809 0
4.2913656 -13.45473 3.2604406 6
6.5060973 -20.410889 -0.37393525 1
4.2794228 -13.433487 3.7777228 11
9.420064 -29.713793 0.54409623 6
0.63567936 -2.0063448 -0.48589426 0
9.3940029 -29.667543 1.6308932 5
2.7047479 -8.5835905 -0.47165167 0
4.2607536 -13.529848 3.2748375 6
6.4768558 -20.56699 -0.37637863 1
3.2854412 -10.439142 2.93242 4
0.6290226 -2.0084417 -0.48589426 0
9.2752924 -29.633726 1.6273344 5
2.6777699 -8.5920448 -0.47165167 0
4.2309771 -13.5841 3.2847352 6
6.4205031 -20.626543 -0.37707669 1
3.2502315 -10.448135 2.9319022 5
4.205307 -13.669565 3.3018315 4
6.3896017 -20.782625 -0.37952003 1
3.214308 -10.461265 2.93242 5
4.1790938 -13.755014 3.3189278 4
6.3576846 -20.938745 -0.38196337 1
3.172724 -10.455782 2.9277611 5
4.1506538 -13.834847 3.3346744 3
3.1362069 -10.466794 2.9277611 5
4.1233668 -13.920255 3.3517706 4
3.1001997 -10.479529 2.9282787 4
4.0900669 -13.986934 3.364368 3
3.0668495 -10.501413 2.9313846 4
4.0649948 -14.083508 3.3841636 3
3.0280347 -10.50463 2.9293141 4
4.0328946 -14.157585 3.3985605 3
2.9902906 -10.51142 2.9282787 4
4.0056 -14.25037 3.4174564 1
2.9535806 -10.521793 2.9282787 4
3.9777033 -14.343136 3.4363523 1
2.9183822 -10.537624 2.9298317 4
3.9450967 -14.420842 3.451649 1
2.8824031 -10.543518 2.9287965 3
3.914525 -14.497811 3.4669456 1
2.8465872 -10.557245 2.9298317 3
3.8979917 -14.63944 3.4975388 1
2.8077323 -10.559649 2.9277611 3
2.781143 -10.608629 2.9386315 4
2.7585971 -10.674385 2.9541607 4
2.7403929 -10.758832 2.9748662 4
2.7136374 -10.811428 2.9867721 3
2.6870117 -10.865843 2.9991951 3
2.6664417 -10.946481 3.0188653 3
2.6417344 -11.012079 3.0343947 2
2.6161571 -11.075755 3.0494061 1
2.5941069 -11.156323 3.0690763 1
2.57023 -11.231222 3.0871937 1
2.5420449 -11.289126 3.1006522 1
2.5216308 -11.364953 3.1192875 1
-1.9093806 -2.3935525 -0.48494691 1
-1.9004021 -2.3653142 -0.48056671 2
-1.9086471 -2.3586662 -0.48056671 2
-1.9168688 -2.3519895 -0.48056671 2
-1.9325864 -2.3544457 -0.48244393 2
-12.548512 -15.271366 3.1305668 3
-6.8705878 -8.3465567 2.8967028 1
-1.9357594 -2.3415949 -0.48119247 2
-12.611813 -15.239649 3.13307 3
-6.8885865 -8.3091364 2.8920441 1
-1.9464493 -2.3378596 -0.4818182 2
-12.675051 -15.20767 3.1355727 5
-6.9088798 -8.2746611 2.8884208 2
-1.5710876 -1.8750069 -0.47549605 31
-1.9406366 -2.3144007 -0.47837666 3
-12.738219 -15.175439 3.1380758 5
-6.9302621 -8.241622 2.8853149 3
-1.5750914 -1.8665103 -0.47473282 31
-1.9474286 -2.3061037 -0.47806379 3
-18.175232 -21.515097 3.4581647 7
-12.814065 -15.158037 3.1437073 7
-6.9639821 -8.2232771 2.8873854 3
-1.5892254 -1.8699764 -0.4770225 32
-1.9605856 -2.305311 -0.47931525 3
-18.275953 -21.481762 3.4630396 8
-12.870664 -15.122982 3.1452718 10
-10.506897 -12.336835 3.1498752 2
-6.9887071 -8.1971979 2.8863502 5
-1.5855302 -1.8524859 -0.47396958 62
-1.9733585 -2.3047986 -0.48056671 3
-18.362583 -21.439129 3.4659643 8
-12.933659 -15.089963 3.1477747 12
-10.491523 -12.236345 3.1330838 1
-9.3278437 -10.863784 3.8367336 3
-1.5942277 -1.8501924 -0.47473282 63
-1.9813923 -2.2978957 -0.48056671 4
-18.465828 -21.407974 3.4713266 8
-13.000456 -15.061169 3.1512163 14
-10.523906 -12.187763 3.1300311 2
-10.381525 -12.014387 3.6658025 1
-9.3543367 -10.818007 3.8320749 6
-1.605823 -1.8505472 -0.47625926 32
-1.9790395 -2.2790339 -0.47806379 4
-13.076273 -15.042533 3.1568477 15
-10.550925 -12.133175 3.1254516 2
-10.326174 -11.866352 3.6316099 3
-9.3920441 -10.785285 3.8320749 6
-1.6174406 -1.850844 -0.47778577 65
-1.9843822 -2.2691376 -0.47743803 4
-13.148221 -15.019093 3.161541 15
-3.6693752 -4.191494 -0.48737493 4
-10.598388 -12.10218 3.1269779 2
-10.26735 -11.715918 3.5965176 3
-9.4309053 -10.753889 3.8325925 6
-1.626485 -1.8481345 -0.478549 65
-18.240761 -20.719223 2.4150856 9
-1.9922909 -2.262197 -0.47743803 4
-13.212323 -14.98644 3.1643567 17
-3.7011125 -4.1980882 -0.48964092 4
-10.636672 -12.060693 3.125833 3
-10.21663 -11.576269 3.5645745 4
-9.4683857 -10.720902 3.8325925 7
-1.6146964 -1.8218758 -0.47320631 62
-18.320906 -20.66437 2.4161315 9
-2.0054176 -2.2611408 -0.47868952 4
-18.133198 -20.438276 3.3548195 3
-13.273733 -14.950572 3.1665468 21
-12.784203 -14.394134 3.7421463 2
-10.158587 -11.429838 3.5303819 6
-9.4980488 -10.679125 3.8294866 7
-1.6262754 -1.8220873 -0.47473282 63
-15.715126 -17.601133 2.0643709 6
-2.0159307 -2.2570729 -0.47931525 4
-18.035135 -20.185377 3.323621 3
-13.345593 -14.926231 3.1712399 26
-12.818665 -14.331861 3.7375669 4
-10.117846 -11.304277 3.5024879 8
-9.5275326 -10.637274 3.8263807 8
-1.6300006 -1.8134795 -0.47396958 62
-2.01455 -2.2397413 -0.4771252 4
-17.951462 -19.951126 3.2953472 3
-13.420086 -14.904513 3.1765587 29
-12.858099 -14.27536 3.7345138 4
-10.078961 -11.182039 3.4754939 9
-9.5671968 -10.606819 3.8274162 8
-1.638956 -1.8106898 -0.47473282 63
-17.998701 -19.877666 2.3460581 4
-2.0210292 -2.2312319 -0.4768123 4
-17.847717 -19.697105 3.2636611 7
-13.497239 -14.885385 3.1825032 35
-12.906533 -14.228935 3.7341323 5
-10.026246 -11.045785 3.4440005 9
-9.6028633 -10.571927 3.8268983 8
-1.6373309 -1.7962519 -0.4724431 61
-16.019402 -17.568102 2.0800588 7
-2.0314679 -2.2270823 -0.47743803 3
-17.763828 -19.46752 3.2358751 6
-13.566431 -14.857141 3.1865704 43
-12.960097 -14.188141 3.7352769 5
-9.9700766 -10.907156 3.4116075 11
-9.646225 -10.545473 3.8294866 9
-1.654212 -1.802096 -0.47549605 63
-16.150702 -17.588387 2.089123 7
-2.0499201 -2.2316158 -0.47994098 3
-17.678555 -19.238762 3.2080889 6
-13.632917 -14.82569 3.190012 45
-13.012201 -14.14571 3.7360406 5
-9.913064 -10.769055 3.3792148 13
-9.6855955 -10.514579 3.8305221 13
-17.604189 -19.057446 0.45285505 4
-1.6524966 -1.7876606 -0.47320631 62
-2.0523319 -2.2186463 -0.47868952 3
-17.605385 -19.025404 3.18274 6
-13.699351 -14.793955 3.1934536 50
-13.066836 -14.105964 3.7375669 6
-9.8830328 -10.661499 3.3562698 13
-9.7143564 -10.472207 3.8274162 15
-17.515331 -18.82897 0.4488759 4
-17.510086 -18.81015 1.3468137 3
-1.6560513 -1.7790074 -0.4724431 61
-17.696058 -19.003288 2.2718017 25
-2.0560248 -2.2071323 -0.47775093 4
-17.517412 -18.798275 3.1549537 6
-13.711839 -14.704147 3.1843803 15
-3.8263986 -4.1033106 -0.49086115 3
-13.102604 -14.045907 3.7337506 6
-9.8417282 -10.542891 3.3297255 14
-9.7442608 -10.431173 3.8248281 16
-17.427835 -18.604261 0.44496655 4
-17.428114 -18.591549 1.3355091 7
-1.6703069 -1.7818104 -0.47473282 63
-17.720039 -18.896343 2.266398 17
-2.0529046 -2.1884165 -0.47524795 3
-17.444365 -18.589369 3.1300926 6
-13.654904 -14.540996 3.1593509 17
-3.8543379 -4.1044526 -0.49260426 3
-13.150205 -13.998655 3.7333689 8
-9.7943802 -10.419019 3.3013816 16
-9.780611 -10.397098 3.8248281 26
-17.338989 -18.380394 0.44105724 8
-17.347574 -18.37665 1.3244139 6
-1.6846024 -1.7845347 -0.4770225 64
-21.557289 -22.828094 2.7469747 13
-2.0686698 -2.1898534 -0.4771252 3
-17.361897 -18.372541 3.1037686 9
-13.588851 -14.369813 3.1324439 17
-3.8686407 -4.0909748 -0.49260426 3
-13.200343 -13.954092 3.7337506 9
-9.7409315 -10.289948 3.2712383 16
-9.7504148 -10.292768 3.7989461 27
-17.270824 -18.180582 0.43770638 8
-17.263002 -18.159643 1.3131093 6
-1.6772952 -1.7644138 -0.47320631 62
-17.265259 -18.155678 2.191967 7
-2.0803859 -2.1869128 -0.47806379 4
-17.28087 -18.159388 3.0779324 6
-13.519051 -14.196406 3.1049118 17
-3.8911409 -4.086102 -0.49365011 3
-13.254389 -13.913614 3.7352769 9
-9.6893873 -10.164202 3.2419946 19
-13.037235 -13.671321 -0.32974577 3
-9.7142782 -10.183188 3.7709937 30
-17.19595 -17.975683 0.43421587 8
-17.190933 -17.957886 1.3028514 6
-1.6807284 -1.7557122 -0.4724431 61
-17.186594 -17.947084 2.1740127 11
-2.0907404 -2.1824896 -0.47868952 4
-17.213671 -17.962803 3.0547774 9
-13.471452 -14.047898 3.0826981 17
-3.8874543 -4.0537992 -0.49138409 2
-13.300159 -13.86443 3.7345138 9
-9.6438379 -10.045966 3.2150004 19
-13.087648 -13.628613 -0.32981557 2
-9.6667862 -10.062843 3.7389002 30
-17.114309 -17.765772 0.43058577 8
-17.11767 -17.756853 1.2925936 6
-1.6922971 -1.7554885 -0.47396958 62
-17.119133 -17.752171 2.1576276 11
-2.0887458 -2.1652267 -0.47649944 4
-17.127394 -17.748333 3.0284534 8
-13.473752 -13.952476 3.0720603 11
-3.9071176 -4.045938 -0.49208131 2
-13.34847 -13.817923 3.7345138 11
-9.6219606 -9.9533949 3.1961048 25
-13.225497 -13.676288 -0.33208442 4
-9.6172342 -9.9415607 3.7062888 29
-17.023056 -17.548044 0.42674625 7
-17.041822 -17.555119 1.2822311 9
-1.7038845 -1.755205 -0.47549605 63
-17.101885 -17.61083 2.147692 26
-2.0990436 -2.1607568 -0.4771252 3
-17.056433 -17.551771 3.0050545 11
-13.519615 -13.902529 3.0714347 11
-3.9239936 -4.0351319 -0.49242991 2
-13.336388 -13.709324 3.7177227 17
-9.5778027 -9.8387613 3.1700103 24
-13.252228 -13.608547 -0.33156082 1
-9.5844774 -9.8387394 3.6804068 30
-17.003162 -17.405546 0.42472175 3
-16.966171 -17.355564 1.2719731 9
-1.7182351 -1.7576706 -0.47778577 65
-17.171606 -17.559576 2.1487377 45
-2.1120987 -2.1590648 -0.47837666 3
-16.978754 -17.350254 2.9806807 11
-13.568063 -13.855251 3.0714347 11
-3.9436314 -4.0271044 -0.4931272 2
-13.281126 -13.557501 3.6891015 22
-9.6011734 -9.7941341 3.1664109 21
-13.294054 -13.556492 -0.33142123 1
-9.5551767 -9.7404099 3.6560779 30
-16.894947 -17.162437 1.2621341 12
-1.7023239 -1.7292762 -0.47167987 61
-2.1223943 -2.1544938 -0.47900239 3
-16.916603 -17.166451 2.9592316 11
-13.605247 -13.796552 3.0689316 13
-3.966058 -4.0218253 -0.49417305 2
-13.234612 -13.41602 3.6631515 23
-9.633935 -9.7591734 3.165961 22
-13.34129 -13.510008 -0.33142123 1
-9.5103741 -9.6272831 3.6260548 32
-13.49056 -13.618314 0.33459753 5
-16.830858 -16.984314 1.2531322 12
-1.7221713 -1.7372659 -0.47549605 63
-17.105785 -17.249695 2.12538 3
-2.1285114 -2.1456692 -0.47868952 3
-16.84219 -16.972027 2.9358327 10
-13.635615 -13.735939 3.06549 6
-3.9576104 -3.985337 -0.49138409 2
-13.187275 -13.275027 3.6372011 27
-9.662447 -9.7199574 3.1641617 24
-13.428312 -13.508237 -0.33246836 1
-9.4577923 -9.5107632 3.5939615 30
-13.532824 -13.570671 0.33452773 7
-16.761665 -16.796804 1.2436072 12
-1.7309992 -1.7340229 -0.47625926 64
-17.039185 -17.063 2.1096919 3
-2.132823 -2.1358039 -0.47806379 3
-16.77492 -16.792496 2.9143836 10
-14.508843 -14.513915 3.2503958 62
-3.9743152 -3.9743152 -0.49173269 2
-13.124331 -13.124331 3.6078167 26
-9.7015181 -9.6947489 3.1664109 24
-13.517825 -13.503676 -0.3335155 1
-9.4171171 -9.4039783 3.566009 31
-13.605616 -13.548747 0.33515599 2
-16.699858 -16.618443 1.23471 15
-1.7423066 -1.7338125 -0.47778577 65
-16.827297 -16.739424 2.0765727 17
-2.1388652 -2.1269524 -0.47775093 2
-16.692652 -16.593885 2.8900099 10
-2.8330467 -2.8153028 -0.49040228 1
-14.587451 -14.49102 3.2566531 68
-3.9987814 -3.9723475 -0.4931272 1
-13.07255 -12.981603 3.5811036 26
-9.7394514 -9.6649427 3.1677608 24
-13.607469 -13.498656 -0.33456263 1
-9.3840408 -9.3057566 3.5411625 31
-16.611746 -16.427223 0.40779293 14
-16.621384 -16.425282 1.2246615 15
-1.7399689 -1.7194405 -0.47549605 63
-16.845938 -16.641376 2.071692 7
-2.1462767 -2.1194735 -0.47775093 2
-16.633215 -16.419769 2.8697793 12
-2.825901 -2.7886641 -0.48747739 1
-14.656226 -14.458047 3.2607205 68
-4.0182962 -3.9639616 -0.49382445 1
-13.026919 -12.846292 3.5562983 25
-9.7689648 -9.6267824 3.1664109 24
-13.677298 -13.473534 -0.33512112 1
-9.3517733 -9.2092323 3.5168333 33
-16.561983 -16.264048 0.40517509 14
-16.54891 -16.245548 1.2153457 15
-1.7403554 -1.7078562 -0.47396958 62
-2.1564822 -2.1147354 -0.47837666 2
-16.565685 -16.239321 2.8483305 12
-2.8436387 -2.7876158 -0.48893982 1
-14.7182 -14.42319 3.263849 68
-4.0406475 -3.9582775 -0.49487031 1
-12.986118 -12.71695 3.5330195 26
-7.2246437 -7.072423 -0.52984929 1
-11.682182 -11.436043 3.7742286 17
-13.796222 -13.500833 -0.33693618 2
-9.3187351 -9.1160288 3.493022 31
-16.495579 -16.091749 0.40224305 14
-16.489731 -16.08042 1.2070767 17
-1.7488211 -1.7048163 -0.47473282 63
-16.790445 -16.362242 2.0511231 3
-2.1804628 -2.1241131 -0.48213109 1
-16.511362 -16.079042 2.8298063 11
-2.84149 -2.7670913 -0.48698995 1
-14.790011 -14.397729 3.2691679 72
-4.0537515 -3.9448559 -0.49487031 1
-12.935339 -12.583464 3.5078328 22
-7.2766943 -7.0762744 -0.53194273 1
-11.728425 -11.405393 3.7769282 19
-13.843783 -13.457795 -0.33700597 2
-9.2741013 -9.0123749 3.4650695 25
-16.479925 -15.970159 0.40056765 3
-16.501282 -15.97969 1.2038318 2
-1.7601061 -1.7044705 -0.47625926 64
-2.1676214 -2.0976388 -0.47775093 1
-5.3046637 -5.131608 0.9062205 1
-2.8511317 -2.7571557 -0.48698995 1
-4.0531702 -3.9168365 -0.4931272 1
-5.2433167 -5.0669513 1.4173293 5
-5.2525678 -5.0723472 1.6857833 9
-5.2469492 -5.0651512 -0.12729785 6
-5.2421665 -5.0587649 1.9520133 4
-5.239049 -5.0416517 0.12691391 13
-5.2459412 -5.0447564 0.38142449 11
-1.76068 -1.6925662 -0.47473282 63
-5.2349072 -5.0306296 0.63519108 10
-2.1809931 -2.0951538 -0.47900239 1
-5.2137456 -5.0085435 0.88769639 8
-2.8521478 -2.7389364 -0.48552752 1
-5.2227435 -5.0136833 1.1466647 8
-4.098444 -3.9330137 -0.49696201 1
-5.2023492 -4.9906168 1.4013014 9
-5.2414465 -5.0263672 -0.3805871 0
-5.2204804 -5.0045128 1.6695868 16
-5.2097435 -4.9942203 -0.12597147 8
-5.2053947 -4.988308 1.9318254 8
-5.2112226 -4.9782128 0.12579694 14
-5.2138329 -4.9772258 0.37776098 11
-1.7665777 -1.6864094 -0.47473282 63
-5.2091937 -4.9710603 0.62996167 11
-2.2025862 -2.1011636 -0.48213109 1
-5.1961532 -4.9551516 0.88160288 9
-2.857857 -2.7243552 -0.48479629 1
-5.1953216 -4.9508996 1.1366529 12
-4.109262 -3.9159355 -0.49661341 1
-5.1969938 -4.9507608 1.3951955 14
-5.2097845 -4.9612107 -0.37702829 1
-5.2040429 -4.9540119 1.6587892 16
-5.1990414 -4.9475217 -0.12527338 11
-5.2054467 -4.9518862 1.9250962 11
-5.198101 -4.9310913 0.12506394 16
-5.1949372 -4.924644 0.37514415 16
-1.7753031 -1.6829338 -0.47549605 63
-5.1961432 -4.924068 0.62630117 14
-2.1955669 -2.0798767 -0.47900239 1
-5.1903563 -4.9151444 0.87770307 10
-2.8817647 -2.7280104 -0.48723367 1
-5.1824431 -4.9042206 1.1300827 14
-4.1200128 -3.8988273 -0.49626479 1
-5.1914244 -4.9110026 1.3890896 15
-5.2067528 -4.9237843 -0.37556285 2
-5.1873169 -4.903687 1.6479914 22
-5.1872115 -4.9018736 -0.12457528 15
-5.2002296 -4.9124603 1.9168139 12
-5.1905379 -4.8896065 0.12447057 17
-5.1931896 -4.8886843 0.37378344 19
-1.7754487 -1.6713444 -0.47396958 62
-5.1944375 -4.8881497 0.62403512 19
-2.2028139 -2.0722001 -0.47900239 1
-5.1973581 -4.8874784 0.87599689 13
-2.8825927 -2.7097759 -0.48577127 1
-5.1793776 -4.8671627 1.1257026 15
-5.1856394 -4.8713455 1.3829837 17
-5.1918793 -4.8754992 -0.37326008 2
-5.1930361 -4.8748798 1.6443923 19
-5.1809592 -4.8618445 -0.12401681 15
-5.1863508 -4.8652 1.9054259 12
-5.1871309 -4.8523321 0.1239819 24
-5.2000093 -4.8609791 0.37305072 22
-1.7812719 -1.6651366 -0.47396958 62
-5.1881785 -4.8482208 0.6212461 22
-2.2100332 -2.0644987 -0.47900239 1
-5.1926241 -4.8489838 0.87234086 16
-2.9036424 -2.7105339 -0.48772117 1
-5.1876693 -4.8409681 1.1238253 21
-5.1753364 -4.8277698 1.375733 18
-5.1927991 -4.8423624 -0.37210867 3
-5.2100201 -4.8567243 1.6443923 19
-5.1788812 -4.8260059 -0.12356304 18
-5.1877527 -4.8325815 1.8997319 11
-5.1967106 -4.8273921 0.12380737 26
-5.2029285 -4.8314767 0.37210867 23
-1.7928289 -1.6642513 -0.47549605 63
-5.1904645 -4.8165298 0.61950302 22
-2.2432942 -2.0809529 -0.48463401 1
-5.1862307 -4.8092308 0.86844105 17
-2.8897929 -2.6787901 -0.48382133 1
-5.1964507 -4.8170238 1.1222609 22
-5.1820765 -4.8003349 1.3730617 21
-5.2008767 -4.8160663 -0.37148067 3
-5.19977 -4.8133559 1.6358441 22
-5.1904531 -4.8047314 -0.12345833 23
-5.1952419 -4.8074789 1.8966261 14
-5.195055 -4.793859 0.12338851 29
-5.1992059 -4.7943301 0.37064329 30
-1.8015144 -1.6606442 -0.47625926 64
-5.205781 -4.7970324 0.61932868 24
-2.2385614 -2.0627937 -0.48213109 1
-5.1875486 -4.7785578 0.86600363 17
-2.9074218 -2.6772604 -0.48528376 1
-5.1957932 -4.7828007 1.1185066 23
-5.1936312 -4.7791367 1.3719168 19
-5.1977096 -4.7812147 -0.37011993 5
-5.199924 -4.7815766 1.6308951 26
-5.192472 -4.7730498 -0.12310927 19
-5.2034574 -4.7814722 1.8935202 13
-5.2088084 -4.7729936 0.12331871 29
-5.1967607 -4.7586179 0.36928254 24
-1.8012199 -1.6493577 -0.47473282 63
-5.2084332 -4.7676353 0.61775988 27
-2.2544925 -2.0629683 -0.48400828 1
-5.1968737 -4.7537217 0.8647849 18
-2.9020998 -2.6536994 -0.48284638 1
-5.2022505 -4.7553053 1.1163164 27
-5.2015858 -4.7530322 1.3696271 23
-5.2084689 -4.7576537 -0.36970121 6
-5.2065105 -4.7541981 1.6277459 26
-5.1854706 -4.733325 -0.1225508 24
-5.2086983 -4.7528634 1.889379 14
-5.219522 -4.7493992 0.12317909 35
-5.2148175 -4.7417927 0.36938724 34
-1.8014417 -1.6374625 -0.47320631 62
-5.1978545 -4.7230573 0.61444795 27
-2.2825093 -2.0732858 -0.48838848 1
-5.2104974 -4.732883 0.86429745 18
-2.9289813 -2.6595666 -0.48577127 2
-5.2041922 -4.7238393 1.1131878 21
-5.2146091 -4.7299781 1.3684822 21
-5.2317915 -4.743897 -0.37011993 6
-5.2195683 -4.7311568 1.6263962 29
-5.2019601 -4.7151961 -0.1225508 23
-5.2123733 -4.7229781 1.8847204 14
-5.2101827 -4.7061095 0.1225508 32
-5.2239261 -4.7168679 0.36886385 33
-1.8129759 -1.6364266 -0.47473282 63
-5.2187486 -4.7088871 0.61497092 30
-2.2897327 -2.0653057 -0.48838848 1
-5.2204366 -4.7071075 0.86307877 20
-2.929862 -2.6408391 -0.48430881 2
-5.2191815 -4.7043233 1.1128749 28
-5.2121234 -4.6946669 1.3635212 25
-5.2349596 -4.7135787 -0.36917788 6
-5.2432938 -4.7194266 1.6286457 29
-5.2079844 -4.687645 -0.12230647 29
-5.2230844 -4.6995845 1.8826498 14
-5.2242708 -4.6874719 0.12251589 39
-5.2358971 -4.6946054 0.36854982 37
-1.8186771 -1.6300881 -0.47473282 63
-5.2232828 -4.6800051 0.61357641 32
-2.2965689 -2.0577011 -0.48838848 1
-5.216794 -4.6725526 0.85991013 19
-2.9474771 -2.6390536 -0.48577127 1
-5.2399869 -4.6900282 1.1138135 22
-5.2232738 -4.6734295 1.3623763 24
-5.2297201 -4.6775522 -0.36771247 6
-5.2414827 -4.6864266 1.6232469 29
-5.2228246 -4.6681042 -0.12227156 24
-5.2365751 -4.678751 1.8816146 15
-5.2406025 -4.6692057 0.12251589 35
-5.2373352 -4.6630187 0.36750311 37
-1.8446007 -1.6423252 -0.48007545 66
-5.2462149 -4.669281 0.61444795 36
-2.283076 -2.0312898 -0.48400828 1
-5.2360396 -4.6569529 0.86039764 22
-2.9477699 -2.6208348 -0.48430881 1
-5.2504196 -4.666461 1.1125621 30
-5.2395554 -4.6551685 1.3623763 27
-5.246016 -4.6592684 -0.36771247 7
-5.2548947 -4.6655135 1.622347 29
-5.2405829 -4.6511722 -0.12230647 31
-5.25143 -4.6591611 1.8810968 16
-5.2553706 -4.64956 0.12248099 42
-5.2520857 -4.6433845 0.36739844 42
-1.8356142 -1.6228719 -0.47625926 64
-5.2535238 -4.6430249 0.61340207 36
-2.3316033 -2.0599287 -0.49276862 1
-5.2507768 -4.637332 0.86015391 21
-2.9449954 -2.6000185 -0.4823589 2
-5.2548275 -4.6376476 1.110059 22
-5.2646074 -4.6446424 1.364666 24
-5.2592521 -4.6382856 -0.36750311 7
-5.2638383 -4.6406999 1.6200974 29
-5.2447848 -4.622273 -0.12202723 33
-5.2691116 -4.6420789 1.8816146 15
-5.2820849 -4.6404252 0.12272533 39
-5.2727637 -4.6289768 0.36771247 34
-1.8265138 -1.6035025 -0.4724431 61
-5.2652068 -4.6207156 0.61287922 37
-2.33284 -2.0465665 -0.49151716 1
-5.2699175 -4.6215925 0.86064136 24
-2.9659944 -2.6001923 -0.48430881 1
-5.2754421 -4.6231809 1.1109977 31
-5.2719278 -4.6184745 1.3623763 27
-5.2769122 -4.6212163 -0.36760777 7
-5.285872 -4.6274304 1.6218971 29
-5.2608881 -4.6039367 -0.12202723 38
-5.2794666 -4.6185713 1.879544 16
-5.2831821 -4.6088138 0.12237628 43
-5.2919006 -4.6131682 0.3679218 42
-1.8616978 -1.6229187 -0.48007545 66
-5.284308 -4.6049261 0.61322778 34
-2.3072014 -2.0098648 -0.48463401 1
-5.2845192 -4.6018662 0.86039764 22
-2.9780471 -2.5924299 -0.48479629 2
-5.2900581 -4.6034412 1.1106849 25
-5.2894974 -4.6013336 1.3627579 24
-5.2899976 -4.6001472 -0.36739844 8
-5.3137584 -4.6191788 1.6254963 29
-5.2859821 -4.5934162 -0.12223665 31
-5.3057666 -4.6089811 1.8831675 18
-5.2931905 -4.5851078 0.12223665 32
-5.3094821 -4.5959749 0.36802649 31
-1.8554765 -1.6061308 -0.4770225 64
-5.3048692 -4.5903645 0.6137507 33
-2.3112147 -1.9992148 -0.48400828 1
-5.2960463 -4.5794964 0.85966641 20
-2.9780681 -2.574229 -0.48333386 2
-5.3195462 -4.5965729 1.1135007 29
-5.3025556 -4.5802751 1.3619947 25
-5.3060236 -4.5816517 -0.36739844 7
-5.3239479 -4.59551 1.6236967 29
-5.3110676 -4.5827751 -0.12244608 32
-5.3232851 -4.5916939 1.8836851 17
-5.3258414 -4.580946 0.12262061 40
-5.3179183 -4.5709047 0.36750311 34
-1.8640492 -1.6022042 -0.47778577 65
-5.3284173 -4.57831 0.61462229 31
-2.3181794 -1.9911349 -0.48400828 1
-5.3225427 -4.5700336 0.86137259 18
-2.9779975 -2.5560613 -0.48187143 1
-5.3340592 -4.5766892 1.1131878 24
-5.3289433 -4.5706849 1.364666 24
-5.3295646 -4.5696039 -0.3679218 7
-5.3384781 -4.5756297 1.6232469 26
-5.3315892 -4.5681095 -0.1225508 27
-5.3554192 -4.5869088 1.889379 15
-5.3425217 -4.5645595 0.12265551 29
-5.3391228 -4.5584321 0.3679218 30
-1.8633795 -1.5909147 -0.47625926 64
-5.3481164 -4.5644951 0.61514527 30
-2.327775 -1.9860007 -0.48463401 1
-5.3482404 -4.5613751 0.86307877 20
-2.9985423 -2.5564749 -0.48382133 1
-5.3446965 -4.5551314 1.1122491 28
-5.3560257 -4.5631733 1.3677189 24
-5.350771 -4.5570846 -0.36834049 7
-5.3551054 -4.5591645 1.6236967 29
-5.3406162 -4.5452213 -0.12241118 27
-5.3676581 -4.5666203 1.8883438 14
-5.3797722 -4.5639925 0.12314418 34
-5.3732839 -4.5552659 0.36917788 33
-1.8632076 -1.5789969 -0.47473282 31
-5.36025 -4.5409989 0.61462229 29
-2.3320231 -1.974903 -0.48400828 1
-5.3732185 -4.5503769 0.86454117 18
-3.0074477 -2.5459924 -0.48382133 1
-5.3711205 -4.5453796 1.1144392 22
-5.3817096 -4.5511189 1.3700087 21
-5.3750634 -4.54389 -0.36886385 8
-5.3881531 -4.5533428 1.6286457 26
-5.3656139 -4.5342956 -0.12262061 23
-5.3894687 -4.5528426 1.8904144 13
-5.3872852 -4.5365167 0.12293475 32
-5.3960576 -4.5406833 0.36959657 28
-1.886734 -1.587652 -0.47931221 33
-5.3852153 -4.5299573 0.61566812 29
-2.338903 -1.9667501 -0.48400828 1
-5.4004984 -4.5395927 0.86624736 18
-3.0076396 -2.5272906 -0.4823589 1
-5.4013567 -4.5370975 1.1172551 26
-5.3975635 -4.5323048 1.3700087 24
-5.4000702 -4.5328054 -0.3694919 8
-5.4174495 -4.5457802 1.6326947 26
-5.3944535 -4.5248799 -0.12289985 28
-5.4120412 -4.5380239 1.8924849 13
-5.4107585 -4.5240974 0.12310927 32
-5.4272003 -4.534627 0.37064329 30
-1.8802115 -1.5709863 -0.47625926 32
-5.4178162 -4.5251808 0.6175856 22
-2.3427215 -1.9560416 -0.48338255 1
-5.4117384 -4.5168986 0.86551613 17
-3.016444 -2.5167758 -0.4823589 1
-5.4292974 -4.528338 1.119758 22
-5.4223976 -4.5209808 1.3722984 21
-5.4219975 -4.5190415 -0.36991057 8
-5.4437647 -4.5355735 1.6358441 22
-5.4301896 -4.5226603 -0.12335361 25
-5.4456649 -4.5339375 1.8986967 13
-5.4511361 -4.525619 0.12366775 30
-5.4406714 -4.5153294 0.37053862 27
-1.8826617 -1.5619066 -0.47549605 31
-5.462719 -4.530406 0.62089753 27
-2.3373687 -1.9377664 -0.4808796 1
-5.4488707 -4.5157142 0.86892849 19
-3.0282681 -2.5087638 -0.48284638 1
-5.459496 -4.5229111 1.1228868 23
-5.4547806 -4.5157967 1.3764962 21
-5.4485097 -4.5090008 -0.37064329 8
-5.4745779 -4.5289664 1.6403431 22
-5.4544024 -4.5122757 -0.12356304 26
-5.477046 -4.5293961 1.9043906 12
-5.4784536 -4.5176978 0.12394699 29
-5.4579411 -4.4975801 0.37064329 23
-1.9002255 -1.5653108 -0.478549 32
-5.4769602 -4.5100441 0.62072319 19
-2.359031 -1.9425617 -0.48400828 2
-5.4806743 -4.511498 0.87160963 15
-3.0273738 -2.4911399 -0.48138395 1
-5.4813519 -4.5088468 1.1241382 20
-5.4879231 -4.5126462 1.3810756 18
-5.4788613 -4.5035906 -0.37169001 9
-5.5016122 -4.5206847 1.6439424 22
-5.4763007 -4.4982858 -0.12370266 22
-5.5107393 -4.5249615 1.9106023 12
-5.5143046 -4.5150142 0.12440075 22
-5.50916 -4.5075903 0.37305072 23
-1.9023668 -1.5565149 -0.47778577 32
-5.5119352 -4.508255 0.62298924 21
-2.3596804 -1.9293139 -0.48275682 2
-5.5148335 -4.5074139 0.87453443 15
-3.0360508 -2.4805579 -0.48138395 1
-5.5138865 -4.5034304 1.1275797 17
-4.4271874 -3.615876 -0.50009966 1
-5.5264544 -4.512085 1.3867998 16
-5.5208521 -4.505908 -0.37346941 7
-5.5400076 -4.5199313 1.6506908 22
-5.5136657 -4.4968352 -0.12419132 21
-5.5384784 -4.5154648 1.9147433 12
-5.5300317 -4.4957376 0.12440075 19
-5.5388136 -4.4996667 0.37399277 17
-1.9504546 -1.5845263 -0.48847106 36
-5.5415587 -4.5002913 0.62455803 18
-2.3694677 -1.9235553 -0.48338255 2
-5.558279 -4.5106521 0.87892181 13
-3.0631902 -2.4849522 -0.48430881 1
-5.5679307 -4.5152617 1.1354015 15
-4.4212122 -3.5853412 -0.49800789 2
-5.5558958 -4.5038953 1.3902344 15
-5.559823 -4.5054712 -0.37503949 7
-5.5860367 -4.5250983 1.6596888 19
-5.5588551 -4.5014734 -0.12485451 18
-5.582736 -4.5191989 1.9245785 9
-5.572144 -4.4977589 0.12499414 14
-5.5886869 -4.5078917 0.37629557 15
-5.5898042 -4.5071831 0.62821859 13
-2.3638635 -1.9053557 -0.4808796 2
-5.589448 -4.5036769 0.88135916 9
-3.0625699 -2.466773 -0.48284638 1
-5.6128922 -4.5193367 1.141346 10
-4.439908 -3.5748844 -0.49870515 2
-5.6037011 -4.510325 1.3982484 12
-5.5941896 -4.501061 -0.37629557 7
-5.6382422 -4.534884 1.6704865 13
-5.6088204 -4.5096083 -0.12562242 14
-5.6526852 -4.5432525 1.9432135 5
-5.6330609 -4.5145488 0.12600638 13
-5.626214 -4.5058346 0.37776098 11
-5.6552739 -4.5274906 0.63379657 9
-2.3705006 -1.8970921 -0.4808796 3
-5.6562881 -4.5250611 0.88940257 8
-3.0680609 -2.4535887 -0.4823589 1
-5.6810927 -4.5416541 1.1519835 6
-4.4648094 -3.5693169 -0.50009966 2
-5.685359 -4.5434389 1.414658 6
-5.6582403 -4.5201516 -0.37954038 6
-5.7134256 -4.5626016 1.6880326 6
-5.6745377 -4.5299244 -0.12673938 7
-11.157332 -8.9035902 3.8248281 6
-5.7113757 -4.544663 0.12740256 9
-16.961676 -13.487098 1.1356903 34
-16.9757 -13.493408 1.8972062 19
-2.3771083 -1.8888059 -0.4808796 3
-16.988165 -13.493649 2.6638205 50
-15.04684 -11.943091 3.0426507 32
-4.4897261 -3.5636194 -0.50149411 2
-15.050385 -11.941629 3.7345138 41
-7.9335651 -6.2925768 -0.53068662 3
-11.718225 -9.2910814 3.4525487 40
-14.065153 -11.147909 -0.31327069 5
-11.19137 -8.866991 3.8258634 16
-17.029417 -13.453846 0.37882194 90
-17.072924 -13.478548 1.139982 100
-17.044596 -13.45135 1.8996465 33
-2.3774834 -1.8756036 -0.47962815 3
-17.085043 -13.473602 2.6716199 72
-15.043441 -11.855042 3.0335774 17
-4.4864883 -3.5355945 -0.499751 2
-14.997907 -11.814909 3.711235 33
-7.9382219 -6.2512527 -0.52953523 4
-11.69393 -9.2055244 3.4359026 50
-14.030124 -11.040619 -0.31163016 7
-11.205551 -8.8147326 3.8201692 24
-17.10774 -13.419007 0.37952003 93
-17.135593 -13.431189 1.1410286 100
-17.119671 -13.413894 1.9027841 30
-2.3809054 -1.8648567 -0.47900239 3
-17.152292 -13.429786 2.6747887 70
-15.090956 -11.807326 3.0348291 13
-4.489388 -3.5125456 -0.49870515 3
-14.949364 -11.692332 3.6891015 33
-7.9536991 -6.2185855 -0.52911657 4
-11.656898 -9.1106472 3.4156568 52
-13.991365 -10.931252 -0.30991983 7
-11.231686 -8.7719984 3.8186164 22
-17.195499 -13.391153 0.38042754 96
-17.215467 -13.397054 1.1432267 100
-17.218287 -13.394423 1.9085364 31
-2.3811631 -1.8516839 -0.47775093 3
-17.228842 -13.392982 2.6794198 70
-15.139881 -11.760632 3.0363934 13
-4.5126362 -3.5054076 -0.49992532 3
-14.900147 -11.570244 3.6669674 35
-7.9564252 -6.1760879 -0.52786052 4
-11.627048 -9.0221128 3.3976607 52
-13.955175 -10.824741 -0.30827934 7
-11.259182 -8.7303734 3.8175812 23
-17.286432 -13.365294 0.38140488 100
-17.286665 -13.360654 1.1450062 99
-17.305935 -13.365902 1.9130685 28
-2.3907394 -1.845775 -0.47837666 3
-17.311632 -13.360658 2.6850257 66
-15.175666 -11.70795 3.0357676 14
-4.5311561 -3.4945014 -0.50062257 3
-14.865812 -11.460624 3.6486499 33
-7.9842634 -6.1531534 -0.52827919 3
-11.587458 -8.9267635 3.3769653 50
-13.919709 -10.723488 -0.3067086 7
-11.294193 -8.6977024 3.8196516 22
-17.375071 -13.342 0.38238224 97
-17.368055 -13.326979 1.1473089 99
-17.385689 -13.330871 1.916729 25
-2.4031177 -1.8426449 -0.47962815 4
-17.390503 -13.329742 2.6903877 64
-15.19606 -11.639288 3.0317004 11
-4.5306706 -3.4689744 -0.49922809 3
-14.828913 -11.353974 3.6303322 37
-8.0014515 -6.1242146 -0.52806985 3
-11.551992 -8.8385544 3.3580692 53
-13.86175 -10.601944 -0.30461431 7
-11.329089 -8.6617451 3.8212047 20
-17.45175 -13.304306 0.38304543 91
-17.455048 -13.301998 1.1501352 63
-17.45833 -13.294875 1.9198667 25
-2.4063914 -1.8318518 -0.47900239 4
-17.48432 -13.305019 2.6977 72
-17.586573 -13.377992 3.4997523 52
-4.5358057 -3.4491072 -0.49853083 3
