# .PCD v0.7 - Point Cloud Data file format
VERSION 0.7
FIELDS x y z intensity
SIZE 4 4 4 4
TYPE F F F F
COUNT 1 1 1 1
WIDTH 1419
HEIGHT 1
VIEWPOINT 0 0 0 1 0 0 0
POINTS 1419
DATA ascii
4.1912413 1.7206635 -0.39638433 5
16.491932 6.7672005 3.4650917 10
6.3585668 2.6078398 -0.36017609 5
14.688234 6.0210929 3.6649027 1
13.160062 5.3919725 -0.24824303 14
12.301517 5.0377002 3.561868 21
1.534657 0.62628239 -0.44413349 6
18.086344 7.377214 0.34095022 21
1.7522068 0.71434861 -0.43685496 6
23.267946 9.4812727 1.3167728 27
2.0526435 0.83641559 -0.43084675 100
23.275606 9.4796448 2.198765 28
2.460804 1.0017309 -0.42080876 5
23.252489 9.4607821 3.0823197 24
3.0782411 1.2518216 -0.40801859 3
23.277391 9.4614334 3.9796932 14
4.2046056 1.7090226 -0.39708155 4
14.196376 5.7674432 2.9785285 6
6.3768845 2.5893836 -0.36069945 4
15.805219 6.4146194 3.937993 30
13.173243 5.34375 -0.24813831 10
12.315448 4.9932742 3.5608325 26
1.5368339 0.62092125 -0.44413349 6
18.024832 7.2788568 0.33930969 21
1.7655319 0.71260458 -0.43955436 6
23.230516 9.3715935 1.3127953 27
2.0428061 0.82410342 -0.42817542 97
23.245722 9.373024 2.1928384 27
2.4771109 0.99830437 -0.42299888 4
23.228292 9.3565588 3.0747638 21
3.0825918 1.2410696 -0.40801859 3
23.20582 9.3380947 3.9618599 21
4.214242 1.695824 -0.39743021 4
16.781025 6.7493343 3.5158467 7
6.3914437 2.5693417 -0.36101347 4
15.715401 6.3143673 3.910099 18
13.150993 5.2813358 -0.24737041 8
12.359696 4.9610462 3.5685973 42
1.5336107 0.61340094 -0.44258058 6
17.944294 7.1735778 0.33732012 21
1.771628 0.707883 -0.44045416 6
23.196312 9.2637844 1.3090271 30
2.0365539 0.81332737 -0.42626733 93
23.198732 9.2600574 2.185343 27
2.4677374 0.98452687 -0.42080876 4
23.192585 9.2482195 3.0657456 24
3.0979691 1.2347121 -0.40948102 3
16.431772 6.545639 2.8014288 10
4.2127318 1.6781527 -0.39673293 4
14.103142 5.6151786 2.9506705 8
6.407795 2.5499737 -0.36143214 5
15.811589 6.2889972 3.9285452 13
13.182357 5.2405658 -0.24761474 12
12.407455 4.9300079 3.5773969 50
1.5339465 0.60733241 -0.44206294 7
17.859522 7.0674791 0.33526072 23
1.7722757 0.70097899 -0.44000426 5
23.156328 9.1589022 1.3050495 27
2.0412064 0.80693471 -0.42664891 94
23.141973 9.1438723 2.176976 23
2.4729955 0.97663414 -0.42112163 4
23.145332 9.1358604 3.0552647 24
3.1022606 1.2238898 -0.40948102 3
23.151243 9.1335239 3.9418361 14
4.2111492 1.6605167 -0.39603567 4
14.11718 5.5637522 2.9495256 9
6.4055085 2.5231974 -0.36080414 4
16.346596 6.4358101 4.0558677 18
13.169888 5.1851106 -0.24705628 7
12.474072 4.9086399 3.5918908 49
1.5378559 0.60267866 -0.44258058 6
17.784184 6.9695396 0.33341077 20
1.7673326 0.69225466 -0.43820465 5
23.124926 9.0532551 1.3014908 30
2.0513241 0.80266577 -0.42817542 97
23.116226 9.0405445 2.1715724 23
2.4707017 0.96626884 -0.42018303 4
23.099695 9.0294313 3.0452714 20
3.1118493 1.2157619 -0.41021225 3
16.082169 6.2798829 2.7344749 6
4.2187762 1.6465302 -0.39620999 2
16.478369 6.4312797 3.4383781 10
6.4008155 2.4968593 -0.36007139 3
16.002909 6.2392788 3.9654372 34
13.182319 5.1369257 -0.24695155 8
12.541535 4.8846955 3.6063848 49
1.5452486 0.59967345 -0.44413349 5
17.709587 6.8691049 0.33156082 22
1.7624705 0.68326324 -0.43640503 5
23.061409 8.9356699 1.2961524 26
2.0576355 0.79727793 -0.42893866 99
23.07362 8.9357824 2.1647744 22
2.4777443 0.95906413 -0.42080876 4
23.049614 8.917223 3.0345469 20
3.0957067 1.1970191 -0.40753111 3
16.27351 6.2892165 2.7632589 6
4.2427979 1.6397122 -0.39795309 4
17.114231 6.6106963 3.5662203 5
6.4094906 2.4745054 -0.36007139 3
16.00823 6.177062 3.9613881 30
13.2095 5.0944738 -0.24712607 8
12.616189 4.863131 3.6229494 54
1.5509394 0.59566069 -0.44516876 5
17.653185 6.7764249 0.33005992 20
1.7739418 0.68059754 -0.43865454 6
23.034645 8.8329515 1.2929076 29
2.0585725 0.78938794 -0.42855701 81
23.045137 8.8323622 2.1591964 22
2.4976788 0.95676947 -0.4236246 4
23.036106 8.8196802 3.0286973 20
3.0998666 1.1862049 -0.40753111 3
23.022369 8.8051958 3.9039791 23
4.2336092 1.6191972 -0.39655861 2
17.228891 6.5859699 3.5853012 9
6.4423442 2.4613822 -0.36143214 3
17.602627 6.7217846 4.3501034 18
13.212255 5.0426316 -0.24684684 8
12.680017 4.8369608 3.6364076 52
1.5385629 0.5847522 -0.44102767 6
17.581392 6.6785512 0.32827976 20
1.7854158 0.67786002 -0.44090405 5
23.007456 8.7305212 1.2896628 29
2.0576448 0.78080392 -0.4277938 80
23.103769 8.7624693 2.1618109 48
2.4936144 0.94524485 -0.42237309 4
23.113163 8.7567921 3.0347905 48
3.100275 1.1739719 -0.40704364 3
16.195084 6.1293125 2.7426095 6
4.2280536 1.6001809 -0.39551273 2
17.167311 6.493834 3.5677466 12
6.445292 2.4367616 -0.36111811 3
17.547592 6.630692 4.3307576 20
13.227907 4.9957714 -0.24681193 6
12.740203 4.8090401 3.6488311 50
1.5460191 0.58141845 -0.44258058 6
17.499775 6.5777345 0.32632509 20
1.7804744 0.66888183 -0.43910447 5
22.964867 8.6227808 1.2855805 29
2.0603576 0.77361703 -0.4277938 80
23.121161 8.6768618 2.1605909 11
2.489501 0.93375921 -0.42112163 4
3.1229434 1.1701069 -0.40948102 3
22.955631 8.5964651 3.882391 16
4.2298827 1.5840138 -0.39516413 2
17.399481 6.5123258 3.6112511 8
6.4556303 2.4149466 -0.3612228 4
16.261871 6.0800676 4.0081778 12
13.256504 4.9537692 -0.24702136 6
12.800345 4.7807636 3.6612544 54
1.5426074 0.57399756 -0.44102767 6
17.428917 6.4817529 0.32457986 22
1.7718383 0.65858936 -0.43640503 5
22.936785 8.5210094 1.2823358 29
2.0814488 0.77325767 -0.43160996 86
23.169987 8.6030302 2.162334 3
2.4853373 0.92231494 -0.41987014 4
23.024834 8.5400028 3.0152915 11
3.1307318 1.1605778 -0.4099685 3
16.220806 6.0099225 2.7397933 12
4.2540684 1.5761621 -0.39690727 4
17.249048 6.3874602 3.5753791 9
6.4527826 2.3882363 -0.36059478 4
17.540451 6.4884176 4.3177104 11
13.277467 4.9088492 -0.24709117 6
12.871319 4.7561374 3.6767833 52
1.5645436 0.57595086 -0.44672167 6
17.357601 6.3863544 0.32283461 22
1.7814426 0.65509033 -0.43820465 5
22.885778 8.4112587 1.2778348 32
2.0657084 0.75921416 -0.4277938 80
23.080183 8.478137 2.1511779 3
2.4922504 0.91499496 -0.4204959 4
22.976234 8.4308529 3.0050545 23
3.1086719 1.1400741 -0.40655616 3
22.866711 8.381609 3.8573616 22
4.2670274 1.5640446 -0.3976045 2
16.891489 6.1880956 3.4967656 2
6.453577 2.362952 -0.36017609 6
17.552015 6.4231281 4.315011 9
13.283252 4.8583531 -0.24688175 6
12.953161 4.7350597 3.6954186 50
1.5592836 0.56784147 -0.44465113 6
17.298985 6.29632 0.32133371 22
1.7873811 0.65020072 -0.43910447 5
22.844099 8.3100634 1.273962 29
2.0683458 0.75199938 -0.4277938 80
32.948231 11.972633 3.0670106 8
2.502856 0.90898758 -0.42174736 4
22.951408 8.3309622 2.9979861 30
3.1294272 1.1353079 -0.40874982 3
22.825674 8.2808027 3.8457854 22
4.2724614 1.5491391 -0.3976045 2
16.949902 6.1424775 3.5043983 5
6.4843211 2.3485703 -0.36143214 6
17.559671 6.3565092 4.3114119 12
13.28613 4.8095098 -0.24663742 8
13.019656 4.710485 3.7099123 49
1.5539863 0.55977583 -0.44258058 6
17.231346 6.2070632 0.31969318 21
1.7968612 0.64691073 -0.44090405 5
22.809074 8.2072744 1.2704031 29
2.0672636 0.74344558 -0.42703056 79
23.071308 8.292551 2.1449027 3
2.5058563 0.90068328 -0.42174736 4
22.922865 8.2346659 2.990674 46
3.1350431 1.1255956 -0.40899354 3
22.778204 8.1737356 3.8329577 29
4.2778425 1.534217 -0.3976045 2
21.390593 7.6715803 4.4172287 10
6.5033541 2.3310997 -0.36206019 7
17.589823 6.3015428 4.3136616 21
13.306602 4.7644539 -0.24670722 8
13.079675 4.6806273 3.7223358 52
1.5558343 0.55461907 -0.44258058 6
17.151188 6.1106396 0.31780833 21
1.7991085 0.64063406 -0.44090405 5
22.777372 8.1061707 1.2670536 28
2.0715671 0.73724389 -0.42741215 96
23.023594 8.1892834 2.1379304 3
2.5015402 0.88928342 -0.4204959 4
22.874783 8.127347 2.9806807 46
3.1464355 1.1173031 -0.4099685 3
22.745165 8.0723658 3.822633 26
4.2829061 1.5200236 -0.3976045 4
21.372837 7.581109 4.4080696 17
6.518981 2.3110552 -0.36247885 6
17.534567 6.2127652 4.2947655 25
13.330692 4.7206426 -0.24684684 8
13.146924 4.6529922 3.7368295 49
1.5614043 0.55047059 -0.44361585 6
17.083771 6.0194955 0.3161678 21
1.7939818 0.63176048 -0.43910447 5
22.735817 8.0020962 1.2631807 28
2.0833869 0.73326862 -0.42932025 99
22.835899 8.0328293 2.1178844 43
2.5083563 0.88185555 -0.42112163 5
22.839331 8.0250912 2.9723935 52
3.1428251 1.1036814 -0.40899354 3
22.719152 7.9739442 3.8135598 26
4.2731466 1.4997845 -0.39620999 2
17.321632 6.0761418 3.5681283 11
6.5157003 2.2843192 -0.36185086 6
17.471548 6.1218729 4.2740698 25
13.35841 4.6780558 -0.24705628 7
13.226906 4.6294055 3.7549467 45
1.5724373 0.54819626 -0.44620407 5
17.02914 5.9335184 0.31477162 21
1.7998565 0.62677658 -0.44000426 5
22.688162 7.8964176 1.2589939 28
2.0859339 0.72599119 -0.42932025 83
2.5076876 0.87179768 -0.4204959 4
22.790325 7.9185991 2.9624002 49
3.1354072 1.0887963 -0.40753111 3
22.677799 7.8706312 3.8019836 25
4.2934136 1.4900863 -0.3976045 2
21.404835 7.4246469 4.403872 15
6.5104251 2.2569802 -0.36111811 6
17.386013 6.023849 4.2479758 25
13.372769 4.6307402 -0.24702136 7
13.259418 4.5888901 3.7596056 59
1.5706884 0.54144526 -0.44516876 5
16.96278 5.8440714 0.31316596 21
1.8057187 0.62175852 -0.44090405 5
22.649487 7.7944307 1.2553304 28
2.0717478 0.71295631 -0.42588571 77
22.866926 7.8647957 2.1156185 3
2.5200562 0.86624902 -0.42206025 5
22.765259 7.8209434 2.9555755 46
3.135433 1.0765578 -0.40704364 3
22.628532 7.76513 3.7891562 25
4.3004737 1.4757358 -0.39777881 4
21.436193 7.3517895 4.4050164 10
6.5333772 2.2394264 -0.36195552 6
17.316601 5.9321737 4.2259307 29
13.407773 4.5905061 -0.24737041 6
13.242451 4.5313287 3.7502882 53
1.5670834 0.53408921 -0.44361585 6
16.916826 5.7622538 0.31194431 21
1.8115672 0.61670893 -0.44180387 4
22.625505 7.6979461 1.2525042 37
2.0797999 0.70761681 -0.42703056 79
22.833881 7.7643962 2.1100404 3
2.5193233 0.85617751 -0.42143452 5
22.734152 7.7216325 2.9480195 44
3.1429315 1.0668818 -0.40753111 3
22.599377 7.6670594 3.7797699 28
4.2867312 1.4543153 -0.39603567 4
17.174213 5.8231773 3.5250056 5
6.5543962 2.221092 -0.36268821 6
17.267063 5.8479404 4.2088342 21
13.438867 4.5488076 -0.24764964 6
13.217929 4.4714537 3.7389002 56
1.5689383 0.52861542 -0.44361585 6
16.825024 5.6655202 0.30988494 21
1.8100151 0.60913795 -0.44090405 5
22.595449 7.5998139 1.2493641 40
2.0841181 0.70097792 -0.42741215 64
22.823072 7.6719513 2.1065543 3
2.5222969 0.84737754 -0.42143452 5
22.696987 7.6207404 2.9397326 49
3.1654558 1.0622203 -0.4099685 3
22.569815 7.5692883 3.7703838 28
4.2880034 1.4380771 -0.39568707 4
17.211191 5.7688036 3.52844 7
6.5602155 2.1975665 -0.36258355 6
17.215298 5.7635069 4.191288 27
13.485006 4.5120187 -0.24820814 7
13.187654 4.4099736 3.7259591 61
1.5689406 0.5225262 -0.44309825 6
16.774496 5.5833845 0.30859345 21
1.7973378 0.59789467 -0.43730485 5
22.551712 7.4975858 1.2454911 37
2.0940044 0.69617671 -0.42893866 66
22.827024 7.584693 2.1044626 7
2.5139914 0.83483201 -0.4195573 5
22.642435 7.5145841 2.9292519 47
3.1578398 1.0474138 -0.4085061 3
22.532349 7.4693189 3.7597463 25
4.3043442 1.4268605 -0.39673293 5
21.51573 7.1281495 4.4057798 17
6.5602627 2.1721408 -0.36216486 6
17.13356 5.669703 4.1665435 21
13.523456 4.4724569 -0.24862698 6
13.173619 4.3542089 3.7176769 59
1.5780951 0.51946205 -0.44516876 5
16.698906 5.4935546 0.3068482 20
1.7975625 0.5910089 -0.43685496 6
22.513231 7.3976264 1.2419324 37
2.1020169 0.69070208 -0.43008351 84
22.868505 7.5099316 2.1058569 7
2.5319052 0.83097994 -0.42206025 6
22.610052 7.4163265 2.9216959 52
3.1614771 1.0363837 -0.4085061 3
22.503847 7.3727913 3.7506733 25
4.3092985 1.4118278 -0.39673293 4
21.536749 7.051785 4.4050164 17
6.5621104 2.1473627 -0.36185086 6
17.069899 5.5826063 4.1462979 25
13.557992 4.4314394 -0.24897604 6
13.157521 4.2979975 3.7088771 59
1.5798986 0.51395071 -0.44516876 5
16.655224 5.4148231 0.30569634 20
1.8088815 0.58774114 -0.43910447 5
22.472431 7.2974105 1.2382689 42
2.0801406 0.67547834 -0.42512247 61
22.58568 7.3298168 2.0774441 49
2.5347905 0.82213628 -0.42206025 5
22.571598 7.3165507 2.913409 52
3.1537442 1.0216718 -0.40704364 3
22.456152 7.2704563 3.7384713 27
4.3066187 1.394321 -0.39603567 4
21.57618 6.9813943 4.4080696 17
6.5752673 2.1262887 -0.36216486 6
17.005836 5.4960146 4.1260524 24
13.580992 4.3865418 -0.24911566 6
13.139351 4.2413635 3.6995597 54
1.5706482 0.50488502 -0.44206294 5
16.611197 5.336473 0.30454451 20
1.8183436 0.58380663 -0.44090405 5
22.440714 7.2006097 1.2351286 42
2.0937021 0.67181152 -0.42741215 64
22.546621 7.2302527 2.0715177 52
2.5395255 0.81388646 -0.42237309 5
22.549738 7.2225723 2.9073153 49
3.1743066 1.0161042 -0.4092373 3
22.409897 7.1691585 3.7265823 24
4.3114591 1.3792806 -0.39603567 4
21.592936 6.9036498 4.4065433 17
6.5921612 2.1063645 -0.36268821 6
16.945093 5.4111328 4.1067061 28
13.615269 4.3451905 -0.24946471 6
13.108063 4.1807995 3.6866186 61
1.5705599 0.4988142 -0.44154531 6
16.524893 5.2451863 0.30262473 20
1.8203706 0.5774554 -0.44090405 6
22.414972 7.110446 1.2324072 39
2.0997777 0.66568518 -0.42817542 81
2.5348184 0.80263108 -0.42112163 4
22.51236 7.1240454 2.899272 52
3.168196 1.0025768 -0.40801859 3
22.390228 7.08111 3.7193863 27
4.3162479 1.3642212 -0.39603567 4
21.609415 6.8258629 4.4050164 17
6.6032825 2.0845447 -0.36289757 6
16.888609 5.3314486 4.0887103 26
13.641047 4.3036232 -0.24967413 7
13.079479 4.1239438 3.6747131 64
1.5851073 0.49765426 -0.44516876 5
16.46397 5.1658092 0.30119365 22
1.8055403 0.56616831 -0.43685496 6
22.381256 7.0181527 1.229267 42
2.1038465 0.65930575 -0.42855701 81
22.667566 7.0992427 2.0781415 10
2.537466 0.7942214 -0.42112163 4
22.463863 7.0268369 2.8900099 50
3.1771865 0.99384373 -0.40874982 3
22.364567 6.9914913 3.7112517 27
4.3169446 1.348713 -0.39568707 4
21.624435 6.7518306 4.4034901 17
6.5987196 2.0590646 -0.36226952 6
16.835506 5.2533517 4.0716138 24
13.670514 4.2631292 -0.24995336 6
13.06173 4.0707726 3.6659131 59
1.594129 0.49468565 -0.44723931 5
16.40461 5.0874944 0.29979745 20
1.816715 0.56306183 -0.43910447 6
22.331211 6.9169431 1.2251849 42
2.1022708 0.65116429 -0.4277938 80
22.643398 7.0093102 2.0737836 7
2.5438604 0.78696936 -0.42174736 4
22.420668 6.9317775 2.881479 47
3.1711531 0.97981781 -0.40753111 3
22.319004 6.8918123 3.6996756 24
4.3328156 1.3379159 -0.39673293 4
21.644831 6.6794987 4.4031086 20
6.6150537 2.0401154 -0.36279288 6
16.764355 5.166997 4.0500188 24
13.704425 4.2212672 -0.25030243 6
13.061088 4.0206165 3.661772 37
1.5866109 0.48628709 -0.44465113 4
16.351524 5.0085263 0.29850596 22
1.8223957 0.55785894 -0.44000426 5
22.290285 6.8190789 1.221626 39
2.104531 0.64382148 -0.4277938 80
22.623907 6.9168234 2.0697746 10
2.5541482 0.78039551 -0.42299888 4
22.391565 6.8372445 2.8746543 57
3.1764529 0.96932101 -0.40777487 3
22.278677 6.7942858 3.689038 25
4.3298354 1.3204618 -0.39603567 4
21.692427 6.6113491 4.4080696 20
6.6316886 2.0199201 -0.36331624 6
16.702124 5.0840411 4.030673 20
13.720987 4.1739893 -0.25033733 6
13.071347 3.9738729 3.6607368 22
1.5716578 0.47570851 -0.4399924 4
16.31723 4.9357901 0.29756355 24
1.824332 0.55149376 -0.44000426 5
16.308632 4.9269681 0.89285153 33
2.1030071 0.63533527 -0.42703056 79
16.305964 4.9230647 1.490189 16
2.5455096 0.76805067 -0.42112163 4
16.287867 4.9113903 2.0888407 14
3.1798167 0.95822793 -0.40777487 3
16.272272 4.9005008 2.6916118 12
4.3401423 1.3070621 -0.39655861 5
16.271023 4.8970194 3.3029039 11
6.6425233 1.9979107 -0.36352557 6
14.801257 4.4490442 3.5681736 9
13.760372 4.133544 -0.25079107 6
13.075886 3.9254467 3.6581485 18
1.5844142 0.47353983 -0.44309825 5
16.242388 4.8513274 0.2958881 20
1.8262461 0.54512179 -0.44000426 6
16.258739 4.850039 0.88918805 31
2.0976861 0.62574708 -0.42550406 76
16.246675 4.8433442 1.4832165 26
2.5462823 0.75859588 -0.42080876 4
16.240221 4.8352571 2.0805535 16
3.1945586 0.95051837 -0.4092373 3
16.238157 4.828464 2.6831641 20
4.3427687 1.2913352 -0.39638433 4
16.227791 4.8223081 3.2906921 18
6.6456285 1.973573 -0.36331624 6
14.842852 4.4051089 3.5744722 35
13.770881 4.0843582 -0.25072128 6
13.087657 3.8792269 3.6576309 20
1.5860575 0.46800587 -0.44309825 5
16.18634 4.7731037 0.29456171 22
1.8243992 0.53764236 -0.43910447 6
16.21043 4.7740669 0.88562912 31
2.114924 0.62285751 -0.42855701 81
16.192764 4.7657852 1.4767668 27
2.5527048 0.75081837 -0.42143452 4
16.171299 4.7533426 2.0695853 18
3.1978574 0.93936062 -0.4092373 3
16.179094 4.7495003 2.6706495 19
4.3376913 1.2733632 -0.39551273 5
16.150331 4.7379951 3.271611 18
6.6505613 1.9497998 -0.36321157 6
14.88619 4.3614936 3.5812209 52
13.808084 4.0430031 -0.25114012 6
13.106681 3.8351426 3.6591837 18
1.5951005 0.46462801 -0.44516876 5
16.1453 4.6998186 0.29351458 22
1.8206514 0.52963722 -0.43775475 6
16.146444 4.6940389 0.88123292 33
2.1170852 0.61547172 -0.42855701 81
16.14616 4.6909003 1.4710145 26
2.5553105 0.74190259 -0.42143452 4
16.121067 4.6775007 2.0610545 16
3.1839571 0.92321908 -0.40704364 3
16.134861 4.6753979 2.6606379 20
4.355505 1.2620945 -0.39673293 5
16.10643 4.6641126 3.2593994 19
6.6630802 1.9282432 -0.36352557 6
14.903197 4.3100419 3.5816708 26
13.806745 3.990334 -0.2508609 6
13.129267 3.792058 3.661772 20
1.5929995 0.45798925 -0.44413349 5
15.294812 4.3943868 0.27777249 6
1.8262351 0.5243547 -0.43865454 6
15.26427 4.3798447 0.83224642 7
2.1041238 0.60374558 -0.42550406 76
2.56548 0.7351554 -0.42268598 4
3.1928859 0.91373694 -0.40777487 3
4.3601017 1.2461233 -0.39673293 4
6.6736126 1.9060682 -0.36373493 6
14.908783 4.2553153 3.579421 26
13.799435 3.9360845 -0.25047693 8
13.13685 3.7446127 3.660219 19
1.5853744 0.44951302 -0.44154531 6
15.275429 4.3311563 0.27714422 30
1.8374288 0.52063346 -0.44090405 5
15.26025 4.3210902 0.83119977 29
2.113879 0.59816831 -0.42703056 79
15.247551 4.3117542 1.3862993 17
2.5643559 0.72467256 -0.42206025 4
15.257408 4.3116579 1.9467411 19
3.1979661 0.9031263 -0.40801859 3
15.256472 4.3056512 2.5107734 27
4.3605905 1.2298133 -0.39638433 4
15.25504 4.299499 3.080802 22
6.6882439 1.8837595 -0.36415362 6
14.918651 4.1990623 3.5780716 24
13.824641 3.8911383 -0.25068635 8
13.140543 3.6961212 3.6576309 18
1.5850736 0.4434554 -0.44102767 5
15.250758 4.2638288 0.27641121 34
1.8393247 0.51389492 -0.44090405 5
15.254079 4.2618871 0.83004832 36
2.1197362 0.59184116 -0.4277938 80
15.250996 4.2552872 1.3852534 27
2.5592582 0.71359521 -0.42080876 4
15.234863 4.2450547 1.9418663 19
3.2030118 0.89248979 -0.40826234 3
15.227641 4.2401791 2.5035777 22
4.3648562 1.2145854 -0.39638433 4
15.211324 4.2299142 3.0689721 21
6.698627 1.8614726 -0.36436296 6
14.936248 4.1506138 3.5789714 26
13.857407 3.8482115 -0.25103542 8
13.147781 3.6486762 3.6560779 18
1.6014323 0.44231147 -0.44516876 5
15.216625 4.1999269 0.27553859 30
1.8241115 0.50312972 -0.43685496 6
15.218068 4.197475 0.82732689 28
2.1349356 0.5884608 -0.4304651 85
15.209319 4.1893415 1.3801982 23
2.5654197 0.70615345 -0.42143452 4
15.19718 4.1802912 1.9352853 16
3.2097819 0.88291538 -0.40874982 3
15.203525 4.179183 2.4973202 20
4.3650174 1.1990497 -0.39603567 4
15.179829 4.1669712 3.0598133 20
6.6970592 1.8371336 -0.36394429 7
14.946172 4.1000257 3.5780716 26
13.906734 3.8122852 -0.25169861 7
13.167262 3.607095 3.6581485 15
1.6028904 0.43699807 -0.44516876 6
15.193808 4.1394663 0.2748754 30
1.8389322 0.5006609 -0.44000426 6
15.19023 4.1327891 0.82502413 31
2.1274033 0.5788002 -0.42855701 81
15.196209 4.1315751 1.3777579 23
2.565841 0.69712365 -0.42112163 4
15.163064 4.1168723 1.9291918 16
3.2051809 0.86962724 -0.40777487 3
15.183701 4.1167855 2.4916885 21
4.3728156 1.1856098 -0.39638433 4
15.163245 4.1083989 3.0537076 20
6.703114 1.8149166 -0.36394429 7
14.950986 4.0452871 3.5758219 26
13.960495 3.7746754 -0.2524316 8
14.893683 4.0242043 4.1338582 26
1.6100028 0.4329055 -0.44672167 6
15.188853 4.0812116 0.27452636 32
1.8369046 0.4932276 -0.43910447 5
15.177557 4.0724969 0.82355869 36
2.1256185 0.57035363 -0.4277938 80
15.1759 4.0692129 1.3746203 24
2.5777993 0.69071865 -0.42268598 4
15.158166 4.0587873 1.9267545 17
3.2024438 0.85689521 -0.40704364 3
15.144546 4.049468 2.482928 20
4.3788524 1.1708521 -0.39655861 5
15.147143 4.047338 3.0476015 20
6.7132673 1.7925392 -0.36415362 6
14.968781 3.9940743 3.5767217 42
14.012231 3.7362213 -0.25312969 8
14.952439 3.9841313 4.1462812 30
1.5965655 0.42332155 -0.44258058 6
15.168215 4.0189452 0.27389807 34
1.8499177 0.48980653 -0.44180387 6
15.151134 4.0087605 0.82136059 33
2.1257966 0.56205654 -0.42741215 80
15.139933 4.0029688 1.3700883 24
2.5840139 0.68272722 -0.42331171 4
15.147291 3.9992585 1.9235859 18
3.2150128 0.84824252 -0.40826234 3
15.124205 3.9875245 2.4772964 20
4.3811879 1.1542883 -0.39638433 5
15.127704 3.9827926 3.0407324 18
6.7391071 1.7730049 -0.36520034 7
15.067438 3.9641218 3.5969675 63
14.044527 3.6923742 -0.25347877 8
14.955048 3.9289644 4.1431756 19
1.6093211 0.42039695 -0.44568643 6
15.132536 3.9501951 0.27299055 34
1.8460438 0.48154595 -0.44045416 6
15.142532 3.9471593 0.82010454 38
2.1392415 0.55723107 -0.42970186 67
15.108228 3.9354014 1.3659048 26
2.5826759 0.67225462 -0.42268598 4
15.113817 3.9312248 1.9174925 18
3.2142575 0.83545524 -0.40777487 3
15.10813 3.924108 2.4722905 21
4.3776751 1.1362216 -0.39568707 5
15.085187 3.9125366 3.0292838 18
6.7455611 1.7482879 -0.36520034 6
15.102619 3.914237 3.6019163 31
14.079259 3.6463916 -0.25386271 7
14.978698 3.8765485 4.1457639 20
1.6108512 0.41449529 -0.44568643 6
15.133354 3.8912225 0.27274621 18
1.8383591 0.47235227 -0.43820465 6
15.141421 3.887655 0.81926709 24
2.1317611 0.5469476 -0.4277938 80
15.126409 3.8809946 1.3662534 16
2.5774686 0.66082239 -0.42143452 4
15.114664 3.8723509 1.9157863 13
3.2288363 0.82662344 -0.4092373 2
15.128152 3.8701799 2.4732292 16
4.3818102 1.1201679 -0.39568707 4
15.099425 3.8572237 3.0292838 13
6.7364421 1.7196021 -0.36436296 6
15.12064 3.8598244 3.6028161 21
14.123532 3.6026688 -0.25442117 6
14.985315 3.8197172 4.143693 19
1.6104867 0.40811422 -0.44516876 6
15.234746 3.8578227 0.27431691 18
1.8438563 0.46656767 -0.43910447 5
15.234957 3.8522103 0.82355869 26
2.1489794 0.54297656 -0.43084675 85
15.223598 3.8465035 1.3737488 15
2.5913649 0.65427303 -0.42331171 4
15.21152 3.8378115 1.926267 14
3.2318449 0.81478125 -0.4092373 3
15.213109 3.8325651 2.4848053 13
4.3936148 1.1060467 -0.39638433 4
15.193431 3.8219604 3.0453117 14
6.7504473 1.6968493 -0.36478165 6
15.202724 3.8214846 3.6190126 21
14.126944 3.5484469 -0.25424665 6
15.010461 3.7675786 4.1467991 18
1.6098164 0.40286532 -0.44465113 6
15.331485 3.8339443 0.27585274 22
1.8452327 0.46109423 -0.43910447 6
15.318017 3.8248959 0.82743156 28
2.1333439 0.53269416 -0.42741215 80
15.308398 3.8196559 1.3803726 16
2.5971282 0.6475364 -0.42393744 4
15.301814 3.81234 1.9362602 13
3.2303948 0.80423152 -0.40874982 3
15.287673 3.8031425 2.4951301 13
4.3928194 1.0928097 -0.39603567 4
15.29359 3.8017876 3.0632477 22
6.753221 1.6775117 -0.36467698 6
15.198865 3.7726002 3.6154132 22
14.145175 3.5084369 -0.25438628 6
15.015944 3.7216406 4.145246 19
1.6093373 0.39678067 -0.44413349 6
15.255461 3.7583961 0.27424711 54
1.8487229 0.45511746 -0.43955436 6
15.240122 3.7489753 0.82251197 61
2.1332841 0.52477461 -0.42703056 79
15.226835 3.7428885 1.3718314 44
2.5916991 0.63658261 -0.42268598 4
15.234058 3.7390263 1.9260232 41
3.2293267 0.79200393 -0.40826234 3
15.214518 3.7286 2.481051 47
4.3927369 1.0765218 -0.39568707 4
15.198073 3.7217584 3.0414956 43
6.7648559 1.6553507 -0.36499101 6
14.149565 3.4571443 -0.25424665 6
15.021339 3.6673658 4.1431756 22
1.6032035 0.38933662 -0.44206294 6
15.260713 3.7032385 0.27410749 62
1.8540882 0.44957939 -0.44045416 6
15.260235 3.7003024 0.82293069 71
2.1465511 0.52009809 -0.42932025 83
15.23787 3.6892486 1.371657 55
2.5900652 0.62660354 -0.42206025 4
15.231584 3.682091 1.9240733 34
3.2320714 0.78072733 -0.40826234 3
15.230638 3.6790571 2.4816766 32
4.3984046 1.06165 -0.39586139 5
15.210973 3.6686804 3.0414956 31
6.7861261 1.6354718 -0.36582837 4
15.122522 3.6417699 3.5911186 50
14.186224 3.4162929 -0.25470042 5
15.024027 3.6152689 4.1405873 18
1.6101892 0.38508716 -0.44361585 6
15.710499 3.7572675 0.28196108 27
1.8498828 0.4420692 -0.43910447 6
15.717924 3.7532358 0.84690052 31
2.1426249 0.51123571 -0.42817542 65
15.677032 3.7376876 1.4100057 22
2.5921292 0.61801046 -0.42206025 4
15.691712 3.7382936 1.9806207 18
3.2307808 0.76908481 -0.40777487 3
15.679628 3.7296319 2.5526979 23
4.4078989 1.0476713 -0.39638433 4
15.671913 3.7249072 3.1311755 19
6.7643075 1.6064962 -0.36436296 5
14.180552 3.3625965 -0.25438628 6
15.053473 3.5668151 4.145246 16
1.6227394 0.38240367 -0.44672167 6
15.733252 3.7046921 0.28213561 34
1.8438268 0.43382433 -0.43730485 6
15.725096 3.696979 0.84658653 45
2.1519527 0.5059253 -0.42970186 67
15.720372 3.6929734 1.4127946 30
2.5961933 0.60941035 -0.42237309 4
15.695003 3.6812334 1.9794021 22
3.2411764 0.75961512 -0.40874982 3
15.704091 3.6775749 2.554575 27
4.4076486 1.0313715 -0.39603567 4
15.692468 3.671972 3.1327024 25
6.7718186 1.5833308 -0.36446762 5
15.217175 3.555146 3.607765 5
14.231149 3.3221714 -0.2550844 6
15.071476 3.5155668 4.1467991 17
1.627894 0.37732622 -0.44775698 6
15.718814 3.6434319 0.28164694 38
1.856721 0.43002319 -0.44000426 5
15.697042 3.6326048 0.84438843 48
2.1308391 0.49272746 -0.42512247 61
15.704683 3.6285985 1.4101799 30
2.6061089 0.60166758 -0.4236246 4
15.684546 3.6210625 1.9764771 23
3.2399395 0.74740493 -0.40826234 3
15.66871 3.6116462 2.5467534 26
4.4228716 1.0186614 -0.39708155 4
15.665643 3.6051891 3.1246884 22
6.7795234 1.5589461 -0.36457232 4
15.218707 3.4967337 3.6050656 5
14.227068 3.2688892 -0.25480512 6
15.083656 3.4629321 4.1467991 17
1.616017 0.3686336 -0.44413349 6
15.691121 3.5764592 0.28091395 40
1.8620845 0.42408097 -0.44090405 5
15.682985 3.5688469 0.84292299 48
2.1402032 0.48702833 -0.42664891 63
15.678399 3.5649254 1.4066937 31
2.6043408 0.59169215 -0.42299888 4
15.666739 3.5565238 1.9725773 27
3.2465291 0.73640233 -0.40874982 3
15.643312 3.5454643 2.5404961 27
4.4030833 0.99793279 -0.39498982 4
15.641751 3.5422406 3.1174376 24
6.7888188 1.5361545 -0.36478165 5
15.242224 3.4461708 3.607765 5
14.242854 3.2176068 -0.25487494 6
15.094362 3.4071951 4.1462812 22
1.6172941 0.36298996 -0.44413349 7
15.668387 3.5137923 0.28028566 40
1.8654554 0.41800413 -0.44135398 6
15.671962 3.5088413 0.84166694 48
2.1533854 0.48212773 -0.42893866 66
15.649915 3.5010445 1.4030331 33
2.5948234 0.58001149 -0.42112163 4
15.64031 3.4931562 1.9677025 23
3.2607043 0.72766024 -0.41021225 3
15.6286 3.4848142 2.5361156 26
4.4026508 0.98168868 -0.39464122 4
15.608031 3.4773684 3.1082788 20
6.7902408 1.5115814 -0.36457232 5
15.254162 3.3929403 3.607765 5
14.269615 3.1713371 -0.25515419 6
15.098619 3.3528204 4.1442108 33
1.622324 0.35817567 -0.44516876 6
15.631739 3.4483044 0.27941301 38
1.8611938 0.41023192 -0.44000426 5
15.632799 3.445677 0.83894545 48
2.1703937 0.47798651 -0.43199161 70
15.632853 3.4399681 1.4004184 31
2.5987613 0.57137507 -0.42143452 4
15.609755 3.4291732 1.9623404 20
3.2554691 0.71457058 -0.4092373 2
15.613058 3.427043 2.5317357 26
4.4138355 0.96802068 -0.39533845 4
15.587471 3.415724 3.1017911 21
6.787672 1.4861592 -0.36415362 5
15.27353 3.3413348 3.6095648 7
14.295684 3.1274149 -0.25543341 6
15.07757 3.295716 4.1354108 34
1.6216766 0.35210016 -0.44465113 7
15.61573 3.3905044 0.27892435 40
1.8511173 0.40157923 -0.43730485 5
15.601789 3.381783 0.83664268 39
2.1624553 0.46832919 -0.43008351 84
15.61166 3.3782179 1.3974551 31
2.6025722 0.5631724 -0.42174736 4
15.582232 3.3690035 1.9574655 20
3.2500596 0.70209354 -0.40826234 3
15.59017 3.3650162 2.526104 26
4.4288726 0.95513082 -0.39638433 4
15.566086 3.3569827 3.0953035 24
6.7964678 1.4644818 -0.36436296 4
15.27881 3.2894402 3.6082149 22
14.286962 3.0732992 -0.2550844 6
15.066319 3.2381902 4.129199 15
1.6341705 0.3491427 -0.44775698 6
15.596178 3.3293056 0.27836588 36
1.8677547 0.39836663 -0.44090405 5
15.578338 3.3198047 0.83475858 38
2.1524754 0.45870095 -0.4277938 80
15.583802 3.3181341 1.3939689 30
2.6103189 0.55531675 -0.42268598 4
15.568658 3.3092215 1.9542971 21
3.2602572 0.69239628 -0.4092373 3
15.555444 3.3007383 2.5185952 26
4.4282818 0.93883771 -0.39603567 5
15.550822 3.2969217 3.0899611 24
6.8015375 1.4407535 -0.36436296 5
15.257787 3.2292306 3.6005666 29
14.303472 3.024647 -0.25518909 5
15.032169 3.1759911 4.116776 11
1.6146417 0.33878741 -0.44206294 6
15.580306 3.2690914 0.27787721 36
1.8767631 0.39344338 -0.44270366 5
15.558553 3.258858 0.83308387 43
2.1541421 0.45080912 -0.4277938 96
15.560759 3.253643 1.3908314 30
2.622005 0.54776609 -0.42425033 4
15.554852 3.2495823 1.9511282 23
3.2626545 0.68101072 -0.4092373 3
15.535932 3.2399631 2.5135894 26
4.4237299 0.92174971 -0.39533845 5
15.528205 3.2327042 3.083092 24
6.8165507 1.4178436 -0.36488631 5
15.238992 3.1669457 3.5933683 12
14.335479 2.9791789 -0.25557303 6
14.997766 3.1140838 4.1043525 11
1.6158144 0.33314878 -0.44206294 6
15.556929 3.204706 0.27724892 38
1.8686489 0.38459823 -0.44045416 6
15.558097 3.2021086 0.83245581 47
2.1557028 0.44328648 -0.4277938 96
15.546647 3.1941042 1.3885653 31
2.6064858 0.53503472 -0.42143452 4
15.527766 3.1845689 1.9462537 21
3.2690177 0.66984564 -0.40972477 3
15.516181 3.179379 2.5085835 28
4.4269209 0.9063012 -0.39533845 4
15.495157 3.1694279 3.0743148 27
6.8097167 1.391646 -0.36425829 5
15.259501 3.1156776 3.5956178 3
14.363424 2.9327171 -0.25588718 6
14.97258 3.0543721 4.0945172 11
1.6302214 0.33019131 -0.44568643 6
15.526314 3.1447592 0.27651593 42
1.868004 0.37801334 -0.44000426 5
15.530028 3.1398613 0.83036238 42
2.1745563 0.43925789 -0.43122834 100
15.518643 3.1319296 1.385079 33
2.6082456 0.52638888 -0.42143452 4
15.501269 3.1256001 1.9416226 23
3.2712214 0.65900058 -0.40972477 3
15.496202 3.1189578 2.5035777 33
4.4261508 0.89005601 -0.39498982 4
15.474786 3.1118295 3.0682087 27
6.8103781 1.3682679 -0.36404896 6
15.359549 3.0830865 3.6167631 5
14.412787 2.8904216 -0.25658527 6
14.954737 2.9963996 4.0867529 11
1.6332018 0.32516101 -0.44620407 6
15.503855 3.0839069 0.27592254 40
1.854021 0.3684521 -0.43640503 5
15.497792 3.0770855 0.82805955 45
2.170224 0.4308978 -0.43008351 84
15.483994 3.0715296 1.3810699 28
2.6216931 0.51958591 -0.42331171 4
15.467296 3.062614 1.9360166 21
3.2618177 0.64526558 -0.40826234 3
15.479864 3.0594804 2.4991972 34
4.4349413 0.87653327 -0.39551273 5
15.46244 3.0532405 3.0636296 22
6.8190322 1.3452582 -0.36425829 6
15.374041 3.0302022 3.6176629 7
14.409056 2.8373926 -0.25634095 5
14.94236 2.9397008 4.0805411 12
1.6362231 0.31982827 -0.44672167 6
15.48116 3.0232573 0.27532917 38
1.8667721 0.36421666 -0.43910447 5
15.471191 3.0157049 0.82607079 38
2.1601529 0.42106542 -0.4277938 80
15.473108 3.0132756 1.3791524 27
2.6273689 0.51118511 -0.42393744 4
15.45451 3.004055 1.9330916 21
3.2718449 0.63539022 -0.4092373 3
15.436152 2.9948957 2.490437 26
4.4457974 0.86256599 -0.39620999 5
15.438312 2.9925189 3.0567603 22
6.8197646 1.3206892 -0.36404896 6
15.373046 2.9743009 3.6149635 10
14.420834 2.7874608 -0.25637585 6
14.920284 2.8812931 4.0717411 12
1.6259459 0.31193131 -0.44361585 6
15.464124 2.9639328 0.2748405 38
1.875688 0.35916364 -0.44090405 5
15.458085 2.9571822 0.8248148 42
2.1616096 0.41352296 -0.4277938 80
15.44048 2.951021 1.3753176 28
2.6213763 0.50052816 -0.42268598 4
15.435652 2.944514 1.9294356 23
3.2798929 0.62507951 -0.4099685 2
15.417404 2.9354486 2.485744 28
4.4409528 0.84555024 -0.39551273 5
15.42359 2.933845 3.0517991 21
6.8439546 1.3006026 -0.36509567 6
15.383335 2.9206166 3.6149635 12
14.424582 2.7359908 -0.25627115 7
14.89229 2.8220036 4.0613885 12
1.6194309 0.30482394 -0.44154531 6
15.435071 2.9025397 0.27414241 40
1.8807607 0.3533341 -0.44180387 5
15.442795 2.8984115 0.82345402 47
2.170758 0.40742302 -0.42932025 99
15.427188 2.8926954 1.3732258 28
2.6192241 0.49064794 -0.42206025 4
15.41657 2.8851345 1.9257796 24
3.2781525 0.61289775 -0.40948102 2
15.404256 2.8772652 2.4819896 28
4.4301672 0.82748342 -0.39429256 5
15.38742 2.8713412 3.0426404 23
6.8445258 1.2759742 -0.36488631 6
15.389602 2.8661902 3.6140635 19
14.441909 2.6870823 -0.25641075 7
14.865961 2.7632978 4.0515532 13
1.6356831 0.30197537 -0.44568643 6
15.40971 2.842118 0.27351412 40
1.8666507 0.34394228 -0.43820465 5
15.424821 2.8421214 0.82198858 45
2.176029 0.40055349 -0.43008351 84
15.403879 2.8327043 1.3702626 28
2.6053782 0.47864598 -0.4195573 4
15.387497 2.824132 1.9209048 25
3.2841766 0.60216784 -0.4099685 2
15.388453 2.8215387 2.4779222 23
4.444788 0.81416696 -0.39533845 4
15.364518 2.8115997 3.0361528 25
6.8607259 1.2542311 -0.36551434 5
15.372676 2.8075476 3.607765 33
14.448773 2.638813 -0.25637585 7
14.846538 2.7087801 4.0437889 14
1.6481329 0.29832804 -0.44879225 6
15.395438 2.7867236 0.27309525 40
1.8716164 0.33844337 -0.43910447 5
15.379616 2.7783234 0.81905776 47
2.1774137 0.39295575 -0.43008351 84
15.392105 2.7750247 1.3683451 31
2.6225033 0.47280806 -0.42206025 4
15.359656 2.7664144 1.9162737 22
3.2861557 0.59127289 -0.4099685 3
15.359324 2.7608123 2.4716649 26
4.4554467 0.80005628 -0.39603567 4
15.338975 2.7543912 3.0292838 25
6.8530526 1.2293553 -0.36488631 6
15.343538 2.7496827 3.598767 49
14.448054 2.5866024 -0.25620133 7
14.834984 2.6532016 4.038095 16
1.6377006 0.29083461 -0.44568643 6
15.377507 2.7280722 0.27260658 42
1.8804616 0.33326879 -0.44090405 4
15.361688 2.7197428 0.81759238 45
2.1748383 0.38504887 -0.42932025 83
15.36787 2.7180641 1.3653818 30
2.6319187 0.46502626 -0.42331171 4
15.341852 2.7079475 1.9128615 22
3.2842898 0.57910818 -0.40948102 2
15.33385 2.7010162 2.4660332 30
4.4423776 0.78251284 -0.39464122 4
15.333027 2.6981127 3.0262308 26
6.8730392 1.2081907 -0.3657237 6
15.318493 2.690043 3.5906687 43
14.439269 2.533047 -0.25588718 7
14.809905 2.5953953 4.0287776 14
1.625383 0.28279772 -0.44206294 6
15.355412 2.6689098 0.27204812 42
1.8873736 0.32770234 -0.44225377 4
15.343538 2.6613212 0.816127 42
2.1645632 0.37544131 -0.42703056 79
15.336037 2.6572707 1.3617213 28
2.6335258 0.45583561 -0.42331171 4
15.323828 2.6496387 1.9094491 22
3.2980278 0.56966996 -0.41094348 2
15.310092 2.6417606 2.4607143 28
4.4490089 0.76767772 -0.39498982 4
15.307528 2.638567 3.0193617 24
6.8811502 1.1848745 -0.36593303 6
15.308585 2.6332476 3.5861697 34
14.446053 2.4822865 -0.25585228 8
14.780792 2.5371571 4.0184245 13
1.6282645 0.27744722 -0.44258058 6
15.323236 2.6082423 0.2713151 36
1.8885061 0.32111171 -0.44225377 4
15.338951 2.6054082 0.81539428 40
2.1774733 0.36985624 -0.42932025 83
15.307899 2.5973852 1.3584094 28
2.6234155 0.44465876 -0.42143452 4
15.307538 2.5918276 1.9062805 21
3.2960818 0.55749124 -0.410456 2
15.2939 2.5840199 2.4566472 30
4.4438033 0.75081414 -0.39429256 4
15.274055 2.5779326 3.0109661 20
6.8931231 1.1621741 -0.36635172 6
15.286938 2.5746121 3.5789714 34
14.44674 2.4305212 -0.25571266 12
14.762887 2.4810605 4.011178 14
1.6425619 0.27398631 -0.44620407 6
15.308578 2.5507975 0.27089626 38
1.8838483 0.31355906 -0.44090405 4
15.310517 2.5456212 0.81340551 45
2.1864982 0.36354068 -0.43084675 85
15.303113 2.5416458 1.3571892 31
2.628849 0.43614706 -0.42206025 4
15.273408 2.531234 1.9009181 21
3.3019247 0.54662991 -0.41094348 3
15.281387 2.5270839 2.4532056 27
4.4542599 0.73660117 -0.39498982 4
15.255844 2.520117 3.0056236 20
6.8813729 1.1355021 -0.36551434 6
15.26891 2.5168085 3.5726726 39
14.459084 2.380724 -0.25578249 8
14.742864 2.4248064 4.0034132 14
1.6511346 0.26949698 -0.44827461 7
15.293706 2.4934797 0.27047741 40
1.8810847 0.30635431 -0.44000426 5
15.277478 2.488097 0.81120741 50
2.1916289 0.35653812 -0.43160996 86
15.284359 2.4837415 1.3547488 33
2.638155 0.4282333 -0.42331171 4
15.254716 2.4734669 1.8975059 25
3.3077316 0.53573614 -0.41143093 3
15.254584 2.470706 2.4475739 27
4.4568038 0.72104728 -0.39498982 4
15.243228 2.4633994 3.0014255 22
6.8833227 1.111158 -0.36540967 6
15.235277 2.4566655 3.5627747 35
14.488614 2.3362672 -0.25616643 10
14.727938 2.3722134 3.9972017 15
1.6425269 0.26220864 -0.44568643 7
15.280169 2.4392858 0.27009344 42
1.8859392 0.3007279 -0.44090405 5
15.244649 2.4281595 0.80900931 47
2.1734717 0.34580043 -0.4277938 80
15.241777 2.4222395 1.3502167 34
2.6473641 0.42072192 -0.4245632 3
15.239308 2.4191277 1.894581 24
3.2938051 0.52227801 -0.40948102 2
15.231899 2.4124942 2.4425681 27
4.4671655 0.70673203 -0.39568707 4
15.231921 2.4097803 2.9976096 23
6.8968329 1.0898861 -0.36593303 6
15.216393 2.4018722 3.5564761 37
14.465076 2.2806983 -0.25560796 6
14.703685 2.3156896 3.9884017 15
1.6300266 0.25467247 -0.44206294 7
15.258954 2.381304 0.26956987 40
1.8985302 0.29594511 -0.44360349 5
15.241192 2.3730829 0.80838126 47
2.1804261 0.33949655 -0.42893866 82
15.233975 2.3692362 1.3488222 35
2.6449125 0.41087243 -0.42393744 3
15.222159 2.3619573 1.8914124 23
3.2916851 0.51016831 -0.40899354 3
15.203138 2.3535717 2.4366236 31
4.4616089 0.69069397 -0.39498982 4
15.205316 2.3511918 2.9907403 28
6.9065175 1.0667177 -0.36624706 6
15.190017 2.3433974 3.548378 35
14.522359 2.2378016 -0.25648057 11
14.671582 2.2581749 3.9775314 15
1.6385446 0.25014681 -0.44413349 7
15.221704 2.3210957 0.26876706 37
1.8918456 0.288142 -0.44180387 5
15.223714 2.3159578 0.80702055 49
2.1835387 0.33217806 -0.42932025 83
15.190938 2.3082664 1.3442901 35
2.6385183 0.40045238 -0.42268598 4
15.202834 2.3046379 1.888 22
3.31111 0.50135046 -0.4111872 3
15.185869 2.2966516 2.4325564 32
4.4639926 0.67511684 -0.39498982 4
15.172667 2.291939 2.9827263 28
6.9082236 1.0423065 -0.36614239 6
15.186542 2.2886209 3.5456786 34
14.537992 2.1882823 -0.25662017 7
14.648808 2.2023551 3.969249 15
1.6451398 0.24528067 -0.44568643 8
15.192135 2.2623477 0.26810387 37
1.8851297 0.28039005 -0.44000426 5
15.202072 2.2584038 0.80545044 45
2.1943948 0.32599699 -0.43122834 86
15.175254 2.251713 1.3421984 34
2.6438084 0.39181828 -0.42331171 3
15.15973 2.2440019 1.8816628 23
3.3069491 0.48891762 -0.410456 3
15.172297 2.2404506 2.4291146 30
4.4544954 0.65778285 -0.39394394 4
15.149497 2.2343822 2.9766204 24
6.9019408 1.0167288 -0.36561903 6
15.165518 2.2313368 3.5389299 30
14.561368 2.1398506 -0.25689942 11
14.637295 2.1483986 3.9640727 15
1.6517211 0.24037153 -0.44723931 8
15.176192 2.2058551 0.267685 35
1.889954 0.27436748 -0.44090405 5
15.17033 2.1995962 0.80335701 45
2.1935766 0.3180539 -0.43084675 85
15.167246 2.1964464 1.340804 35
2.6412499 0.38202229 -0.42268598 4
15.143894 2.1876686 1.8787379 23
3.3047056 0.47680497 -0.4099685 4
15.148741 2.182971 2.4241087 26
4.4725409 0.64450419 -0.39533845 4
15.131942 2.1778543 2.9716594 23
6.9094014 0.99319679 -0.36582837 6
15.134635 2.1728504 3.5299318 30
14.572708 2.0895798 -0.25696924 8
14.621757 2.0940015 3.9578609 15
1.6544627 0.23487638 -0.44775698 7
15.160042 2.1494942 0.26726615 37
1.8909003 0.26776811 -0.44090405 6
15.149855 2.1453528 0.80189157 47
2.1830094 0.3087458 -0.42855701 81
15.143257 2.1390271 1.338015 39
2.6543036 0.37445524 -0.4245632 4
15.137677 2.1328573 1.8770318 25
3.3160968 0.46722898 -0.4111872 3
15.120688 2.1277652 2.4184771 23
4.4747634 0.628887 -0.39533845 4
15.110289 2.1209307 2.9659352 24
6.9128261 0.96907383 -0.36582837 6
15.10702 2.1177762 3.5218339 32
14.597382 2.043735 -0.25728339 13
14.607573 2.0425696 3.9521668 15
1.6437511 0.22779709 -0.44465113 8
15.145297 2.0961971 0.26688221 39
1.9033602 0.26309758 -0.44360349 6
15.143037 2.0931909 0.80115891 50
2.1840215 0.30150437 -0.42855701 81
15.116713 2.0841753 1.3350517 41
2.6594443 0.36619064 -0.42518893 4
15.125003 2.0799389 1.8745944 28
3.3235281 0.45704028 -0.4119184 3
15.090478 2.0725079 2.4125326 27
4.4689283 0.61296254 -0.39464122 4
15.090008 2.0670769 2.9605925 25
6.9318323 0.94831187 -0.36666575 5
15.100445 2.0658219 3.5186844 27
14.600117 1.9947717 -0.25721356 10
14.575985 1.9888904 3.9418142 16
1.6425831 0.22208646 -0.44413349 8
15.116495 2.0411413 0.26625392 43
1.8964972 0.25574213 -0.44180387 5
15.12254 2.0365903 0.79969347 47
2.1928439 0.29492509 -0.43008351 84
15.091948 2.0297816 1.3322626 37
2.6488974 0.35579109 -0.42331171 4
15.098369 2.0252876 1.8704509 26
3.3211682 0.44490817 -0.41143093 3
15.079999 2.017458 2.4097166 31
4.4552422 0.59524941 -0.39324668 4
15.062104 2.0097129 2.9537234 24
6.9390597 0.92463517 -0.36687508 5
15.078588 2.0092337 3.5119357 22
14.644651 1.9488175 -0.25787675 13
14.548369 1.9334137 3.9324968 16
1.6472167 0.2165686 -0.44516876 8
15.078273 1.9797388 0.2654511 39
1.889693 0.2477764 -0.44000426 5
15.098217 1.9770042 0.79801875 48
2.1978033 0.28739557 -0.43084675 85
15.071628 1.97084 1.3298223 37
2.646266 0.34556898 -0.42268598 4
15.060419 1.9640205 1.8648449 25
3.3267136 0.43324593 -0.4119184 3
15.077497 1.960903 2.4081526 32
4.4613457 0.57942617 -0.39359534 4
15.040165 1.9507095 2.9479992 23
6.9206147 0.89637566 -0.3657237 5
15.049132 1.9492019 3.5033877 24
14.663597 1.8966573 -0.2580862 14
14.536197 1.8776067 3.9273202 16
1.6556647 0.2115078 -0.44723931 8
15.063607 1.9216808 0.26506716 37
1.8944546 0.24134162 -0.44090405 5
15.073662 1.9176093 0.79634398 50
2.1871078 0.27823484 -0.42855701 81
15.060961 1.9133298 1.3282535 38
2.6573131 0.33711123 -0.42425033 4
15.036006 1.9048195 1.860945 24
3.328279 0.42105076 -0.4119184 3
15.045387 1.9006797 2.401895 33
4.4712472 0.56485146 -0.39429256 4
15.025457 1.8954906 2.9438014 24
6.8781247 0.86646938 -0.36331624 7
15.031039 1.8908724 3.4975388 30
14.66648 1.8424045 -0.25801638 18
14.519979 1.8214272 3.9211087 15
1.6602271 0.20620453 -0.44827461 8
15.062285 1.8680986 0.26492754 39
1.8991535 0.2352058 -0.44180387 4
15.044583 1.8605785 0.79445988 45
2.1861174 0.27035931 -0.42817542 65
15.035912 1.8568347 1.3254646 35
2.6604342 0.32807449 -0.4245632 4
15.024829 1.8501493 1.8587514 23
3.3179071 0.40797585 -0.410456 3
15.02056 1.8442942 2.3968892 32
4.4811025 0.5502106 -0.39498982 4
15.008596 1.8401737 2.9392219 25
6.893002 0.84391266 -0.36394429 9
15.004664 1.8343687 3.4898906 39
14.680761 1.7921771 -0.258156 19
14.499402 1.7674623 3.9138618 15
1.6494291 0.19901903 -0.44516876 7
15.034965 1.8114396 0.26433414 35
1.9096369 0.22973932 -0.44405338 4
15.026876 1.807812 0.79320383 45
2.1889966 0.26296023 -0.42855701 81
15.008671 1.8003002 1.3225012 33
2.6615632 0.31878641 -0.4245632 4
15.019371 1.7962732 1.857289 23
3.3350794 0.39827389 -0.41240588 3
14.989326 1.7900194 2.3909445 31
4.4750819 0.53362256 -0.39429256 4
14.991535 1.7849834 2.9346426 24
6.9197054 0.8226741 -0.36520034 7
14.987754 1.7792279 3.4844918 35
14.670738 1.7415941 -0.25787675 27
14.468733 1.7150531 3.9040265 15
1.6424389 0.19236092 -0.44309825 8
15.011097 1.7580858 0.26381058 37
1.9103881 0.22340585 -0.44405338 4
15.017224 1.7534901 0.79236645 48
2.1977017 0.25622645 -0.43008351 84
14.991115 1.745145 1.3204094 38
2.654757 0.30904546 -0.42331171 4
14.993697 1.7427862 1.8533891 26
3.33441 0.38698402 -0.41216215 3
14.979784 1.7358772 2.3884416 30
4.4729586 0.51753914 -0.39394394 4
14.962268 1.7311939 2.9277735 25
6.8628736 0.79284799 -0.36206019 7
14.978086 1.7277334 3.4808927 37
14.676728 1.6903692 -0.25787675 26
14.445844 1.6612231 3.8962622 16
1.6507456 0.1877871 -0.44516876 8
14.993299 1.7029717 0.26339173 39
1.8898567 0.21431999 -0.43910447 5
15.003111 1.7014341 0.79131973 48
2.1965883 0.24871674 -0.42970186 83
14.973062 1.6927329 1.3183178 38
2.6558199 0.29977605 -0.42331171 4
14.970099 1.6870991 1.849733 28
3.3396859 0.37578702 -0.41264963 3
14.961903 1.6835382 2.3846872 31
4.4706907 0.50225949 -0.39359534 4
14.944807 1.6763251 2.9231939 27
6.8417811 0.76622134 -0.36080414 8
14.953037 1.6719708 3.4736941 37
14.666353 1.6399153 -0.25759751 26
14.428234 1.6107336 3.8900504 17
1.6629124 0.18329407 -0.44827461 7
14.976999 1.6508358 0.26300776 41
1.8944311 0.20847763 -0.44000426 5
14.961311 1.6438211 0.78880757 50
2.2091525 0.24233261 -0.43199161 70
14.957094 1.6380671 1.3164003 35
2.6567993 0.29096663 -0.42331171 5
14.934172 1.6329262 1.8446145 27
3.3192065 0.36234117 -0.4099685 3
14.938232 1.6280868 2.3799942 33
4.476378 0.48708275 -0.39394394 4
14.928814 1.6244311 2.9189961 29
6.8919382 0.7487039 -0.36331624 6
14.921689 1.618379 3.4651458 40
14.648133 1.5861231 -0.25717866 26
14.418404 1.5587019 3.8859093 16
1.6615901 0.17757289 -0.44775698 8
14.958809 1.5959963 0.26258892 39
1.9028986 0.20268957 -0.44180387 4
14.943125 1.589048 0.78755152 52
2.186517 0.23251364 -0.42741215 64
14.942632 1.5863582 1.3146572 35
2.6676207 0.28273246 -0.42487606 4
14.933859 1.5801557 1.8438834 28
3.3283477 0.35158604 -0.41094348 3
14.918286 1.5732427 2.375927 35
4.4939032 0.47312203 -0.39533845 4
14.918774 1.5706615 2.9159431 31
6.8905363 0.72422588 -0.36310691 7
14.90593 1.5640491 3.4601972 37
14.631702 1.5326933 -0.25679472 28
14.400701 1.5059547 3.8796976 16
1.6564647 0.17088729 -0.44620407 7
14.928485 1.5400801 0.26196063 39
1.9152253 0.19724423 -0.44450328 4
14.916793 1.5336049 0.78587681 48
2.2010255 0.22590171 -0.43008351 67
14.902759 1.5269127 1.3106481 33
2.6666739 0.27275157 -0.4245632 4
14.921511 1.5261953 1.8416896 29
3.3374538 0.34077305 -0.4119184 3
14.892244 1.5179497 2.3709211 35
4.4757056 0.45541441 -0.39359534 4
14.89318 1.5128001 2.9098375 28
6.9467955 0.70440435 -0.36593303 5
14.886356 1.5068504 3.4543483 35
14.625027 1.4803976 -0.25658527 28
14.369349 1.4519905 3.8698626 17
1.6589737 0.16529521 -0.44672167 8
14.906172 1.4825795 0.26147196 39
1.9081784 0.18945262 -0.44270366 5
14.922055 1.4815294 0.78587681 50
2.1998467 0.21802308 -0.42970186 67
14.886189 1.4727213 1.3087306 31
2.6518834 0.26188895 -0.42206025 4
14.893419 1.4681876 1.8375461 28
3.3426313 0.3289263 -0.41240588 3
14.875827 1.463832 2.3674796 33
4.4614048 0.43823126 -0.39220083 4
14.865154 1.457543 2.9033499 26
6.9790287 0.68307096 -0.36750311 4
14.87407 1.4531758 3.4502993 37
14.610203 1.4273963 -0.25623626 30
14.341645 1.3986318 3.8610628 17
1.6518484 0.15876435 -0.44465113 7
14.877167 1.4298913 0.26087856 41
1.8913378 0.18144929 -0.43865454 4
14.885385 1.4254305 0.78367871 42
2.202549 0.21053015 -0.43008351 67
14.871404 1.4188607 1.3069874 31
2.6527371 0.25309408 -0.42206025 4
14.856708 1.414835 1.8324275 23
3.3516088 0.3185904 -0.41338086 3
14.865113 1.4104072 2.3649766 33
4.4886932 0.42509618 -0.39446688 2
14.838634 1.4052747 2.897244 24
6.9752903 0.65935814 -0.36718911 4
14.853585 1.4014668 3.4444504 40
14.60116 1.3750722 -0.25599191 31
14.329129 1.3469306 3.8564038 17
1.6619838 0.15417832 -0.44723931 7
14.870121 1.3768414 0.26066914 41
1.8977811 0.17538369 -0.44000426 4
14.860436 1.3707207 0.7821086 47
2.2090998 0.20376648 -0.43122834 69
14.858171 1.3678895 1.3054187 33
2.6693411 0.24527805 -0.4245632 4
14.83981 1.3609828 1.8297465 25
3.3487468 0.30652797 -0.41289338 3
14.842406 1.3559896 2.3605964 27
4.499999 0.41111609 -0.39533845 4
14.833672 1.3525884 2.8953359 22
6.9695935 0.63428319 -0.36677042 3
14.831217 1.3471378 3.4381518 40
14.581974 1.3219329 -0.25557303 29
14.333742 1.2969073 3.8564038 20
1.6625119 0.14837554 -0.44723931 7
14.858902 1.3235034 0.26038992 41
1.9080871 0.16962129 -0.44225377 4
14.847225 1.3172472 0.78116655 50
2.1961083 0.19483894 -0.42855701 65
14.844995 1.3144311 1.3038499 35
2.6780517 0.23665491 -0.42581466 4
14.830629 1.3079492 1.8280404 26
3.3300221 0.29309544 -0.410456 3
14.807693 1.3007177 2.3543391 27
4.5113301 0.39627829 -0.39620999 4
14.808968 1.2982254 2.8896117 25
6.9817128 0.6108194 -0.36729378 4
14.814475 1.2934977 3.433203 37
14.548649 1.267729 -0.25490984 30
14.299691 1.2435143 3.8460512 20
1.6533957 0.14174588 -0.44465113 7
14.841515 1.2697632 0.26000595 48
1.9086677 0.16295928 -0.44225377 4
14.835814 1.2640523 0.78032917 50
2.2046001 0.18783802 -0.43008351 84
14.805817 1.2589009 1.300015 35
2.6788616 0.22730459 -0.42581466 4
14.819281 1.2548288 1.8260905 27
3.3468487 0.28280914 -0.41240588 2
14.794428 1.2475235 2.3515232 31
4.4848909 0.37818339 -0.39376962 4
14.793845 1.2448742 2.8857954 26
6.9838018 0.58644974 -0.36729378 4
14.78977 1.2393326 3.4264543 40
14.537043 1.2156001 -0.25463063 39
14.276992 1.1913522 3.8388042 20
1.6481044 0.13549906 -0.44309825 7
14.817953 1.2156559 0.25951728 48
1.9072826 0.15613812 -0.44180387 5
14.802314 1.2091715 0.7783404 50
2.2071989 0.18030168 -0.4304651 68
14.800193 1.206398 1.2991436 42
2.6678255 0.21699069 -0.42393744 4
14.801805 1.201329 1.8234093 28
3.3596873 0.27208528 -0.41386834 3
14.777035 1.1941197 2.3480816 33
4.5040574 0.36396909 -0.39533845 4
14.77266 1.1911783 2.8808343 28
6.9778438 0.56142557 -0.36687508 4
14.772639 1.1859798 3.4215057 34
