# .PCD v0.7 - Point Cloud Data file format
VERSION 0.7
FIELDS x y z intensity
SIZE 4 4 4 4
TYPE F F F F
COUNT 1 1 1 1
WIDTH 1431
HEIGHT 1
VIEWPOINT 0 0 0 1 0 0 0
POINTS 1431
DATA ascii
8.9253597 6.3781638 0.959759 18
2.1571088 1.5409243 -0.41987014 4
8.9288168 6.3759212 1.3471439 15
2.7192094 1.9410262 -0.41021225 3
8.9114504 6.3588243 1.7339199 16
3.6669648 2.6165869 -0.39411828 5
8.9138069 6.3581586 2.1282835 19
5.6169019 4.0050192 -0.36153683 2
8.905652 6.3476529 2.5248506 22
8.9181633 6.3542233 -0.19113876 15
8.8983297 6.3377504 2.9272435 20
1.3386658 0.95098919 -0.4399924 6
8.9101982 6.3274722 0.1907548 17
1.554104 1.1032195 -0.44000426 6
8.9178352 6.3282137 0.57307881 20
1.7820204 1.2645452 -0.42474085 75
8.9053192 6.3169961 0.95522696 18
2.1576407 1.5299568 -0.41893157 4
8.8975735 6.3068337 1.3391005 15
2.7340667 1.9372616 -0.41143093 3
8.8916826 6.2979903 1.7257853 16
3.6744506 2.6026182 -0.39394394 4
8.873455 6.2827616 2.1134005 23
5.6259556 3.9819276 -0.3612228 3
8.883213 6.2850094 2.5122533 24
8.901104 6.2953439 -0.19030103 17
8.8825388 6.2798877 2.9148202 21
1.3467139 0.94965011 -0.44154531 6
8.8897371 6.2663732 0.18984728 20
1.5388293 1.0843185 -0.43460542 6
8.897419 6.2671404 0.57035732 21
1.789634 1.2605777 -0.42550406 76
8.8865919 6.2571936 0.95086914 19
2.1581218 1.5190054 -0.41799295 4
8.8594656 6.2334704 1.3300822 15
2.7408128 1.9277053 -0.41143093 3
8.8764439 6.2407851 1.7185892 20
3.6835124 2.589777 -0.39394394 5
8.8519669 6.2212672 2.1030967 19
5.6414561 3.9634118 -0.36132747 2
8.8588476 6.2214856 2.4992063 19
8.8804741 6.2343588 -0.18939351 15
8.8538046 6.2133303 2.8982558 21
1.3547684 0.94826716 -0.44309825 6
8.8673172 6.2043533 0.18890485 22
1.5473953 1.0822914 -0.43595514 6
8.855957 6.1941028 0.56637979 20
1.7908052 1.2520736 -0.42474085 75
8.8593845 6.191896 0.94563979 18
2.1698878 1.5159886 -0.41924441 4
8.8421125 6.1752253 1.3242323 14
2.7426414 1.9147178 -0.41069973 3
8.8420191 6.1728711 1.7079517 20
3.7006989 2.5826051 -0.3948155 5
8.8333759 6.1622458 2.0935564 18
5.6503406 3.940269 -0.36101347 3
8.8245583 6.1515222 2.4834597 22
8.8551645 6.1728582 -0.18841618 16
8.8268118 6.1507988 2.8827267 21
1.359657 0.94463426 -0.44361585 7
8.8533564 6.1509509 0.18817185 24
1.5509763 1.0771537 -0.43595514 6
8.8479919 6.142652 0.56449568 28
1.7967782 1.2469338 -0.42512247 76
8.8498421 6.1393538 0.94232786 23
2.1830187 1.514414 -0.42080876 4
8.838069 6.1289077 1.3205763 20
2.7457135 1.9033498 -0.41021225 3
8.8359118 6.1228404 1.7026329 23
3.7064149 2.5674031 -0.39446688 5
8.8343916 6.1195102 2.0889771 27
5.6584516 3.9180977 -0.36069945 3
8.8401031 6.1188951 2.48211 31
8.8733721 6.1396332 -0.18834637 21
8.8371058 6.1122594 2.8791032 26
1.3564211 0.93573254 -0.44154531 7
8.8928814 6.1324997 0.18855581 28
1.55954 1.0750517 -0.43730485 6
8.8924065 6.127593 0.56596106 27
1.8025194 1.2420828 -0.42550406 76
8.8750744 6.1133657 0.94285083 26
2.1850374 1.5045445 -0.42018303 4
8.8921146 6.1205282 1.3254511 22
2.7523403 1.8937545 -0.41021225 3
8.8800154 6.1076331 1.7070131 27
3.6984935 2.5438063 -0.39272377 5
8.8767319 6.1030931 2.0939381 29
5.6770306 3.9017169 -0.36101347 3
8.8887119 6.1067619 2.4897583 33
8.9178247 6.1244721 -0.18883504 21
8.8759089 6.0934 2.8847973 27
1.3548975 0.92771733 -0.4399924 6
8.9356852 6.1161051 0.18900958 30
1.5632833 1.0696008 -0.43730485 6
8.9417696 6.1156807 0.5677405 28
1.8100857 1.2379996 -0.42626733 78
8.9210291 6.0992174 0.94546551 27
2.1902764 1.4969075 -0.42018303 4
8.9281778 6.0995269 1.3276447 24
2.7638514 1.8874946 -0.41094348 4
8.9273863 6.0944166 1.712019 27
3.7139335 2.5353734 -0.39342102 5
8.9174423 6.0853467 2.0985174 29
5.6972141 3.8863797 -0.36143214 3
8.9373465 6.0943584 2.4974065 35
8.9622831 6.1090722 -0.18932371 22
8.913084 6.0732646 2.8899736 28
1.3645186 0.92732602 -0.44206294 6
8.9569807 6.0848742 0.18900958 27
1.5653951 1.063043 -0.43685496 6
8.9514933 6.076581 0.56700778 27
1.8095227 1.2283661 -0.42512247 91
8.9406185 6.0669188 0.94529116 26
2.1889489 1.4848177 -0.41893157 4
8.9181976 6.0471597 1.3230138 23
2.7737103 1.8800622 -0.41143093 4
8.9224386 6.0454898 1.7070131 30
3.7326567 2.5290999 -0.39446688 5
8.8979921 6.02666 2.0889771 31
5.697516 3.8575099 -0.36059478 3
8.8923979 6.0183396 2.4789605 43
8.9123325 6.0295687 -0.18782279 43
8.8734217 6.0009871 2.8703032 31
1.3741537 0.92687804 -0.44413349 7
8.9018965 6.0021482 0.18740395 49
1.5674801 1.0564835 -0.43640503 5
8.8914881 5.9906116 0.56187886 61
1.8154277 1.2231386 -0.42550406 92
8.9039011 5.9967213 0.93919033 66
2.1973956 1.4793746 -0.4195573 4
8.8882008 5.9816322 1.3154578 52
2.7769623 1.8681519 -0.41094348 3
8.8926706 5.9801378 1.6973141 74
3.7480755 2.5205035 -0.39516413 5
8.8782425 5.9681797 2.0794365 61
5.70929 3.836483 -0.36049011 2
8.8777599 5.9633632 2.4690628 76
8.9283466 5.9950762 -0.18771808 110
8.8734646 5.9559779 2.863574 66
1.3677481 0.91562861 -0.44102767 7
8.9178085 5.9676995 0.18729922 53
1.5743982 1.0531721 -0.43730485 5
8.9156618 5.9617643 0.56208825 68
1.8164216 1.2146128 -0.42474085 90
8.9181547 5.9611726 0.93849301 62
2.2091165 1.4760846 -0.42080876 4
8.9156237 5.9549861 1.3164327 49
2.7768621 1.8540386 -0.4099685 3
8.9085636 5.9457684 1.6963756 56
3.7535365 2.5051918 -0.3948155 5
8.9088163 5.943696 2.0817263 59
5.735939 3.8253968 -0.36132747 2
8.9033871 5.9355774 2.4704125 61
8.9359083 5.9549999 -0.18743885 31
8.9199238 5.9421062 2.8718562 51
1.367718 0.90871012 -0.4399924 6
9.0318718 5.998486 0.1892539 30
1.5845586 1.0519818 -0.43910447 5
9.0279474 5.9913459 0.56784517 30
1.8239222 1.2104355 -0.42550406 92
9.0152826 5.9806695 0.94651133 26
2.2109625 1.4661813 -0.42018303 4
9.0521784 6.0006022 1.3334944 23
2.7882819 1.8476231 -0.41069973 3
9.0428963 5.9899063 1.7179635 26
3.755614 2.487674 -0.39411828 5
9.0571918 5.9971023 2.1114926 25
5.7559204 3.8097594 -0.36174616 2
9.0898228 6.0141459 2.5163026 26
9.1267624 6.0362964 -0.19099914 22
9.0904827 6.010015 2.9199965 25
1.3708819 0.90393001 -0.4399924 6
9.1462498 6.0285563 0.19120856 27
1.5849668 1.0442994 -0.43820465 5
9.1605616 6.0333982 0.57485819 25
1.8248575 1.2019013 -0.42474085 90
9.1409388 6.0181923 0.95749295 28
2.2127674 1.4562823 -0.4195573 4
9.14604 6.0169702 1.344219 22
2.7930546 1.8367901 -0.410456 3
9.1446333 6.0114722 1.7332941 27
3.7609453 2.4723592 -0.39376962 5
9.1338568 6.0021052 2.1244676 30
5.7691813 3.7896481 -0.36174616 2
9.1596308 6.0144653 2.5297995 27
9.1812134 6.0263443 -0.19169722 22
9.1372452 5.9952092 2.9282787 25
1.3772618 0.90125519 -0.44102767 6
9.1940155 6.0141058 0.19176705 26
1.5837097 1.0355605 -0.43685496 6
9.2083149 6.0188708 0.57653296 27
1.8389016 1.2019693 -0.42703056 95
9.1969194 6.0091319 0.96115357 24
2.2112219 1.4442278 -0.41830578 4
9.1786222 5.9926071 1.3459252 21
2.8011117 1.8281136 -0.41069973 3
9.2019606 6.0032582 1.7401772 30
3.7695532 2.4592152 -0.39376962 5
9.18435 5.9894905 2.1313365 30
5.7723365 3.7629409 -0.36111811 2
9.2066946 5.9994764 2.536998 27
9.2323523 6.0139074 -0.19232552 22
9.1904964 5.9843588 2.9386315 26
1.3868803 0.90065038 -0.44309825 6
9.2535286 6.0070205 0.19256985 27
1.58241 1.0268447 -0.43550524 5
9.2426748 5.9953842 0.57737035 25
1.8364978 1.1912688 -0.42550406 76
9.2462559 5.9954209 0.96411681 27
2.2261946 1.4429485 -0.42018303 4
9.227807 5.978878 1.3500687 23
2.7941473 1.8096908 -0.40874982 3
9.2394371 5.9818416 1.7433058 30
3.7881477 2.4525411 -0.3948155 5
9.2282791 5.9723263 2.1366794 29
5.7787299 3.7384281 -0.36069945 2
9.2406673 5.9757743 2.5405972 27
9.2801609 5.9990115 -0.19288401 20
9.2372923 5.9690146 2.9469137 26
1.3867677 0.89371109 -0.44206294 7
9.3080635 5.9963403 0.19326794 27
1.5925386 1.0255347 -0.43730485 5
9.2887354 5.9793019 0.57894039 27
1.8373433 1.1827261 -0.42474085 75
9.2905874 5.9782004 0.96655715 26
2.2378638 1.4394429 -0.42143452 4
9.2903624 5.9734721 1.3561622 26
2.8004467 1.7999269 -0.40874982 3
9.2702351 5.9559584 1.745183 30
3.8100963 2.4479179 -0.39620999 5
9.2821074 5.961297 2.1443117 30
5.795105 3.7203932 -0.36090881 2
9.2844334 5.9582152 2.5468957 27
9.3178768 5.9773755 -0.19323304 21
9.28409 5.9534211 2.9551959 27
1.380114 0.88262028 -0.43895712 6
9.3491583 5.9767351 0.19368681 27
1.5993927 1.0220685 -0.43820465 5
9.3421717 5.9699783 0.58103383 28
1.8364968 1.1731352 -0.42359596 59
9.3315506 5.9585991 0.96864891 26
2.2362139 1.4273715 -0.42018303 3
9.3396053 5.9591608 1.3603058 24
2.8117342 1.7933424 -0.40948102 3
9.3199139 5.9443021 1.7508147 29
3.8001373 2.422822 -0.39429256 4
9.319416 5.9394093 2.1481278 29
5.8030038 3.6969206 -0.36059478 3
9.3298292 5.9414735 2.5536444 27
9.3612576 5.9614878 -0.19372171 22
9.3168201 5.9308977 2.9593372 26
1.3831866 0.87779707 -0.43895712 6
9.389185 5.958559 0.19410567 25
1.6077101 1.0198904 -0.43955436 6
9.3899431 5.9544435 0.5827086 28
1.8538463 1.1751257 -0.42664891 63
9.3724871 5.9387884 0.97074062 27
2.2375984 1.4178331 -0.4195573 4
9.3844719 5.9440866 1.3639618 24
2.8226969 1.7871948 -0.41021225 3
9.3706503 5.9307508 1.7564464 28
3.7951026 2.4010196 -0.39289808 4
9.3556519 5.9189711 2.1519439 30
5.8287344 3.6861982 -0.36143214 3
9.3890152 5.9354911 2.5644419 29
9.4141302 5.9490685 -0.1943849 23
9.3733969 5.9210396 2.9707251 27
1.3909934 0.87629485 -0.44051 6
9.4268475 5.9364061 0.19445471 25
1.6013651 1.0080436 -0.43685496 6
9.4343386 5.9365196 0.58417404 27
1.8560717 1.1679257 -0.42626733 62
9.4258575 5.9288931 0.97422689 28
2.2391896 1.4079102 -0.41893157 4
9.4135685 5.9165726 1.3651805 26
2.8305988 1.7783874 -0.410456 3
9.4147177 5.9127107 1.7608266 18
3.8131676 2.3947778 -0.39394394 4
9.4028606 5.902976 2.1580498 29
5.8229566 3.6541531 -0.36028075 2
9.422884 5.9109626 2.5680411 30
9.470418 5.938478 -0.19511791 15
9.4201965 5.9047027 2.9790072 25
1.4055108 0.87860173 -0.44413349 6
11.418077 7.1348066 0.23501411 49
1.6048738 1.0024482 -0.43685496 6
11.447311 7.1475196 0.70726818 64
1.8618022 1.1624798 -0.42664891 63
11.479802 7.1650214 1.1839236 24
2.2507932 1.4042693 -0.42018303 4
2.8334205 1.766395 -0.4099685 3
3.8282671 2.3856688 -0.39464122 4
5.8255048 3.6274688 -0.35965273 2
11.400643 7.0962777 3.1002755 7
10.649035 6.6258645 -0.21892299 25
13.7584 8.5571899 4.3414307 7
1.4052861 0.87165332 -0.44309825 7
11.451408 7.1001773 0.23518863 70
1.6100199 0.99786621 -0.43730485 6
11.501057 7.1253963 0.70904762 56
1.8541667 1.1487356 -0.42397761 74
11.543701 7.1490369 1.1879327 12
2.2590411 1.398483 -0.42080876 4
15.188875 9.3991566 2.1931608 11
2.8328159 1.7523171 -0.40899354 4
14.815373 9.1608868 2.7588787 3
3.829792 2.3681004 -0.39394394 4
11.9622 7.3937716 2.7335298 9
5.8551216 3.6176114 -0.36069945 2
11.743681 7.2530508 3.1866565 6
10.607442 6.5487304 -0.21759661 25
13.554742 8.3650417 4.2679267 7
1.398448 0.86066818 -0.4399924 7
11.518705 7.0863538 0.23606126 19
1.6184734 0.99530202 -0.43865454 6
1.8648543 1.1463699 -0.42550406 92
25.527279 15.686067 2.6212962 16
2.2672758 1.3926562 -0.42143452 3
14.71747 9.0365629 2.1205268 7
2.8456833 1.7465708 -0.4099685 4
14.294995 8.7702837 2.6562576 11
3.8312428 2.350549 -0.39324668 4
11.778732 7.223681 2.6858275 16
5.874526 3.6013248 -0.36111811 2
11.795515 7.228302 3.193855 6
10.650694 6.5242052 -0.21801546 27
13.453702 8.2379818 4.2270327 4
1.4063903 0.85880148 -0.44154531 7
1.6236012 0.99066186 -0.43910447 6
25.534246 15.573945 1.567462 31
1.8755494 1.1439422 -0.42703056 79
25.515537 15.556409 2.6144979 27
2.2586284 1.3765098 -0.41893157 4
14.723498 8.9696388 2.1168706 11
2.851763 1.7366263 -0.4099685 4
14.816536 9.019228 2.7473023 16
3.8496354 2.3433776 -0.39429256 4
11.550628 7.0284185 2.6282034 7
5.8870621 3.5807955 -0.36111811 2
14.683012 8.9274158 3.967237 4
10.675114 6.4880233 -0.21805036 28
1.4126838 0.8558895 -0.44258058 7
23.587351 14.285018 0.48133737 4
1.613713 0.97691429 -0.43550524 6
25.569664 15.473339 1.5663106 36
1.8795314 1.1373879 -0.42703056 63
25.574787 15.47036 2.615021 39
2.2668009 1.370661 -0.4195573 4
25.411755 15.359612 3.6458437 21
2.8646028 1.7307692 -0.41094348 4
14.399838 8.6968231 2.6643922 6
3.8612034 2.3319848 -0.39464122 4
14.239025 8.5963097 3.2330678 7
5.8943934 3.5571322 -0.36080414 3
13.687871 8.2570515 3.6905468 5
10.728522 6.469305 -0.21867865 27
11.305395 6.814476 3.5370212 14
1.4239419 0.85592902 -0.44516876 7
23.390247 14.054281 0.47631109 4
1.6154422 0.97027314 -0.43505535 6
25.493378 15.305861 1.5583556 36
1.8868563 1.1328417 -0.4277938 64
25.667929 15.404567 2.61903 11
2.283428 1.369855 -0.42174736 3
25.346041 15.199354 3.6287818 26
2.8604114 1.7146349 -0.40948102 4
14.443666 8.6546249 2.6668949 4
3.8795755 2.3246362 -0.39568707 4
14.786009 8.8562593 3.3502245 3
5.9033475 3.5344818 -0.36059478 3
17.495663 10.470932 4.7073255 7
10.778494 6.4482441 -0.21923712 30
1.4202844 0.846995 -0.44309825 7
23.195253 13.827155 0.4713546 4
1.6305379 0.97161067 -0.43820465 6
25.428255 15.14625 1.5511332 36
1.8739324 1.1162012 -0.42397761 59
25.680456 15.290417 2.6148465 5
2.2983811 1.3679372 -0.4236246 3
25.310234 15.058003 3.6161075 17
2.8629665 1.702611 -0.40899354 3
15.732003 9.3521338 2.898731 13
3.8842392 2.3090463 -0.39533845 4
14.897847 8.8527288 3.3685422 3
5.9190831 3.5158949 -0.36080414 3
15.479455 9.1910362 4.1561956 4
10.812976 6.4177222 -0.21948145 27
13.263366 7.8689489 4.1323051 7
1.4199064 0.84006572 -0.44206294 7
22.998968 13.601552 0.46639812 4
1.6372749 0.9678961 -0.43910447 6
25.355446 14.983226 1.5434921 35
1.8828877 1.1126498 -0.42512247 61
25.685644 15.172302 2.6099658 5
2.2929363 1.3538792 -0.42174736 3
25.253227 14.904991 3.600508 21
2.8757315 1.6966411 -0.4099685 4
23.623861 13.932188 4.3438725 13
3.8819788 2.2893996 -0.39429256 4
14.734164 8.686018 3.3246562 27
5.9330411 3.4962246 -0.36090881 3
13.619108 8.0222712 3.6491559 5
10.857713 6.3931317 -0.21993522 26
12.523241 7.3708682 3.8936739 8
1.417832 0.83217025 -0.44051 7
22.828989 13.393682 0.46200013 9
1.6372812 0.96020371 -0.43820465 6
25.266302 14.811808 1.534909 30
1.890147 1.1080567 -0.42588571 62
25.298391 14.824671 2.5653422 10
2.2908301 1.3418741 -0.4204959 4
16.114614 9.4355001 2.29285 11
2.8816369 1.6865917 -0.4099685 4
23.457516 13.723957 4.304451 8
3.8899462 2.2758358 -0.39429256 4
14.454257 8.4531631 3.2548199 7
5.9503827 3.4785154 -0.3612228 3
11.291482 6.5982141 3.0192931 10
10.921402 6.3794007 -0.22077294 27
16.462709 9.6123219 5.1080527 4
1.424067 0.82916039 -0.44154531 7
22.637094 13.175103 0.45718324 4
1.6372545 0.95252228 -0.43730485 5
25.189262 14.654614 1.5272681 26
1.9024894 1.1063864 -0.4277938 64
25.339647 14.730269 2.5642962 32
2.2886686 1.3298988 -0.41924441 4
25.219347 14.648563 3.5810089 12
2.8806393 1.6725364 -0.40899354 3
15.952179 9.2620411 2.9215703 13
3.9013138 2.2642429 -0.39464122 4
14.337638 8.3179264 3.2220011 12
5.9417553 3.4457011 -0.35996673 3
14.261496 8.2671013 3.805722 5
10.987479 6.3692207 -0.22168046 30
13.139767 7.6137938 4.0691533 8
1.4336443 0.82804894 -0.44361585 7
22.493645 12.991952 0.45341352 8
1.630278 0.94124186 -0.43460542 5
25.1036 14.487736 1.518999 30
1.9012378 1.096796 -0.42664891 63
2.3016222 1.3272365 -0.42080876 4
25.197269 14.524214 3.5710158 34
2.8792894 1.659011 -0.40801859 3
23.071096 13.287917 4.2168479 12
3.923008 2.2585626 -0.39603567 5
5.9548788 3.426976 -0.36007139 3
15.864842 9.12638 4.2254806 2
11.026982 6.3407936 -0.22202952 28
13.04567 7.498569 4.0318832 15
1.4397347 0.82521117 -0.44465113 7
22.309832 12.782129 0.44880611 8
1.6436996 0.9413566 -0.43730485 5
25.04829 14.339483 1.5126139 29
1.8980497 1.0865833 -0.42512247 61
2.3010967 1.3162524 -0.41987014 5
25.166824 14.389852 3.5595601 28
2.8816164 1.6469795 -0.40753111 3
16.771132 9.5816193 3.059233 4
3.9270148 2.243567 -0.39568707 5
14.608732 8.3428144 3.2700846 10
5.9702754 3.4081478 -0.36028075 3
13.312048 7.5961466 3.53848 6
11.087261 6.3240628 -0.22279742 30
1.4291711 0.81254238 -0.44051 7
22.163067 12.595495 0.44496655 8
1.6605312 0.9433133 -0.44090405 5
24.988771 14.189836 1.5060196 29
1.9086595 1.0838293 -0.42664891 63
2.3056777 1.3082113 -0.41987014 4
16.833712 9.5473452 2.3762088 6
2.8977091 1.6427854 -0.40899354 3
16.837133 9.5415192 3.0651774 8
3.9209552 2.2219858 -0.39429256 5
5.9873486 3.3902402 -0.36059478 3
13.350356 7.5563488 3.5416293 3
11.130157 6.2971363 -0.22321628 27
13.104427 7.4111137 4.0339537 5
1.4336812 0.80849797 -0.44102767 6
21.973476 12.386467 0.44028932 8
1.6519297 0.93081433 -0.43775475 6
24.942438 14.048618 1.5002627 34
1.907299 1.0742701 -0.42550406 61
25.0438 14.099937 2.5144432 20
2.3067873 1.2982167 -0.41924441 4
16.934408 9.5264883 2.3857143 11
2.9068868 1.6346058 -0.40948102 3
16.69297 9.382987 3.0329516 3
3.9269512 2.2073083 -0.39411828 5
17.09194 9.6033297 3.8108373 31
5.9939232 3.3663843 -0.36028075 2
15.313821 8.597229 4.0545177 2
11.1852 6.2768478 -0.22387949 27
13.162231 7.3832793 4.0437889 2
1.4364949 0.80348819 -0.44102767 6
21.79665 12.186745 0.43589133 8
1.6398588 0.91648626 -0.43370563 5
24.891941 13.905937 1.4942964 34
1.9110376 1.0676054 -0.42550406 61
25.026762 13.975525 2.5078194 35
2.3130298 1.2911201 -0.4195573 4
16.820213 9.3850975 2.3649967 6
2.8987057 1.6167126 -0.40753111 3
22.395147 12.48547 4.061039 15
3.9415927 2.1974688 -0.3948155 5
6.0073833 3.3464112 -0.36038542 3
14.347721 7.9891229 3.7913249 11
11.24723 6.2601304 -0.22468229 28
16.147276 8.9837618 4.9512086 8
1.452805 0.80596662 -0.44516876 6
21.667675 12.015541 0.43247062 8
1.6481614 0.91359037 -0.43505535 6
24.826771 13.75605 1.4874927 33
1.9216217 1.0647346 -0.42703056 63
25.20785 13.96145 2.5210669 10
2.3192508 1.2839943 -0.41987014 5
16.76429 9.2773113 2.352566 8
2.9043303 1.6065863 -0.40753111 3
15.06394 8.3294668 2.7263403 4
3.9597018 2.1894805 -0.39586139 5
16.552025 9.1485167 3.6761262 5
6.0067878 3.3186643 -0.35965273 2
21.946259 12.119981 5.7879906 21
11.307528 6.2420902 -0.22545019 27
12.421864 6.8544154 3.8015342 3
1.4556098 0.80089009 -0.44516876 6
21.527262 11.839606 0.42884052 7
1.6632935 0.91440445 -0.43820465 6
24.778372 13.616395 1.4817358 33
1.9218857 1.056129 -0.42626733 62
25.207539 13.846507 2.5161862 10
2.3289125 1.2787446 -0.42080876 4
16.820936 9.2321024 2.3559783 11
2.9134018 1.5983473 -0.40801859 3
16.620571 9.1145954 3.0022907 1
3.9620781 2.1727738 -0.39533845 5
13.292219 7.2863278 2.9464726 4
6.0200882 3.2986348 -0.35975742 3
13.018718 7.1305037 3.4269044 4
11.353806 6.2160287 -0.22593886 30
16.031652 8.7734404 4.8968563 9
1.4448304 0.78840095 -0.44102767 6
21.361303 11.651404 0.42472175 7
1.6716084 0.91139102 -0.43955436 6
24.73105 13.478201 1.4760834 28
1.9203893 1.046595 -0.42512247 61
25.245218 13.752719 2.5151403 10
2.3316276 1.2696621 -0.4204959 4
16.828653 9.1600399 2.352566 4
2.9241943 1.5910147 -0.40874982 3
15.15122 8.2401485 2.7316587 15
3.9678888 2.1579776 -0.39516413 5
13.289977 7.2248788 2.9403667 7
6.0420947 3.2833235 -0.36038542 4
20.198036 10.971212 5.3065958 15
11.403554 6.1916223 -0.22649734 28
15.999358 8.6833344 4.8777037 15
1.450971 0.78519261 -0.44206294 7
21.204857 11.470205 0.42081243 7
1.6730657 0.90462315 -0.43910447 6
24.693602 13.346227 1.4710592 33
1.9136672 1.0342855 -0.42283276 58
24.826796 13.412601 2.4687736 5
2.3343072 1.2605761 -0.42018303 4
16.870998 9.1069107 2.3540282 4
2.9349716 1.5836248 -0.40948102 3
3.9683828 2.1403291 -0.39446688 5
21.184938 11.421241 4.6782551 12
6.0500031 3.2603161 -0.36017609 4
13.150537 7.0837965 3.4484997 24
11.460305 6.1707468 -0.22719543 28
16.8342 9.0604954 5.1225471 6
1.4520011 0.77920914 -0.44154531 7
21.059734 11.296868 0.4171474 11
1.6676259 0.89417356 -0.43685496 6
24.636179 13.204275 1.4648836 33
1.9449522 1.0424378 -0.42893866 66
24.787409 13.279745 2.4602323 40
2.3352103 1.2505556 -0.4195573 4
16.895687 9.0442114 2.3530533 11
2.9404821 1.5733695 -0.40948102 3
18.328091 9.8027439 3.2920072 14
3.972316 2.1245856 -0.39411828 5
13.244864 7.0810184 2.9193778 3
6.0507789 3.2335281 -0.35954806 4
13.120177 7.0084701 3.4341028 6
11.536461 6.1599011 -0.22827749 31
13.588362 7.252459 4.1271286 5
1.463239 0.77867395 -0.44413349 7
20.956038 11.147224 0.41432014 18
1.6621339 0.88377208 -0.43460542 6
20.936152 11.127274 1.2425604 21
1.939911 1.0310358 -0.42703056 63
20.946867 11.128281 2.0751781 14
2.3360724 1.240543 -0.41893157 4
15.647185 8.3057575 2.1751244 8
2.9214056 1.550072 -0.40606871 3
18.234806 9.6711369 3.2691679 44
3.9885094 2.1153734 -0.39498982 4
12.938199 6.8590999 2.846489 2
6.0620284 3.2123888 -0.35954806 4
14.429229 7.6431084 3.7697299 7
11.582637 6.1326909 -0.22876614 30
13.579445 7.1869121 4.116776 6
1.4556971 0.7681517 -0.44102767 6
20.825022 10.984437 0.41096926 14
1.67038 0.88069177 -0.43595514 6
20.814079 10.96938 1.2330352 24
1.9348145 1.0196807 -0.42512247 61
20.819887 10.967799 2.0587931 16
2.3491275 1.2369834 -0.4204959 4
15.70419 8.2658777 2.179024 7
2.9408529 1.5472583 -0.40801859 2
20.798304 10.937888 3.7218893 12
4.0082121 2.1079302 -0.39620999 4
15.537443 8.1677246 3.4120464 2
6.0714364 3.1902812 -0.3594434 4
16.869434 8.8604126 4.3991432 4
11.646463 6.1145339 -0.22960387 34
14.112495 7.4060888 4.270514 3
1.4583697 0.76306528 -0.44102767 7
20.700214 10.826421 0.40775803 14
1.6889867 0.8829816 -0.44000426 6
20.696474 10.815252 1.2238241 21
1.9470623 1.0174665 -0.42703056 79
20.684977 10.804662 2.0417104 20
2.3534315 1.2287753 -0.4204959 4
15.856136 8.2752962 2.1960857 6
2.9427156 1.5351477 -0.40753111 3
20.669966 10.778448 3.6921668 15
4.0067134 2.0893192 -0.39533845 4
13.252135 6.9074454 2.9048762 21
6.0789919 3.1672237 -0.35923404 3
12.885197 6.7104673 3.3540204 8
11.685476 6.0830731 -0.2299529 31
16.198164 8.428647 4.8927155 9
1.4575945 0.75619096 -0.4399924 7
20.563913 10.663876 0.40433735 14
1.6868684 0.87438971 -0.43865454 6
20.650656 10.704286 1.2190093 36
1.9488585 1.009761 -0.42664891 63
20.630569 10.68474 2.0326462 26
2.3506889 1.2169206 -0.41924441 4
20.622194 10.671275 2.8510118 22
2.9654212 1.5345032 -0.4099685 3
18.401852 9.5182524 3.2813699 8
4.024601 2.0808115 -0.39638433 4
15.267938 7.8904996 3.3406842 5
6.1006584 3.1514833 -0.35986209 3
16.972639 8.7677393 4.4103904 13
11.75178 6.0681458 -0.23086044 30
16.248343 8.3863983 4.8994446 13
1.4686828 0.75577331 -0.44258058 7
20.444458 10.516042 0.40130064 17
1.6758939 0.86166286 -0.43505535 6
20.7411 10.664062 1.222254 30
1.964419 1.009575 -0.42932025 83
20.713741 10.640842 2.0373526 27
2.3582265 1.2109228 -0.41987014 4
20.706915 10.628215 2.8578362 22
2.9669611 1.5228487 -0.40948102 3
18.522953 9.5031595 3.2973261 10
4.0208421 2.0619979 -0.39533845 4
13.125881 6.7284255 2.8670962 5
6.1092992 3.1303227 -0.35975742 4
13.350862 6.8408022 3.4633465 11
11.810996 6.0491934 -0.23162833 30
12.608144 6.4546967 3.7953227 4
1.4729019 0.75177664 -0.44309825 6
20.338497 10.376399 0.39854315 14
1.6839499 0.8587569 -0.43640503 5
20.833363 10.619709 1.2254988 36
1.9572618 0.99770504 -0.42703056 79
20.834126 10.615518 2.0457196 27
2.3675089 1.2057871 -0.42080876 4
20.818117 10.598209 2.8683171 22
2.97049 1.5115818 -0.4092373 3
18.642279 9.4823399 3.3126566 14
4.0315676 2.0497568 -0.39568707 4
15.608694 7.9358778 3.4036512 5
6.1214256 3.1109526 -0.35986209 4
16.705292 8.4860802 4.325809 6
11.871264 6.0278492 -0.23239625 33
12.627155 6.4088945 3.7942874 8
1.4687518 0.74288571 -0.44102767 6
20.235405 10.234945 0.39582056 13
1.693894 0.85639018 -0.43820465 5
20.939829 10.582049 1.2295811 30
1.9609052 0.99052513 -0.42703056 95
20.945808 10.575907 2.0528662 27
2.3701499 1.1962099 -0.4204959 4
20.92942 10.563036 2.8785541 22
2.9597969 1.4931573 -0.40704364 3
20.999973 10.589462 3.7250178 3
4.0458145 2.0392575 -0.39638433 4
17.266487 8.6992531 3.7581742 11
6.1327863 3.0884969 -0.35986209 3
15.281106 7.6922774 3.9496906 13
11.917241 5.9989586 -0.23288491 36
12.683963 6.3821478 3.8046401 5
1.47479 0.73948574 -0.44206294 7
20.136919 10.092609 0.39316782 16
1.700506 0.85192209 -0.43910447 5
21.053476 10.542794 1.2339773 27
1.9608402 0.98191559 -0.42626733 93
21.034269 10.528585 2.0579214 27
2.3778434 1.1896986 -0.42112163 4
17.706503 8.8551626 2.4308062 6
2.9688013 1.4840734 -0.40753111 3
18.575357 9.2815914 3.2888784 18
4.0457783 2.0215631 -0.39568707 4
13.199134 6.5923553 2.8678594 4
6.1524649 3.0715294 -0.36038542 4
12.953876 6.46422 3.3423228 9
11.980304 5.975771 -0.23368771 38
13.467978 6.7148871 4.0324011 1
1.4739026 0.73261315 -0.44102767 7
20.014429 9.9439621 0.39009619 13
1.7034695 0.84598058 -0.43910447 5
21.170656 10.509197 1.2386875 27
1.9695315 0.97768325 -0.42741215 96
21.135143 10.486983 2.0641966 27
2.3749032 1.1778797 -0.41987014 4
21.157427 10.488827 2.8995156 18
2.9828565 1.478109 -0.40874982 3
13.383983 6.6293187 2.3656023 16
4.038527 2.0003526 -0.39429256 5
17.800087 8.8128138 3.8608294 4
6.1577783 3.0473783 -0.36007139 3
13.049726 6.4552493 3.3612187 4
12.053076 5.9596157 -0.23469996 27
12.720648 6.2869401 3.8020518 1
1.483382 0.73088014 -0.44309825 7
19.907301 9.8042364 0.3873387 16
1.6994185 0.83658683 -0.43730485 5
21.275303 10.468757 1.2426651 31
1.976455 0.97253734 -0.42817542 97
21.257439 10.455346 2.0725634 28
2.3719099 1.1660959 -0.41861868 4
21.242006 10.438562 2.9060965 23
2.9986889 1.4729382 -0.41021225 3
13.403497 6.5808148 2.3649766 22
4.0633702 1.9950233 -0.39603567 4
17.68269 8.6779823 3.8287737 4
6.1450682 3.0144286 -0.35871068 3
16.80084 8.2379198 4.3199601 4
12.131261 5.9456763 -0.23581693 44
13.550961 6.6385474 4.0432711 6
1.494604 0.72993618 -0.44568643 7
19.810213 9.6706619 0.38479066 19
1.7023287 0.8306492 -0.43730485 5
21.374548 10.425066 1.2463286 31
1.9780732 0.96477103 -0.4277938 96
21.372602 10.419501 2.0802333 28
2.3830686 1.1612711 -0.41987014 4
21.355055 10.401722 2.9165773 21
2.993103 1.4572487 -0.40874982 3
15.822495 7.7000647 2.7870367 7
4.0792665 1.9851873 -0.39690727 5
20.226892 9.8391123 4.3721976 10
6.1501656 2.9903383 -0.35839668 2
16.79619 8.1630421 4.3114119 12
12.16993 5.9120283 -0.23616597 37
13.614023 6.61061 4.0551772 3
1.4918003 0.72244942 -0.44413349 7
19.723383 9.5474062 0.38248694 19
1.7085819 0.82669735 -0.43820465 6
21.486319 10.391515 1.2508295 31
1.9706573 0.95307696 -0.42550406 76
21.480579 10.384127 2.0873799 28
2.3975778 1.1585193 -0.42174736 4
21.466297 10.367968 2.9270582 21
2.990768 1.4438636 -0.40777487 3
18.747822 9.0469179 3.297013 6
4.0789938 1.9674724 -0.39620999 5
13.099566 6.3184791 2.8270264 9
6.1924295 2.9855444 -0.36028075 3
14.277659 6.88059 3.6590538 10
12.229104 5.8907275 -0.23693386 34
12.654167 6.0927663 3.7632291 6
1.4874711 0.71363461 -0.44206294 7
19.614161 9.4101629 0.37972948 21
1.7167289 0.82325572 -0.43955436 6
24.004295 11.506085 1.3950675 26
1.9776784 0.94754487 -0.42626733 78
2.4053717 1.1514291 -0.42237309 4
17.688547 8.4673433 2.4078948 6
3.0047438 1.4376984 -0.40899354 3
24.00071 11.478621 4.2137194 8
4.0732532 1.9472079 -0.39498982 4
13.096063 6.25773 2.8213019 1
6.2069354 2.9645479 -0.36049011 2
13.112205 6.2598228 3.35447 4
12.27666 5.86093 -0.23745745 30
13.163542 6.2815108 3.9081676 3
1.4882085 0.70760804 -0.44154531 7
19.500418 9.267828 0.37686729 18
1.7179744 0.81612229 -0.43910447 5
23.973951 11.388805 1.3909851 30
1.984521 0.94231939 -0.42703056 79
24.207455 11.489376 2.3443151 4
2.3986678 1.1379461 -0.4204959 4
16.582293 7.8632107 2.2533646 3
3.0207555 1.4317778 -0.410456 3
23.9603 11.356705 4.1996403 20
4.0818257 1.9338317 -0.39516413 5
18.100225 8.5713997 3.8928852 9
6.2172456 2.9428649 -0.36049011 2
15.725185 7.4399848 4.0162759 6
12.349463 5.8428445 -0.23846968 29
14.835749 7.0159922 4.397336 9
1.4959121 0.70487964 -0.44309825 7
13.530816 6.3757734 0.26108801 13
1.7136197 0.80709893 -0.43730485 6
23.937664 11.269326 1.3865889 30
2.0002329 0.94123811 -0.42970186 67
24.160877 11.364097 2.3359482 4
2.3970659 1.1274627 -0.4195573 4
13.42854 6.3132672 1.8219469 16
3.0147076 1.4166862 -0.40899354 3
16.245415 7.6306648 2.8427274 4
4.0903549 1.9204173 -0.39533845 4
18.148098 8.5205126 3.8970833 32
6.2143145 2.9162903 -0.35975742 3
14.114281 6.6206279 3.5992167 17
12.418669 5.822618 -0.23941211 30
12.895702 6.0435352 3.8160281 3
1.5069926 0.70400375 -0.44568643 7
13.505878 6.3065085 0.26018047 60
1.707597 0.79699177 -0.43505535 6
13.50681 6.3040729 0.78116655 17
1.9944471 0.93045026 -0.4277938 80
23.884232 11.137406 2.3056178 8
2.4099388 1.1232616 -0.42112163 4
13.454092 6.2680335 1.8224343 27
3.0160348 1.404479 -0.4085061 3
23.877674 11.119132 4.1717949 16
4.1219888 1.9186138 -0.39777881 4
13.921661 6.4769974 2.9846346 25
6.2208338 2.8928974 -0.35954806 4
17.84305 8.2938223 4.5426617 16
12.481432 5.8016305 -0.24024983 32
13.437766 6.2433105 3.9702845 3
1.4989222 0.69386935 -0.44258058 7
13.521275 6.2591629 0.26007575 65
1.7226105 0.7970534 -0.43820465 6
13.490667 6.2392778 0.77896845 60
1.9816447 0.91606802 -0.42435926 60
23.866894 11.028065 2.3002143 13
2.4154434 1.1160928 -0.42143452 4
23.82826 11.005155 3.2227132 16
3.0098622 1.3894768 -0.40704364 3
13.418189 6.1915579 2.3405728 11
4.117806 1.899206 -0.39673293 5
13.98585 6.4505258 2.9937932 8
6.2376485 2.8755956 -0.35996673 4
13.024526 6.0016403 3.3108296 9
12.541565 5.7764335 -0.24101773 28
16.872606 7.7676692 4.9770904 13
1.4924357 0.68486661 -0.4399924 7
1.736011 0.79590797 -0.44090405 6
13.505099 6.1888227 0.77854973 79
1.9971647 0.91521716 -0.42703056 79
13.458758 6.1647449 1.2951343 21
2.4229171 1.1092986 -0.42206025 4
23.787104 10.885571 3.2119887 27
3.0255251 1.383917 -0.4085061 3
13.499007 6.1717834 2.3508976 5
4.1204572 1.8838844 -0.39638433 4
13.99757 6.3967662 2.9915035 22
6.2549148 2.8571253 -0.36038542 4
15.133655 6.9095716 3.8408144 5
12.594399 5.7475605 -0.24164602 28
15.187684 6.927834 4.4729109 7
1.5018516 0.68285161 -0.44206294 7
19.029821 8.6483307 0.36486 20
1.7281333 0.78500706 -0.43820465 5
1.9967719 0.90661728 -0.42626733 78
13.491082 6.122664 1.2961801 32
2.4087853 1.0926732 -0.41893157 4
17.329046 7.8571653 2.3362355 9
3.03757 1.3766242 -0.40948102 3
16.385069 7.4222527 2.848985 4
4.1179342 1.8653781 -0.39551273 4
13.404576 6.0693121 2.8602271 10
6.2593913 2.8328018 -0.36007139 2
15.136375 6.8470607 3.8354156 5
12.64718 5.7184014 -0.24227431 26
12.072949 5.4562197 3.549962 6
1.5042262 0.67760456 -0.44206294 7
18.941368 8.5284996 0.36259121 20
1.7308629 0.77897036 -0.43820465 5
23.711691 10.666409 1.362619 25
2.0124576 0.90527904 -0.42893866 99
13.535992 6.0861645 1.2984462 21
2.416188 1.0858784 -0.4195573 4
13.684099 6.1470094 1.8419334 8
3.0351136 1.3627597 -0.4085061 3
13.828316 6.2059932 2.4006436 15
4.1411037 1.8576127 -0.39708155 4
13.547489 6.0771208 2.8861771 5
6.2783546 2.8150191 -0.36059478 4
14.683593 6.5805974 3.7148416 7
12.645165 5.6644063 -0.24185546 30
12.121898 5.4274616 3.5587621 14
1.5102282 0.67366105 -0.44309825 7
18.863277 8.4142628 0.36053181 23
1.7264522 0.76974905 -0.43640503 6
23.659388 10.543743 1.3574902 29
2.0175552 0.89869612 -0.42932025 99
23.667261 10.537338 2.2665722 25
2.4219563 1.0778189 -0.41987014 4
13.674641 6.0854883 1.8377899 20
3.0325959 1.3489317 -0.40753111 3
13.788526 6.1303964 2.3900061 26
4.1475625 1.843147 -0.39708155 4
13.645029 6.0609016 2.902205 17
6.2886295 2.7919903 -0.36059478 4
18.808008 8.3463449 4.7505164 13
12.787326 5.6745734 -0.24419408 16
12.16019 5.3937392 3.564456 35
1.5143377 0.66916573 -0.44361585 6
18.776918 8.2933655 0.35829791 20
1.7346101 0.76577759 -0.43775475 6
23.617485 10.426402 1.3529893 29
2.0188842 0.89085501 -0.42893866 100
23.634619 10.424124 2.2599483 28
2.4437795 1.0773259 -0.42299888 4
13.70957 6.0409265 1.839496 10
3.0484197 1.342609 -0.40899354 3
4.1393838 1.8222352 -0.39568707 4
13.73978 6.0456491 2.9178512 16
6.2946792 2.7684181 -0.36038542 4
15.700791 6.9019756 3.9595885 38
12.845496 5.6468048 -0.24492706 26
12.175407 5.3497019 3.5634208 24
1.5113548 0.66155201 -0.44206294 6
18.688911 8.1805315 0.35609892 19
1.7514225 0.76627046 -0.44135398 6
23.582373 10.312682 1.3489071 28
2.0075898 0.87751234 -0.42588571 100
23.581404 10.302469 2.2514071 28
2.4400978 1.0660532 -0.42174736 4
23.573238 10.293989 3.158366 22
3.0528555 1.3324919 -0.40899354 2
15.599916 6.8057165 2.6956789 1
4.1530247 1.8109593 -0.39638433 4
13.81914 6.0259457 2.9304447 19
6.3148108 2.7523153 -0.36101347 4
14.957154 6.5159812 3.7665806 24
12.910967 5.6218858 -0.24579969 23
12.192235 5.3064008 3.5629032 23
1.5082233 0.65423048 -0.44051 7
18.603603 8.0659218 0.35393479 22
1.7487226 0.7578271 -0.44000426 6
23.544966 10.203456 1.3448249 28
2.0176947 0.87397188 -0.42741215 13
23.533163 10.188585 2.2435629 24
2.4347398 1.0536059 -0.42018303 4
23.519745 10.173042 3.1464229 21
3.0647769 1.3249775 -0.4099685 3
15.992292 6.9138565 2.7595043 4
4.1663227 1.8003395 -0.39708155 4
17.468176 7.5446916 3.6986418 9
6.3280482 2.7318375 -0.3612228 4
15.332295 6.6158237 3.855211 9
12.958915 5.5917196 -0.24635819 26
12.199122 5.2613468 3.5597973 21
1.5193728 0.65277433 -0.44309825 7
18.5145 7.9544592 0.3517358 22
1.7404822 0.74741066 -0.43730485 6
23.497845 10.085761 1.3401146 28
2.0225377 0.867697 -0.4277938 11
23.495338 10.074975 2.2365906 28
2.4364045 1.0447483 -0.41987014 4
23.473074 10.060577 3.1356986 25
3.0691535 1.3148077 -0.4099685 3
17.311073 7.4123783 2.9825797 11
4.1725812 1.7857862 -0.39708155 4
16.664652 7.1321573 3.5234792 11
6.3113637 2.6998417 -0.35975742 4
13.956528 5.9673605 3.5042875 29
13.024323 5.5660987 -0.24723078 18
12.231626 5.2248054 3.5639384 21
1.5268617 0.650002 -0.44465113 7
18.431746 7.8428092 0.3496415 22
1.7430804 0.7413311 -0.43730485 6
23.450197 9.9685097 1.3354044 28
2.0217907 0.85944867 -0.42703056 100
23.447931 9.9627285 2.2289209 24
2.4454911 1.0385542 -0.42080876 4
23.422167 9.9421186 3.1242428 25
3.0664146 1.3009857 -0.40899354 3
17.416859 7.3858433 2.9963462 8
4.1803145 1.7727162 -0.39725587 5
13.963607 5.9185724 2.9479992 13
6.3244267 2.679354 -0.35996673 4
13.681182 5.793232 3.4300537 14
13.082348 5.5369658 -0.2479638 17
12.246232 5.1805687 3.5629032 21
1.5202208 0.64091617 -0.44206294 7
18.361347 7.7372632 0.34779155 21
1.7492496 0.73675442 -0.43820465 6
23.407536 9.8540497 1.3310082 28
2.0229685 0.85162461 -0.42664891 100
23.420128 9.8545399 2.2229943 28
2.4545641 1.0323083 -0.42174736 4
23.398167 9.8356876 3.1164429 25
3.063617 1.2871974 -0.40801859 2
15.939966 6.6940012 2.7382293 3
4.188314 1.7588857 -0.39743021 4
13.933494 5.8485217 2.9373138 9
6.3319001 2.656487 -0.35986209 3
15.870454 6.6550374 3.9730854 6
13.103439 5.4920421 -0.2479987 15
12.260676 5.1362996 3.561868 22
1.5224485 0.63560605 -0.44206294 6
18.283052 7.6292229 0.34580198 21
1.7679976 0.73739558 -0.44225377 6
23.368053 9.7415371 1.3268213 28
2.0259292 0.84455746 -0.42664891 100
23.360592 9.7336407 2.2141044 28
2.4617994 1.0252533 -0.42237309 4
23.359055 9.7234325 3.1066935 25
3.0790884 1.28107 -0.40948102 3
15.839203 6.5867453 2.716954 3
4.1818542 1.738169 -0.39620999 5
16.504564 6.8600483 3.4742503 10
6.3522015 2.6389642 -0.36049011 4
15.943979 6.6205273 3.9856827 34
13.129919 5.4493318 -0.24813831 16
12.274962 5.0919871 3.5608325 21
1.5265534 0.63075906 -0.44258058 7
18.19129 7.5164876 0.34356809 21
1.7597539 0.72675598 -0.43955436 6
23.342836 9.6355276 1.3234718 27
2.0344555 0.83937317 -0.4277938 96
23.327959 9.6198568 2.207655 28
2.4527566 1.0109537 -0.42018303 5
23.319439 9.6115818 3.0969439 24
3.0798702 1.2688025 -0.40899354 3
23.318241 9.6015673 3.9940853 10
4.1860533 1.7228037 -0.39603567 4
16.47694 6.777854 3.4631836 11
6.3729138 2.6202226 -0.36111811 5
13.167355 5.4110703 -0.24848737 11
12.285514 5.046175 3.5587621 20
1.519806 0.62176865 -0.4399924 7
18.105808 7.4035988 0.34143889 18
1.7587979 0.71882713 -0.43865454 6
23.289433 9.5184765 1.3185521 27
2.041008 0.83375078 -0.42855701 98
23.28392 9.5067415 2.2003338 28
2.4526126 1.0008936 -0.4195573 5
23.273638 9.4930534 3.0862195 24
3.0845006 1.2575049 -0.40899354 3
23.285767 9.4932604 3.9828219 10
4.1994214 1.7111893 -0.39673293 4
16.620506 6.7691684 3.4883704 7
6.3875713 2.6002183 -0.36143214 5
18.129932 7.3765583 4.5188169 2
13.162083 5.3552804 -0.24803361 12
12.303055 5.0032568 3.5587621 23
1.5416628 0.62443858 -0.44568643 7
18.046854 7.3097382 0.33986816 21
1.7575594 0.71152782 -0.43775475 6
23.248461 9.4071512 1.3143653 27
2.0457256 0.82735878 -0.42893866 99
23.254162 9.4000139 2.1944072 27
2.4595811 0.9942348 -0.42018303 5
23.233206 9.3868256 3.0767136 21
3.0812898 1.2442982 -0.40801859 3
23.232662 9.3771753 3.968117 21
4.209065 1.6980098 -0.39708155 4
16.744818 6.7551503 3.5097408 10
6.3906002 2.5767858 -0.36111811 3
15.705166 6.3293633 3.9091992 16
13.160294 5.3010807 -0.24764964 9
12.349116 4.971827 3.5670443 40
1.5365535 0.61644518 -0.44361585 6
17.957188 7.2005506 0.33770406 21
1.7672681 0.70828784 -0.43955436 6
23.199577 9.2932682 1.3097597 27
2.0429909 0.81837964 -0.4277938 96
23.214918 9.2947121 2.1877835 27
2.4758749 0.99077994 -0.42237309 4
23.199478 9.2791357 3.0679393 24
3.0966744 1.2379555 -0.40948102 3
23.184544 9.2637644 3.9543509 21
4.218667 1.684786 -0.39743021 4
14.100901 5.6313996 2.9514337 6
6.3977013 2.5537207 -0.36101347 6
15.808615 6.3069944 3.929445 22
13.167571 5.2506695 -0.24744022 9
12.398697 4.9415669 3.5763617 53
1.533416 0.60867065 -0.44206294 6
17.909729 7.1090469 0.33634278 23
1.7751634 0.70427173 -0.44090405 5
23.165039 9.1857195 1.3059915 27
2.0368509 0.80726886 -0.42588571 93
23.163618 9.1758146 2.1797652 23
2.477653 0.98097223 -0.42206025 4
23.165283 9.1717844 3.0591645 24
3.1009772 1.2271377 -0.40948102 3
16.420158 6.4945803 2.7967355 7
4.2171111 1.6671188 -0.39673293 4
14.119622 5.5789552 2.951052 8
6.4033031 2.528789 -0.36080414 4
17.841846 7.0424833 4.4283862 18
13.176521 5.2009997 -0.24726568 8
12.455407 4.9138513 3.5877497 49
1.5319351 0.60190177 -0.44102767 6
17.801647 6.9907327 0.33382961 20
1.7741053 0.69633538 -0.44000426 5
23.14463 9.079607 1.3029561 30
2.0506227 0.80445641 -0.42817542 97
23.125025 9.0672588 2.1731412 23
2.470027 0.96799219 -0.42018303 4
23.122959 9.0571394 3.0491712 20
3.1054537 1.2157645 -0.40948102 3
16.375793 6.4077096 2.7851596 1
4.2213373 1.6509262 -0.39655861 2
16.499472 6.4527926 3.4437208 11
6.408371 2.5049658 -0.36059478 4
14.488365 5.660429 3.5911186 3
13.180592 5.1468539 -0.24698645 8
12.520123 4.8864312 3.6012082 49
1.5359313 0.59698308 -0.44154531 6
17.736473 6.8937812 0.33215421 22
1.7656258 0.68590564 -0.43730485 6
23.09985 8.9691162 1.2986646 30
2.0627084 0.80048692 -0.43008351 100
23.083797 8.9536266 2.1661689 22
2.477242 0.96036124 -0.42080876 4
23.0767 8.9462271 3.0389342 20
3.1022751 1.2020473 -0.4085061 3
16.191746 6.2706203 2.750118 4
4.2456551 1.6433718 -0.39830172 2
17.057665 6.599113 3.5551531 7
6.4063315 2.4771409 -0.35996673 4
16.028625 6.1945758 3.967237 34
13.20594 5.1036944 -0.24712607 8
12.591168 4.8635778 3.6167376 49
1.5503149 0.59728444 -0.44516876 5
17.668472 6.8035297 0.33047876 20
1.7677717 0.68035573 -0.43730485 5
23.036572 8.8613701 1.2935356 29
2.0614097 0.79295284 -0.42932025 83
23.048895 8.8614941 2.1604166 22
2.4800801 0.9530074 -0.42080876 4
23.013885 8.8388157 3.0269911 20
3.1078889 1.1930072 -0.40874982 3
23.033421 8.8370934 3.9074204 20
4.2433553 1.6271731 -0.3976045 2
17.231152 6.6075225 3.5872095 8
6.4211135 2.460979 -0.36038542 3
17.619232 6.7492838 4.3559523 13
13.216305 5.0600386 -0.24702136 7
12.664121 4.8460937 3.633302 54
1.5524935 0.59159857 -0.44516876 5
17.602417 6.7076387 0.32880333 22
1.7810628 0.67834198 -0.44000426 5
23.011368 8.7595816 1.2903955 32
2.0477877 0.77910948 -0.42588571 77
23.103565 8.7854586 2.1625082 30
2.4927893 0.94741923 -0.42237309 4
23.096558 8.7781687 3.0338156 25
3.1027555 1.1786275 -0.40753111 3
22.986561 8.7271948 3.89428 23
4.2490101 1.61235 -0.3976045 2
17.161633 6.5088201 3.5677466 13
6.4431629 2.442385 -0.36111811 3
17.560026 6.6528974 4.3352566 20
13.230148 5.0124536 -0.24695155 6
12.724319 4.8182797 3.6457253 52
1.5400884 0.58072257 -0.44102767 5
17.522099 6.603581 0.32684866 20
1.7871845 0.6731829 -0.44090405 5
22.968546 8.6470385 1.2862085 29
2.0541697 0.77333945 -0.42664891 63
23.094933 8.6900177 2.1588476 30
2.4923832 0.9373219 -0.42174736 4
23.128574 8.6934614 3.0338156 11
3.1144884 1.1700391 -0.4085061 3
22.955521 8.6192713 3.8836427 20
4.2359595 1.5905057 -0.39586139 2
17.717297 6.648911 3.6784163 8
6.4553905 2.4212804 -0.36132747 4
16.256559 6.0942554 4.0081778 10
13.24094 4.9611254 -0.24681193 6
12.781695 4.7865119 3.6571133 53
1.5475358 0.57736927 -0.44258058 6
17.456978 6.5095429 0.32520816 22
1.7858713 0.66557968 -0.44000426 5
22.949932 8.5486794 1.2834872 29
2.0715749 0.77164626 -0.42970186 83
2.4919369 0.92723894 -0.42112163 4
23.050867 8.5725355 3.0196788 8
3.1222746 1.1605443 -0.40899354 3
16.232224 6.0302668 2.7426095 6
4.2414856 1.5757107 -0.39586139 2
17.40727 6.4633298 3.6093431 20
6.4619298 2.3980386 -0.3612228 5
17.545748 6.5077882 4.3204103 13
13.269429 4.9190426 -0.24702136 7
12.85267 4.7620039 3.6726425 54
1.5567912 0.57463926 -0.44465113 6
17.374535 6.4098034 0.32325348 22
1.7717279 0.65327454 -0.43595514 6
22.908417 8.442277 1.2795097 32
2.0742557 0.76441079 -0.42970186 83
23.046602 8.4886341 2.1487377 3
2.4914508 0.91717046 -0.4204959 4
22.996815 8.4611807 3.0087106 20
3.130033 1.1510079 -0.40948102 3
16.210529 5.9578905 2.7354133 9
4.2656608 1.5677674 -0.3976045 2
16.906355 6.2102799 3.5009637 6
6.4496374 2.3678942 -0.36007139 5
17.561039 6.4438124 4.3186107 13
13.275253 4.8685656 -0.24681193 6
12.927258 4.7383823 3.6892068 52
1.5551583 0.56787664 -0.44361585 6
17.32354 6.322382 0.32189217 22
1.7758284 0.64775342 -0.43640503 5
22.849552 8.3301134 1.27459 29
2.0750666 0.75649363 -0.42932025 83
23.053627 8.3999538 2.1466458 3
2.4983494 0.9098193 -0.42112163 4
22.951593 8.3537025 2.9989612 24
3.1191075 1.1346467 -0.40753111 3
22.844017 8.3055201 3.8498526 19
4.2711072 1.552869 -0.3976045 2
16.935312 6.1539054 3.50249 6
6.471005 2.3501403 -0.36080414 6
17.535799 6.3651896 4.3069129 12
13.297807 4.8242393 -0.24691665 8
13.000022 4.7136397 3.7052536 45
1.5589479 0.56310129 -0.44413349 6
17.249582 6.2272391 0.32011205 19
1.7964095 0.64816409 -0.44090405 5
22.815054 8.2319202 1.2711359 29
2.0703073 0.74658215 -0.4277938 80
33.009445 11.897147 3.0697994 8
2.5126615 0.90510905 -0.42299888 4
22.928316 8.2547131 2.9921365 44
3.1267853 1.1250954 -0.40801859 3
22.791513 8.2009554 3.8363993 26
4.2802515 1.5392977 -0.39795309 2
17.673529 6.3524203 3.6505578 8
6.4866881 2.3302372 -0.3612228 7
17.58909 6.3151288 4.3145609 18
13.287382 4.770658 -0.24642798 8
13.06831 4.689435 3.7202652 49
1.5499887 0.553756 -0.44102767 5
17.191044 6.1417499 0.31864604 21
1.7985488 0.64220381 -0.44090405 5
22.781574 8.1300821 1.2676817 28
2.0765991 0.74066937 -0.42855701 100
33.144615 11.815292 3.0785151 8
2.5156493 0.89677107 -0.42299888 4
22.886375 8.1539774 2.9831181 46
3.134239 1.1160529 -0.4085061 3
22.756727 8.0988235 3.8257618 26
4.2630725 1.5163362 -0.39586139 2
17.716696 6.3016677 3.6551371 4
6.5169616 2.3167429 -0.36247885 6
17.545668 6.2339272 4.2988148 25
13.315259 4.7282653 -0.24663742 8
13.128295 4.6592937 3.7326884 50
1.5481738 0.54732472 -0.4399924 6
17.097364 6.0410705 0.31651685 21
1.7971045 0.63462436 -0.44000426 5
22.749548 8.029233 1.2643322 28
2.0827467 0.73508531 -0.42932025 99
22.834518 8.0547409 2.1184075 39
2.5038598 0.88273174 -0.4204959 4
22.8473 8.0502844 2.9743435 46
3.1512225 1.1097202 -0.41021225 3
22.725225 7.9983683 3.8157501 26
4.2718353 1.5035148 -0.39620999 2
17.284843 6.0801721 3.5616407 9
6.5287776 2.2953033 -0.36268821 6
15.677291 5.508554 3.8363154 16
13.354325 4.6897044 -0.24705628 8
13.208279 4.6358275 3.7508056 46
1.5555454 0.54383099 -0.44154531 6
17.050388 5.9576025 0.31526029 21
1.7919497 0.62577701 -0.43820465 5
22.72086 7.9300447 1.261192 31
2.0815921 0.72651821 -0.42855701 81
22.873781 7.9789271 2.1194532 14
2.5050607 0.87333524 -0.42018303 5
22.798399 7.9437199 2.9643502 49
3.1419542 1.0941446 -0.4085061 3
22.697041 7.899508 3.8063638 26
4.2921114 1.4938322 -0.3976045 2
17.237356 5.9959302 3.5475211 13
6.5310903 2.2705338 -0.36237419 6
17.417566 6.0518103 4.2569737 17
13.376283 4.6450253 -0.24716099 6
13.259056 4.6017318 3.7606409 64
1.5665636 0.54155332 -0.44413349 5
16.97847 5.8660474 0.31354994 21
1.7941231 0.61951852 -0.43820465 5
22.667221 7.8226624 1.2566911 28
2.0822601 0.71860677 -0.42817542 81
22.871359 7.8886337 2.1166644 3
2.515564 0.86716127 -0.42143452 5
22.767809 7.844039 2.9567943 46
3.1457546 1.0831697 -0.4085061 3
22.65723 7.7970958 3.7951005 25
4.3010674 1.4801383 -0.39795309 4
17.176489 5.90764 3.53073 11
6.5257554 2.2431757 -0.3616415 6
17.348274 5.9599533 4.2349286 29
13.409433 4.6041584 -0.24747512 7
13.258594 4.5497737 3.7559822 59
1.5702726 0.53670603 -0.44465113 6
16.932604 5.7841315 0.31232825 21
1.8036518 0.6157701 -0.44000426 5
22.632011 7.7222009 1.2532369 37
2.0698915 0.70626152 -0.42512247 61
22.838408 7.788188 2.1110864 3
2.5260549 0.86092335 -0.42268598 5
22.731165 7.7427483 2.9485071 44
3.1382403 1.0683461 -0.40704364 3
22.61138 7.69314 3.7828987 28
4.3043222 1.4644729 -0.39777881 4
17.165409 5.8368983 3.5242424 8
6.5335441 2.2203872 -0.3616415 6
17.276714 5.8680196 4.2124338 23
13.431106 4.5592475 -0.24757984 6
13.228659 4.4879518 3.7430413 56
1.5666459 0.52936661 -0.44309825 6
16.865543 5.6955547 0.31072265 21
1.8094832 0.61071628 -0.44090405 5
22.598833 7.6273026 1.2499921 40
2.0779247 0.7009148 -0.42626733 78
22.827696 7.695683 2.1076002 3
2.5290449 0.8520999 -0.42268598 5
22.707258 7.646255 2.9419262 47
3.1570022 1.0624496 -0.40899354 3
22.576855 7.5979581 3.772887 25
4.2867475 1.4418162 -0.39568707 4
21.491867 7.2244687 4.4073067 15
6.5601878 2.2039261 -0.36268821 6
17.226892 5.7841015 4.1953373 23
13.474586 4.5242271 -0.24810341 7
13.199512 4.4293113 3.7306178 59
1.5574901 0.52022219 -0.4399924 6
16.772434 5.6022134 0.30866325 23
1.8078011 0.60347962 -0.44000426 5
22.559004 7.5262642 1.2463286 37
2.080359 0.69365668 -0.42626733 62
22.805277 7.5995698 2.1030681 7
2.5168638 0.83871299 -0.42018303 5
22.664684 7.5483365 2.9331515 44
3.1605082 1.0519738 -0.40899354 3
22.535765 7.4966507 3.7616236 25
4.3012071 1.4299875 -0.39655861 5
21.502668 7.148818 4.404635 17
6.5636702 2.1808984 -0.36247885 6
17.157204 5.6974673 4.1737418 23
13.503582 4.4815764 -0.24834774 6
13.176387 4.3704338 3.7197475 61
1.5702127 0.51869053 -0.44309825 5
16.715931 5.5185599 0.30726707 21
1.8061956 0.59594387 -0.43910447 5
22.526337 7.4280763 1.2430837 37
2.0956988 0.69105828 -0.42893866 66
22.84549 7.5288963 2.1044626 7
2.5235283 0.83115882 -0.42080876 5
22.62113 7.4462051 2.9241333 49
3.1792462 1.0458987 -0.41094348 3
22.513 7.4019036 3.753489 25
4.3004932 1.4130998 -0.39603567 5
21.525621 7.0731077 4.4042535 20
6.5636535 2.1554792 -0.36206019 6
17.091816 5.6095924 4.1530466 25
13.553344 4.4456344 -0.24897604 6
13.158521 4.3135777 3.7104299 59
1.5867958 0.51772594 -0.44723931 5
16.66095 5.4359903 0.30590579 20
1.7952958 0.58540601 -0.43595514 6
22.489462 7.3289824 1.2396295 42
2.0870175 0.67972404 -0.42664891 63
22.624744 7.3643227 2.0816276 42
2.5265577 0.82190466 -0.42080876 5
22.577139 7.344481 2.9151151 47
3.160224 1.0274286 -0.40801859 3
22.469193 7.3006821 3.7419131 24
4.3167696 1.4017726 -0.39708155 4
21.549538 6.9935532 4.403872 17
6.5620103 2.1283286 -0.36153683 6
17.019571 5.5168691 4.1305513 22
13.576388 4.4007664 -0.24911566 6
13.138577 4.25631 3.7005947 54
1.5849161 0.51099789 -0.44620407 5
16.617952 5.3546457 0.3047539 20
1.8104138 0.58300376 -0.43910447 6
22.448372 7.2290015 1.2359661 42
2.0893772 0.67243534 -0.42664891 78
22.570652 7.259685 2.0743067 77
2.5406952 0.81670672 -0.42268598 5
22.556658 7.2464972 2.9090214 52
3.1600108 1.0151775 -0.40753111 3
22.424948 7.1998677 3.7303367 27
4.317842 1.3854771 -0.39673293 4
21.588772 6.923089 4.4069247 17
6.5751052 2.1072397 -0.36185086 6
16.957975 5.4348211 4.1112056 26
13.599284 4.3557849 -0.24925527 6
13.116557 4.1986461 3.6902421 57
1.5718774 0.50104523 -0.44206294 5
16.547972 5.2715917 0.3031483 20
1.8216219 0.57995242 -0.44135398 6
22.405611 7.1333075 1.2323025 39
2.0878541 0.66431189 -0.42588571 77
2.541507 0.80767798 -0.42237309 5
22.523808 7.1536241 2.9017093 52
3.1595767 1.0034903 -0.40704364 3
22.390331 7.1069422 3.7206376 27
4.3110189 1.3675354 -0.39568707 4
21.615356 6.8526411 4.4076877 17
6.6010962 2.0914583 -0.36289757 6
16.90531 5.3561935 4.0941091 28
13.636533 4.3179049 -0.24967413 6
13.093573 4.1434665 3.6798892 67
1.577215 0.4969922 -0.44309825 5
16.48144 5.1902542 0.3016125 20
