# .PCD v0.7 - Point Cloud Data file format
VERSION 0.7
FIELDS x y z intensity
SIZE 4 4 4 4
TYPE F F F F
COUNT 1 1 1 1
WIDTH 1371
HEIGHT 1
VIEWPOINT 0 0 0 1 0 0 0
POINTS 1371
DATA ascii
3.7851882 -7.9823704 2.3671591 30
3.7750199 -7.9897242 0.15424436 50
0.85133469 -1.8026413 -0.46024984 2
3.7767024 -7.996901 0.46348724 54
0.98893768 -2.0949519 -0.45030925 94
3.7655611 -7.9805202 0.77202559 42
1.2150781 -2.5763345 -0.45115703 4
3.7650762 -7.9867167 1.0841498 27
1.5746883 -3.3418393 -0.45359772 5
3.7621028 -7.9840202 1.3978986 32
2.1979249 -4.6665993 -0.45129246 5
3.7563138 -7.9789586 1.714228 31
3.6838973 -7.8286777 -0.45343879 8
3.7647622 -8.0041523 2.0421057 57
3.759367 -7.992681 -0.15417457 36
3.7554088 -7.9878855 2.3650885 32
3.7459593 -7.9967666 0.15413967 43
0.84039444 -1.7948653 -0.45755047 2
3.7445333 -8.0009918 0.46296394 48
0.98411459 -2.1037261 -0.45145413 95
3.7368364 -7.9918103 0.77185118 33
1.2090383 -2.5857179 -0.45209566 5
3.7368901 -7.9955611 1.0836623 24
1.5619173 -3.3434458 -0.45311025 4
3.7383878 -8.006053 1.3994628 30
2.1883638 -4.6886864 -0.45268691 5
3.7298348 -7.9913707 1.714228 28
3.653693 -7.8318019 -0.4529154 8
3.7381983 -8.016593 2.0421057 46
3.7339783 -8.0111923 -0.15427928 37
3.7299502 -8.0061989 2.3666413 27
3.723074 -8.0206766 0.15434909 55
0.83576435 -1.8013233 -0.45845026 2
3.7199433 -8.0212593 0.46338257 60
0.98208892 -2.1176641 -0.45374379 100
3.7220454 -8.0294666 0.77429163 50
1.2000051 -2.5899224 -0.45209566 6
3.7097914 -8.0103579 1.0839059 26
1.5502368 -3.3488777 -0.45311025 4
3.7079313 -8.0136747 1.3985243 32
2.1753132 -4.7013421 -0.45320985 5
3.70274 -8.0061245 1.7146096 29
3.6322002 -7.8571978 -0.45364809 9
3.7044718 -8.01721 2.0389564 49
3.705991 -8.0241776 -0.15427928 27
3.7035999 -8.0226784 2.3676767 32
3.697561 -8.039073 0.1544538 48
0.82947159 -1.8042297 -0.45845026 2
3.6852484 -8.0196781 0.46254522 52
0.96977216 -2.1103761 -0.45145413 100
3.6865098 -8.0261145 0.77272278 39
1.1959026 -2.6048667 -0.45397288 5
3.6826353 -8.0250635 1.0841498 22
1.5368824 -3.3506598 -0.45262277 4
3.6749966 -8.0157948 1.3966471 28
2.1588895 -4.7089067 -0.45320985 5
3.6804967 -8.0314932 1.717281 25
3.6147316 -7.8916187 -0.45490417 8
3.6756511 -8.0283203 2.0385065 46
3.6762955 -8.0334291 -0.15420946 41
3.6771808 -8.0390711 2.3687119 26
3.6686475 -8.0501118 0.1544189 47
0.82478398 -1.810661 -0.45935005 2
3.6621985 -8.0433998 0.46317327 52
0.9615863 -2.1119616 -0.45107248 95
3.6559956 -8.033493 0.77219987 36
1.1884381 -2.6126218 -0.45459861 5
3.6611738 -8.0523252 1.0860997 19
1.5259986 -3.3578112 -0.45286649 4
3.6518946 -8.0393658 1.3985243 30
2.1383207 -4.7095313 -0.45251262 5
3.6564975 -8.0532303 1.719189 27
3.5937655 -7.9187384 -0.45574155 9
3.6532407 -8.053524 2.0416558 44
3.6490569 -8.0480337 -0.15424436 28
3.648299 -8.0500984 2.3681943 27
3.6421704 -8.0665131 0.1544887 42
0.82006192 -1.8170812 -0.46024984 2
3.638206 -8.065237 0.46369663 46
0.95625997 -2.120841 -0.45221734 100
3.6265268 -8.0468388 0.77219987 33
1.1707412 -2.5989494 -0.45146993 6
3.6297812 -8.0578165 1.0851247 16
1.5183429 -3.3721681 -0.4540852 4
3.6286747 -8.0628719 1.4004015 26
2.119416 -4.7115159 -0.45198968 5
3.6221256 -8.0558348 1.7168994 23
3.5655372 -7.9336777 -0.45584619 9
3.6308854 -8.082859 2.0457051 35
3.6274965 -8.0753145 -0.1545236 26
3.6209679 -8.0645466 2.3687119 25
3.6158466 -8.0871105 0.15462832 35
0.81419158 -1.8218541 -0.46069977 3
3.6198094 -8.0997696 0.46495271 45
0.95045251 -2.1277514 -0.45298058 100
3.6097889 -8.084919 0.77464026 29
1.1616622 -2.60302 -0.45146993 6
3.6034589 -8.0783176 1.0860997 14
1.5092064 -3.3849628 -0.45506018 4
3.6117685 -8.100749 1.4047817 21
2.1118784 -4.7389035 -0.4539071 5
3.5995758 -8.0809822 1.7195706 14
3.5329463 -7.9351282 -0.45521817 8
3.603441 -8.0972643 2.0461547 24
3.6090424 -8.1098509 -0.15494247 28
3.5982921 -8.0894928 2.3723354 22
3.59711 -8.1173391 0.15497737 29
0.8049888 -1.8174169 -0.45890018 1
3.5923228 -8.1141815 0.46505737 36
0.9374584 -2.1184883 -0.45030925 94
3.5896032 -8.1156912 0.77638328 29
1.157019 -2.6158907 -0.45303425 4
3.582269 -8.1029329 1.0878059 14
1.4899501 -3.3717916 -0.45262277 4
3.588259 -8.1241484 1.4066589 21
2.0977376 -4.7517142 -0.45443004 5
3.5798943 -8.1090384 1.7230054 18
3.5066137 -7.9468002 -0.45521817 8
3.5805025 -8.1180849 2.0484045 30
3.5871658 -8.1370382 -0.1552217 23
3.5809369 -8.1267529 2.3795824 24
3.5824177 -8.1609745 0.15557076 29
0.80177194 -1.8273537 -0.46069977 1
3.5711954 -8.1431332 0.46599939 33
0.9312163 -2.1233838 -0.4506909 100
3.56827 -8.1403246 0.77760357 20
1.1510519 -2.6271508 -0.45428574 5
3.5643146 -8.1390266 1.0909745 13
1.4765792 -3.3733351 -0.45213532 4
3.5630465 -8.1438627 1.4079103 16
2.0859623 -4.7677712 -0.45530161 6
3.5617926 -8.1448698 1.7279664 14
3.4836521 -7.9699726 -0.45584619 8
3.5607247 -8.150176 2.0533531 24
3.564342 -8.1623383 -0.15546604 20
3.5633674 -8.163991 2.3868291 22
3.5610845 -8.1899338 0.15588489 22
0.79849517 -1.8372905 -0.46249935 1
3.549912 -8.1720371 0.46694148 25
0.9237988 -2.1266212 -0.4506909 94
3.550149 -8.176487 0.77986956 18
1.1403013 -2.6275287 -0.45366001 6
3.5501022 -8.1841984 1.0953618 12
1.4695332 -3.3893962 -0.45359772 3
3.5463784 -8.1834393 1.4126034 14
2.0597994 -4.7530866 -0.45320985 6
3.5427039 -8.1788721 1.7325459 13
3.4605727 -7.9930816 -0.45647424 8
3.5430884 -8.1875944 2.0596519 19
3.5493236 -8.2059317 -0.15605941 20
3.5402145 -8.1887913 2.3904526 19
3.5411761 -8.222517 0.15626885 16
0.79361814 -1.8436463 -0.4633992 1
3.5434663 -8.2357492 0.46987227 22
0.9210254 -2.1406536 -0.45298058 98
3.5341802 -8.2181168 0.78265858 15
1.1303427 -2.6296782 -0.45334715 6
3.5332665 -8.2238989 1.0990179 9
1.4584759 -3.3963294 -0.45384148 3
3.5325954 -8.230257 1.418548 10
2.0479109 -4.7712326 -0.45425573 5
3.525744 -8.2182512 1.73827 8
3.4326496 -8.0051136 -0.45647424 8
3.5336797 -8.2446899 2.0708995 19
3.5356195 -8.2531967 -0.15672261 17
3.5230145 -8.2277393 2.3982174 16
3.5297115 -8.2752934 0.15703675 13
0.78717792 -1.8464053 -0.4633992 1
3.5248749 -8.2719545 0.47123301 12
0.91508657 -2.1474676 -0.45374379 99
3.5249901 -8.2762289 0.78701639 9
1.1196091 -2.6299725 -0.45272139 5
3.5239689 -8.281848 1.1051114 7
1.4458349 -3.3995726 -0.45359772 4
3.5247102 -8.2916222 1.4269954 7
2.0304642 -4.7765183 -0.45408139 5
3.5131576 -8.2684536 1.746284 7
3.4000015 -8.0060158 -0.45584619 7
3.5170608 -8.285677 2.0780978 16
3.5333431 -8.3280764 -0.15790938 13
3.5123744 -8.282671 2.4106407 12
3.5257049 -8.3465109 0.15815371 13
0.77466381 -1.8347797 -0.45979998 1
3.5192754 -8.3394098 0.47437313 11
0.9083485 -2.1524575 -0.45412543 99
3.5224071 -8.3508987 0.79294294 8
1.1142586 -2.642966 -0.45428574 4
3.5143089 -8.3398304 1.1112047 6
1.4324187 -3.4009399 -0.45311025 4
3.5133731 -8.3457499 1.4341913 6
2.019963 -4.7982674 -0.4554759 5
3.5116849 -8.3458118 1.7600222 5
3.3743589 -8.0233593 -0.45616025 6
3.5092623 -8.3482046 2.0906951 10
3.5375595 -8.4196329 -0.15941028 3
3.5141082 -8.3679094 2.431864 10
3.5220141 -8.4196453 0.15930556 1
0.77276498 -1.8482599 -0.46249935 1
3.5294197 -8.4456282 0.47971141 1
0.89553046 -2.1429353 -0.45145413 100
1.1042655 -2.6450164 -0.45397288 5
10.674167 -25.58009 3.4033234 11
1.4205379 -3.4059196 -0.45311025 4
2.0085683 -4.818162 -0.45669609 5
3.3517051 -8.0479946 -0.45689294 6
6.1506481 -14.775982 3.6950459 24
7.416502 -17.825769 -0.33700597 8
4.8979669 -11.778195 3.4179645 27
0.76630861 -1.8509462 -0.46249935 1
0.8895461 -2.1496763 -0.45221734 100
1.0980445 -2.656157 -0.45522434 5
10.584809 -25.617195 3.4033234 15
1.4101562 -3.4145267 -0.45359772 4
1.9856553 -4.810411 -0.45530161 5
3.3281612 -8.0707235 -0.45752099 7
6.1220536 -14.853215 3.708993 24
7.3854628 -17.927357 -0.33843705 8
4.8700647 -11.827374 3.4272819 34
0.76132113 -1.857216 -0.4633992 1
0.88501412 -2.1600349 -0.45374379 100
1.0865211 -2.6544893 -0.45428574 6
10.480291 -25.617243 3.3984489 11
1.4049902 -3.4359655 -0.45579138 4
1.9673445 -4.8136239 -0.45495299 5
3.3014774 -8.0859909 -0.45773032 7
6.0966768 -14.939447 3.7251897 24
7.3553166 -18.032644 -0.33993798 7
4.8469806 -11.889026 3.440223 32
12.485733 -30.748657 0.57928026 14
0.74897099 -1.8454168 -0.45979998 1
12.488333 -30.785873 1.7411127 23
0.88042104 -2.1703882 -0.45527029 100
12.484711 -30.792379 2.9069924 15
1.076507 -2.6564348 -0.45397288 5
10.379627 -25.62607 3.3947926 11
1.3914983 -3.4371684 -0.45530388 4
1.9542663 -4.8296967 -0.45582449 5
6.211072 -15.357506 3.2200928 2
3.2747297 -8.1011686 -0.45793965 6
6.0663915 -15.014844 3.7386866 21
7.3230233 -18.134233 -0.34136909 8
4.8256969 -11.956031 3.4547167 32
12.350729 -30.723402 0.5779888 28
0.74252474 -1.84802 -0.45979998 1
12.349533 -30.751434 1.7367165 46
0.87137628 -2.1698043 -0.45450708 100
12.342271 -30.748871 2.8987999 30
1.0686984 -2.6638432 -0.45459861 5
10.292328 -25.667673 3.395524 11
1.3757998 -3.4327915 -0.4540852 4
1.9433227 -4.8512855 -0.45721903 5
6.1625342 -15.39185 3.2227643 4
3.2494004 -8.1199675 -0.45835835 6
6.0349302 -15.088401 3.7517338 19
7.2901144 -18.235813 -0.34280017 7
4.8061523 -12.028417 3.4707637 31
12.203485 -30.665995 0.57610393 20
0.73895019 -1.8578435 -0.46159956 1
12.19932 -30.686708 1.7306455 28
0.85944527 -2.1618867 -0.45221734 100
12.201015 -30.706596 2.8907816 30
1.0644974 -2.6804085 -0.45678869 6
10.206333 -25.712669 3.3967426 11
1.3638082 -3.4375732 -0.4540852 4
1.9285804 -4.8635955 -0.45774195 5
6.1094933 -15.415092 3.2231457 3
3.2291272 -8.1516876 -0.45950976 6
6.003746 -15.163732 3.7652307 15
7.2470198 -18.313213 -0.34377751 7
4.7826114 -12.091827 3.4842222 29
12.067046 -30.633984 0.57470775 20
0.73246056 -1.8604118 -0.46159956 1
12.05922 -30.64547 1.7259353 22
0.85333163 -2.1685271 -0.45298058 100
12.047087 -30.630333 2.8796256 22
1.0522436 -2.6767545 -0.45553723 6
10.110708 -25.733358 3.3947926 11
1.3518008 -3.4423127 -0.4540852 4
1.9043119 -4.8517513 -0.45599884 3
6.0577965 -15.441809 3.2242906 3
3.2057567 -8.1759243 -0.46024245 5
5.975666 -15.248098 3.7809772 15
7.2056561 -18.396118 -0.34485954 5
4.7565732 -12.149822 3.4961278 27
11.922521 -30.563917 0.57264835 20
0.73195046 -1.8773555 -0.46519879 1
11.923443 -30.597832 1.7210158 28
0.84756106 -2.1750035 -0.45374379 100
11.915074 -30.592138 2.8723047 22
1.0404952 -2.6728656 -0.45428574 6
10.0138 -25.737146 3.390893 7
1.3446951 -3.4578774 -0.45554763 4
1.8954303 -4.8766103 -0.45774195 3
5.994472 -15.430702 3.217803 3
3.1815178 -8.1939573 -0.46066111 5
5.9483337 -15.327783 3.7958241 15
7.1851106 -18.524317 -0.34681424 5
4.7337132 -12.21056 3.5090687 27
11.778308 -30.508341 0.57083327 13
0.72258633 -1.8726265 -0.4633992 1
11.782068 -30.549816 1.7159915 22
0.84561551 -2.1926029 -0.45679674 100
11.769523 -30.533155 2.8628919 22
1.0318686 -2.6783252 -0.45459861 6
1.3297648 -3.4551396 -0.45457271 3
1.8805419 -4.8887753 -0.45826489 2
5.9433904 -15.458863 3.2193296 2
3.1485984 -8.1938267 -0.46003309 5
5.91785 -15.408486 3.8106709 13
7.1447697 -18.612759 -0.34800097 5
4.712512 -12.282924 3.5251155 26
11.636062 -30.45587 0.5690881 13
0.71465498 -1.8714964 -0.46249935 1
11.636521 -30.473036 1.7095019 22
0.83585656 -2.1900387 -0.45565188 100
11.631624 -30.492144 2.8552222 21
1.0246247 -2.6874478 -0.45553723 6
1.3154722 -3.4521103 -0.45359772 3
1.8691363 -4.9102058 -0.45965937 2
5.8921862 -15.486855 3.220856 2
3.1284952 -8.22717 -0.46128914 4
5.8840365 -15.473564 3.8219187 13
7.1128473 -18.714857 -0.34946698 5
4.6889057 -12.343631 3.5380566 24
8.5720081 -22.661238 0.4229067 3
0.71120155 -1.8811474 -0.46429899 0
8.5936356 -22.7304 1.2735434 3
0.82373202 -2.1799428 -0.45298058 100
8.592926 -22.752527 2.1278203 3
1.0164045 -2.6926789 -0.45585006 5
1.3068202 -3.4638829 -0.45457271 3
1.8500326 -4.9089198 -0.45896214 1
5.8629417 -15.565099 3.2330678 3
3.1047149 -8.2468452 -0.46181253 4
5.8560381 -15.554999 3.8372149 13
7.0746913 -18.801977 -0.35065377 5
4.6697068 -12.416975 3.5546207 23
8.4463205 -22.554707 0.42039359 7
0.70905828 -1.8944459 -0.46699843 0
8.4498615 -22.588158 1.2639135 6
0.81512272 -2.1789849 -0.45221734 100
8.4504442 -22.601742 2.1110864 3
1.0088526 -2.6997354 -0.45647582 5
1.2988862 -3.4795821 -0.45603511 3
1.8323506 -4.9112945 -0.45861349 1
5.8359895 -15.65068 3.2468061 2
3.0801401 -8.2645817 -0.46223122 3
5.8302746 -15.652044 3.8561108 13
7.0369215 -18.90152 -0.35204995 5
4.6411586 -12.473032 3.566009 22
8.3383608 -22.505295 0.41892758 11
0.70244104 -1.8969094 -0.46699843 0
8.3369932 -22.525736 1.2587845 9
0.81091875 -2.1910229 -0.45412543 100
8.3369379 -22.537668 2.1023707 7
0.99531287 -2.6921237 -0.45459861 5
1.2881081 -3.4878192 -0.45652261 3
1.8248553 -4.9438281 -0.46105388 1
3.0547266 -8.2846518 -0.46275455 3
5.7985139 -15.734471 3.8714077 11
7.0054593 -19.019789 -0.3537952 4
4.6162772 -12.539919 3.5805027 21
8.243926 -22.491081 0.41812477 11
0.68777108 -1.8773921 -0.46159956 0
8.2445784 -22.517191 1.2566911 9
0.80596578 -2.2012146 -0.45565188 100
8.2349348 -22.503017 2.0964441 7
0.98183817 -2.6844504 -0.45272139 4
1.2759254 -3.4922943 -0.45652261 2
1.8144209 -4.9688835 -0.46279699 1
3.0278425 -8.3008938 -0.4630686 2
5.7649131 -15.813203 3.8858044 11
6.9677801 -19.123039 -0.35526118 4
4.5956125 -12.619489 3.5986199 19
8.1544571 -22.489643 0.41756627 11
0.68386936 -1.88711 -0.4633992 0
8.1496067 -22.500761 1.254179 9
0.80162019 -2.2132437 -0.45755997 100
8.1468401 -22.505398 2.0940039 7
0.97447789 -2.693434 -0.45366001 3
1.2650765 -3.5004606 -0.45701009 2
1.7943575 -4.9676909 -0.46209973 1
2.9968154 -8.3057756 -0.46275455 2
5.715631 -15.84973 3.889854 3
6.9308162 -19.230019 -0.35679698 4
4.5685582 -12.682709 3.6120787 17
8.0718555 -22.506676 0.41735685 11
0.67859328 -1.8931546 -0.46429899 0
8.0656233 -22.514032 1.2533417 9
0.78594393 -2.19385 -0.45298058 100
8.0655479 -22.526196 2.0933065 7
0.96972924 -2.7098382 -0.45585006 2
1.250177 -3.4973781 -0.45603511 1
2.9725034 -8.3293533 -0.46348724 1
5.6589603 -15.865911 3.8889537 1
6.8824511 -19.306837 -0.35777435 3
4.5417647 -12.747713 3.6260548 19
7.9965854 -22.544138 0.41753137 11
0.67198074 -1.8955119 -0.46429899 0
7.989655 -22.549578 1.2537603 9
0.77828133 -2.1965799 -0.45298058 100
7.9828758 -22.542944 2.0922606 3
0.95762759 -2.7057581 -0.45459861 1
1.2366379 -3.4979775 -0.45554763 1
2.9473989 -8.3509798 -0.46411529 1
4.6544929 -13.195093 3.2302971 1
6.8495889 -19.42881 -0.35958937 3
4.5152154 -12.814508 3.6405489 16
7.9165187 -22.56814 0.41746157 7
0.66536003 -1.897846 -0.46429899 1
7.9128776 -22.582985 1.2540743 6
0.77320611 -2.2066944 -0.45450708 100
7.9120398 -22.593235 2.0943525 3
0.95339775 -2.7240002 -0.45710155 1
1.2466946 -3.5659847 -0.46383476 1
2.9195466 -8.3649893 -0.46432465 1
4.6135411 -13.22598 3.2338963 3
6.8139839 -19.545126 -0.36129972 2
4.4857116 -12.873974 3.652972 17
7.8481803 -22.625866 0.41802004 7
0.66128463 -1.9075217 -0.46609858 0
7.8496885 -22.65576 1.2565864 6
0.76896709 -2.2206445 -0.45679674 100
7.8343906 -22.637146 2.095747 3
0.9434073 -2.7274761 -0.45710155 1
2.8862627 -8.3680811 -0.46390596 1
4.5688448 -13.253854 3.2365956 3
6.7756968 -19.655756 -0.36290532 2
4.4634008 -12.955306 3.6716073 16
7.7755704 -22.684744 0.41857851 3
0.65176255 -1.9025586 -0.46429899 0
7.7757382 -22.698139 1.2574238 3
0.75803125 -2.2140284 -0.45488867 75
7.7824154 -22.743528 2.1030681 3
2.858325 -8.3818846 -0.46411529 1
4.5185785 -13.250489 3.2320969 3
6.7328448 -19.754999 -0.36430153 2
4.4393287 -13.032983 3.6892068 15
7.7349787 -22.812668 0.42046338 3
0.64169711 -1.8936354 -0.46159956 0
7.7324753 -22.81838 1.2626574 3
0.74690646 -2.205373 -0.45259899 48
2.8381743 -8.4140282 -0.46537137 1
4.4746127 -13.265401 3.2320969 1
6.6890221 -19.841644 -0.36548829 2
4.4115057 -13.093401 3.7021477 15
7.6948924 -22.944363 0.42241803 3
0.64408439 -1.9216211 -0.46789822 0
7.7073374 -23.008099 1.2716591 3
0.73958951 -2.2078376 -0.45259899 24
2.8115218 -8.4271832 -0.46558073 0
4.4356785 -13.303123 3.2374957 1
6.6551204 -19.971113 -0.36744297 1
4.3828654 -13.160041 3.7166417 15
9.9025822 -29.87266 0.54933196 6
0.63982415 -1.931257 -0.4696978 0
9.8857489 -29.856781 1.6482688 5
0.75039077 -2.2663183 -0.46404752 28
2.7470617 -8.3307247 -0.45971909 1
4.3892131 -13.318525 3.2374957 1
6.6178994 -20.092987 -0.36925802 1
4.3556261 -13.232144 3.7326884 14
9.7720938 -29.827234 0.54786599 6
0.62701505 -1.9149587 -0.46519879 0
9.7541399 -29.807585 1.6436633 5
0.74247545 -2.2689238 -0.46404752 28
2.7513824 -8.4428072 -0.46537137 0
4.3378692 -13.318941 3.2338963 3
6.5786653 -20.21104 -0.37100327 1
4.3309264 -13.313403 3.7513232 14
9.6321955 -29.750818 0.54584146 6
0.62632608 -1.9356767 -0.4696978 0
9.6156149 -29.735029 1.6378015 5
2.7081816 -8.4148102 -0.46327791 0
4.3027477 -13.37742 3.2442441 6
6.5448151 -20.348099 -0.37309754 1
4.3027544 -13.385454 3.7673702 12
9.5230875 -29.785921 0.54584146 6
0.62159979 -1.9453846 -0.47149745 0
9.5117636 -29.768412 1.6378015 5
2.6921074 -8.4660864 -0.46558073 0
4.2808156 -13.47036 3.26314 6
6.4943409 -20.435617 -0.37428433 1
4.2753015 -13.461152 3.7844522 7
9.3639956 -29.626667 0.54235101 6
0.63392818 -2.0068989 -0.48589426 0
9.3777351 -29.706203 1.632568 5
2.698756 -8.5854759 -0.47165167 0
4.2513075 -13.53282 3.2748375 4
6.4648938 -20.591713 -0.37672764 1
3.2728593 -10.430946 2.9293141 5
4.2225232 -13.607136 3.2892344 4
6.4143019 -20.682913 -0.37798423 1
3.2375734 -10.445997 2.9303493 5
4.2000189 -13.711958 3.3108296 4
6.3795476 -20.827547 -0.38021812 1
3.2027862 -10.462777 2.9319022 5
4.1679277 -13.778764 3.323427 4
6.3320994 -20.946497 -0.38196337 1
3.164418 -10.474445 2.9319022 5
4.133563 -13.848099 3.3364739 4
3.1272821 -10.483576 2.9313846 4
4.1165099 -13.950732 3.3580692 4
3.088131 -10.479065 2.9272435 4
4.0876741 -14.024175 3.3724661 3
3.0544453 -10.492957 2.9282787 4
4.0591707 -14.109523 3.3895626 3
3.0177987 -10.503555 2.9282787 4
4.0269246 -14.183596 3.4039595 3
2.984278 -10.525177 2.9313846 4
3.9952645 -14.261367 3.419256 1
2.9459593 -10.529948 2.9298317 3
3.9689076 -14.369834 3.4417512 1
2.9040449 -10.521545 2.9246552 3
3.9361396 -14.447528 3.4570479 1
2.8703446 -10.542803 2.9277611 3
3.9135101 -14.554595 3.4795427 1
2.8345277 -10.556489 2.9287965 3
3.887651 -14.662352 3.502038 1
2.8031013 -10.586861 2.9344904 4
2.775888 -10.633965 2.9448431 4
2.7483792 -10.681009 2.9551959 4
2.7291241 -10.761696 2.9748662 4
2.7060604 -10.829258 2.9909132 3
2.6811738 -10.891161 3.0054069 3
2.6595287 -10.968042 3.0240419 3
2.6328926 -11.026114 3.0375006 2
2.6082613 -11.085558 3.0514767 1
2.5900359 -11.18305 3.0758057 1
2.5681562 -11.267365 3.0965111 1
2.5398009 -11.325272 3.1099699 1
2.5102415 -11.379343 3.1223929 1
-1.8905036 -2.3656526 -0.47962815 1
-1.9037045 -2.3651936 -0.4808796 2
-1.9268764 -2.3769481 -0.48463401 2
-1.9251671 -2.3579667 -0.48213109 2
-1.9183306 -2.3329227 -0.47837666 2
-12.569361 -15.269564 3.1324439 3
-6.8680358 -8.3286343 2.8925617 1
-1.9315022 -2.332298 -0.47962815 3
-12.640238 -15.246882 3.1368241 3
-6.895833 -8.3031235 2.8920441 1
-1.9345708 -2.3194735 -0.47837666 3
-12.703508 -15.2148 3.1393273 5
-6.9260154 -8.2804823 2.8925617 3
-1.5752482 -1.8766423 -0.47625926 32
-1.9540902 -2.3263195 -0.48119247 3
-12.756541 -15.170363 3.1393273 7
-6.9474082 -8.2473917 2.889456 3
-1.5843238 -1.8741312 -0.4770225 32
-1.9532681 -2.3089273 -0.47900239 3
-18.214514 -21.523478 3.4620645 8
-12.824738 -15.143832 3.1430817 7
-6.9699059 -8.2157249 2.8868678 4
-1.5857657 -1.8626095 -0.47549605 31
-1.9561911 -2.2960808 -0.47775093 3
-18.307566 -21.480913 3.465477 8
-12.883928 -15.106491 3.1446459 8
-10.479431 -12.282853 3.1384263 2
-6.9947772 -8.1869392 2.8853149 5
-1.6127043 -1.8809096 -0.48160195 33
-1.9616216 -2.2862401 -0.4771252 3
-18.387609 -21.422903 3.4664519 12
-12.963614 -15.092892 3.1512163 12
-10.488976 -12.207483 3.1285043 2
-10.425826 -12.125422 3.6918967 1
-9.3303928 -10.84376 3.8331101 4
-1.593598 -1.8455501 -0.47396958 31
-1.9695907 -2.2793784 -0.4771252 3
-18.483044 -21.382622 3.4703517 4
-13.027849 -15.060992 3.154032 14
-10.534092 -12.173767 3.1292679 2
-10.350727 -11.95342 3.6505058 3
-9.3719873 -10.815502 3.8346632 6
-1.6026071 -1.842939 -0.47473282 31
-1.9879087 -2.2844112 -0.47962815 3
-13.097209 -15.034793 3.1580994 15
-3.6565046 -4.197443 -0.48702627 4
-10.571362 -12.131 3.1277411 2
-10.30017 -11.811471 3.618113 3
-9.4058723 -10.778355 3.8331101 6
-1.6064435 -1.8343798 -0.47396958 62
-2.0010784 -2.2834003 -0.4808796 4
-13.165243 -15.006802 3.161854 17
-3.6645644 -4.177165 -0.48615471 4
-10.613647 -12.094022 3.1277411 2
-10.262897 -11.686126 3.5906687 4
-9.4294109 -10.729495 3.8274162 6
-1.6206284 -1.8375955 -0.47625926 64
-18.259811 -20.697123 2.414737 9
-1.9881229 -2.2527041 -0.47587368 4
-13.224086 -14.968155 3.1634181 19
-3.6949534 -4.1822658 -0.48824647 4
-10.649296 -12.049548 3.125833 3
-10.19518 -11.527611 3.5528769 4
-9.4668045 -10.696517 3.8274162 7
-1.6296403 -1.8348629 -0.4770225 64
-18.3293 -20.63028 2.4143884 4
-1.9985985 -2.2487042 -0.47649944 4
-18.096554 -20.354002 3.344095 3
-13.305156 -14.959644 3.1709268 21
-12.780995 -14.360208 3.7368038 2
-10.153009 -11.403502 3.5249832 6
-9.5060787 -10.669392 3.828969 7
-1.633099 -1.8265215 -0.47625926 64
-15.778299 -17.640871 2.070646 7
-2.0086789 -2.2450085 -0.4771252 4
-17.991844 -20.101591 3.3124092 3
-13.371821 -14.934572 3.1749945 26
-12.820684 -14.308971 3.7345138 4
-10.101023 -11.269639 3.4939396 8
-9.5491476 -10.646438 3.8320749 8
-1.6237009 -1.8033023 -0.47167987 61
-2.0200787 -2.2427382 -0.47806379 4
-17.896292 -19.861897 3.2826729 7
-13.429161 -14.893676 3.1762457 29
-12.881077 -14.275792 3.7375669 4
-10.050201 -11.134498 3.4628966 9
-9.5810728 -10.607306 3.8300042 8
-1.6355749 -1.8031557 -0.47320631 62
-17.970524 -19.811781 2.3401315 9
-2.029613 -2.2367816 -0.47837666 4
-17.835546 -19.649189 3.2582991 7
-13.510226 -14.873598 3.1825032 35
-12.930673 -14.225579 3.7368038 5
-9.9965534 -10.993775 3.4305036 9
-9.6159859 -10.567831 3.8284514 9
-1.6445078 -1.8003343 -0.47396958 62
-16.040476 -17.554258 2.0804076 7
-2.0298007 -2.2205799 -0.47649944 3
-17.735983 -19.396166 3.2271006 6
-13.576725 -14.842384 3.1859448 43
-12.972297 -14.171667 3.7345138 5
-9.9638023 -10.881204 3.406209 11
-9.6489 -10.529926 3.8268983 10
-17.651653 -19.209486 0.45536819 4
-1.6557839 -1.8006518 -0.47549605 63
-16.187626 -17.59775 2.091912 3
-2.0411661 -2.2181973 -0.47743803 3
-17.644249 -19.167826 3.1988268 6
-13.652635 -14.826338 3.1922019 43
-13.019221 -14.128571 3.7345138 5
-9.9020901 -10.742071 3.372916 13
-9.6876965 -10.502132 3.8284514 13
-17.57132 -18.995243 0.45166829 4
-1.6697482 -1.8037956 -0.47778577 65
-17.656462 -19.067245 2.2735445 8
-2.0471683 -2.2099674 -0.4771252 3
-17.56739 -18.957781 3.1734779 6
-13.721764 -14.797425 3.1962695 45
-3.8359675 -4.1352243 -0.49347579 3
-13.07401 -14.093958 3.7368038 6
-9.8586512 -10.620321 3.3454721 13
-9.7269268 -10.471083 3.8294866 15
-17.476683 -18.761131 0.44754952 4
-17.47418 -18.745333 1.3430454 3
-1.6629589 -1.7833052 -0.47396958 62
-17.701765 -18.976179 2.270407 17
-2.0552549 -2.2024486 -0.4771252 3
-17.506155 -18.759914 3.1505666 6
-13.684351 -14.654148 3.1756201 15
-3.8408597 -4.1116171 -0.49225563 3
-13.124239 -14.044509 3.7364218 8
-9.8149891 -10.495866 3.3175783 14
-9.7607765 -10.434245 3.8284514 17
-17.397539 -18.539471 0.4437798 8
-17.380945 -18.515301 1.3309034 7
-1.6664858 -1.774627 -0.47320631 62
-21.513815 -22.901884 2.7490664 13
-2.0737522 -2.2067776 -0.47962815 3
-17.417074 -18.527851 3.1222928 6
-13.624452 -14.488293 3.1499648 17
-3.8415358 -4.0836735 -0.49051252 3
-13.167802 -13.992892 3.7348955 8
-9.7727423 -10.377839 3.291034 16
-12.942852 -13.744231 -0.32953632 1
-9.7706461 -10.371986 3.8180988 30
-17.313364 -18.327589 0.4400799 8
-17.321987 -18.323893 1.321483 6
-1.686159 -1.783064 -0.4770225 64
-21.56077 -22.791904 2.7448828 13
-2.0647686 -2.1826682 -0.47587368 4
-17.33106 -18.314274 3.095969 9
-13.569001 -14.328766 3.125561 19
-3.8680992 -4.0832567 -0.49208131 3
-13.20873 -13.943447 3.7333689 9
-9.7320242 -10.266174 3.2658393 15
-9.7270193 -10.253725 3.7870405 29
-17.231138 -18.113464 0.43637997 8
-17.228851 -18.098406 1.3095504 6
-1.6839409 -1.7689309 -0.47473282 63
-17.244955 -18.108994 2.1877835 7
-2.0764625 -2.1797383 -0.4768123 4
-17.245613 -18.097023 3.0694015 9
-13.512601 -14.169807 3.1011572 17
-3.8850794 -4.0726132 -0.49242991 3
-13.253258 -13.892995 3.7322242 9
-9.6857185 -10.146156 3.2383955 22
-13.060587 -13.676681 -0.33009481 2
-9.6920271 -10.145672 3.7596056 28
-17.155933 -17.908798 0.43288949 8
-17.153708 -17.893978 1.2990832 6
-1.6985664 -1.7712485 -0.4770225 64
-17.171911 -17.900446 2.1701779 11
-2.0844371 -2.1721134 -0.4768123 4
-17.162979 -17.884895 3.0435653 8
-13.462101 -14.018544 3.0783179 14
-3.9130735 -4.0733957 -0.49417305 2
-13.317694 -13.858482 3.7360406 9
-9.6350384 -10.019289 3.2091517 24
-13.133195 -13.656954 -0.33072311 2
-9.6577396 -10.039383 3.7326884 30
-17.0937 -17.713419 0.42967823 8
-17.07489 -17.681562 1.2881973 6
-1.6911011 -1.7511861 -0.47320631 62
-17.104164 -17.7057 2.1537926 11
-2.0906346 -2.163403 -0.47649944 4
-17.098728 -17.687706 3.0206537 11
-13.480427 -13.935034 3.0708089 11
-3.9134169 -4.0453906 -0.49242991 2
-13.360526 -13.806266 3.7345138 12
-9.5913277 -9.904398 3.1830573 24
-13.259689 -13.687717 -0.33264288 4
-9.6164932 -9.9234562 3.7026653 30
-17.016068 -17.510235 0.42618778 7
-17.015362 -17.497284 1.2790909 9
-1.6999408 -1.7480878 -0.47396958 62
-17.125576 -17.604471 2.1487377 30
-2.1119502 -2.1702492 -0.47962815 3
-17.035742 -17.499901 2.9987173 11
-13.526231 -13.885062 3.0701833 11
-3.921953 -4.0259967 -0.49173269 2
-13.337384 -13.686432 3.7146697 23
-9.5795841 -9.8234205 3.1677608 24
-13.286441 -13.619882 -0.33211929 1
-9.5647249 -9.8013372 3.6695366 31
-16.944754 -17.309458 1.269461 9
-1.7197686 -1.7561702 -0.47778577 65
-17.164619 -17.521809 2.1459486 45
-2.1112165 -2.1543989 -0.47775093 3
-16.960539 -17.301405 2.9748311 11
-13.570819 -13.83872 3.0698702 13
-3.9331911 -4.0094385 -0.49138409 2
-13.269571 -13.522088 3.6826138 23
-9.6206408 -9.7968769 3.1700103 21
-13.303511 -13.547212 -0.33142123 1
-9.5294828 -9.7006617 3.6436548 31
-16.873272 -17.116503 1.2596219 12
-1.7148603 -1.7389731 -0.47473282 63
-2.1183493 -2.1473861 -0.47775093 3
-16.886753 -17.112249 2.9519196 11
-13.625979 -13.798297 3.0714347 11
-3.961165 -4.0098586 -0.4931272 2
-13.214998 -13.377447 3.6551371 23
-9.6475954 -9.7593756 3.1682107 21
-13.401337 -13.551876 -0.33267775 1
-9.4872065 -9.5904264 3.6146669 31
-13.500067 -13.60889 0.33459753 5
-16.790802 -16.914339 1.24905 12
-1.7316827 -1.7444234 -0.47778577 65
-17.092552 -17.212299 2.1222422 3
-2.1258323 -2.1399784 -0.47775093 3
-16.817654 -16.923656 2.9294956 10
-13.655954 -13.732439 3.0673676 3
-3.9638968 -3.9847066 -0.49173269 2
-13.159156 -13.228239 3.6268976 24
-9.6692305 -9.7132101 3.1641617 22
-13.445739 -13.502181 -0.33260795 1
-9.4633608 -9.4997702 3.5929263 30
-13.561622 -13.57583 0.3349466 5
-16.728302 -16.73415 1.2400482 12
-1.7186292 -1.7186292 -0.4724431 61
-17.051254 -17.045303 2.1093433 3
-2.1476343 -2.1461356 -0.4808796 3
-16.755865 -16.744173 2.908534 10
-14.529893 -14.509622 3.2522728 66
-3.9862425 -3.9792919 -0.49277857 2
-13.117222 -13.089779 3.6020923 26
-9.7061462 -9.67908 3.1646116 24
-13.515444 -13.477756 -0.33316642 1
-9.4102688 -9.3807545 3.5603149 31
-13.687881 -13.602151 0.33683145 2
-16.666233 -16.550283 1.2309418 15
-1.7301905 -1.7181534 -0.47396958 62
-16.830677 -16.707758 2.0748296 17
-2.1466999 -2.1302772 -0.47900239 2
-16.684652 -16.551233 2.8856225 10
-2.8289454 -2.8053458 -0.4891836 1
-14.597005 -14.470176 3.2554016 68
-3.9923089 -3.9562397 -0.49173269 1
-13.066612 -12.948561 3.5757608 26
-9.7467976 -9.6519966 3.1668611 24
-13.614492 -13.477368 -0.33438814 1
-9.3731861 -9.2755375 3.5333977 31
-16.596201 -16.377512 0.40699014 14
-16.611555 -16.381224 1.2226727 15
-1.7476611 -1.7228262 -0.4770225 64
-16.846392 -16.601202 2.0692515 3
-2.1516783 -2.1196229 -0.47837666 2
-16.624945 -16.377268 2.8653922 12
-2.8556941 -2.8121672 -0.49210843 1
-14.668542 -14.439919 3.2600944 68
-4.0089345 -3.945076 -0.49208131 1
-13.016014 -12.804205 3.5490475 23
-7.2256665 -7.1056027 -0.53110534 1
-9.7793255 -9.6134777 3.165961 19
-13.744161 -13.511073 -0.33641258 1
-9.3338537 -9.1723537 3.5064805 32
-16.521929 -16.202084 0.4039185 14
-16.541687 -16.210129 1.2137756 15
-1.7502596 -1.7145799 -0.47625926 64
-2.157958 -2.1132293 -0.47837666 2
-16.541557 -16.193031 2.842237 9
-2.867352 -2.8059595 -0.49259594 1
-14.743486 -14.422778 3.266665 72
-4.0441012 -3.9547489 -0.49487031 1
-12.962111 -12.671303 3.5234792 30
-7.2165279 -7.0521569 -0.52880251 1
-11.707491 -11.440828 3.7791779 24
-13.797988 -13.479003 -0.33669186 3
-9.296279 -9.0782013 3.4816339 31
-16.480906 -16.043774 0.40147516 14
-16.472139 -16.024054 1.2043551 14
-1.7509028 -1.7026782 -0.47473282 63
-2.1741874 -2.1135674 -0.48025388 1
-16.474092 -16.009172 2.8205442 11
-2.8633792 -2.7815986 -0.49015856 1
-14.828843 -14.400296 3.2738609 60
-4.0642862 -3.945452 -0.49556756 1
-12.925346 -12.543039 3.5009637 18
-7.2681293 -7.0506926 -0.53068662 1
-11.745145 -11.393772 3.777828 8
-13.9162 -13.495165 -0.33836725 1
-9.2864933 -9.0023813 3.4655871 7
-5.2560277 -5.0774612 0.38299456 1
-1.7568352 -1.6965564 -0.47473282 63
-5.2550149 -5.0729375 0.63902587 3
-2.1790771 -2.1028404 -0.47962815 1
-5.2503901 -5.0649338 0.89573973 4
-2.8678389 -2.765574 -0.4891836 1
-5.2298388 -5.0433469 1.150732 4
-4.0837722 -3.9367707 -0.49626479 1
-5.2461452 -5.0555387 1.4161844 7
-5.2315722 -5.0379725 1.6767852 13
-5.2315288 -5.0379305 -0.12677428 6
-5.2330332 -5.0376191 1.9463193 5
-5.233665 -5.024168 0.12663467 14
-5.2420111 -5.0286646 0.38069177 11
-1.7627466 -1.6904135 -0.47473282 63
-5.2237897 -5.0076852 0.63309932 9
-2.2002978 -2.1092732 -0.48275682 1
-5.2141275 -4.9966769 0.88672143 9
-2.8569255 -2.7368236 -0.48577127 1
-5.2145972 -4.9936366 1.1435361 10
-4.1003671 -3.9252484 -0.49661341 1
-5.2061539 -4.983809 1.4009198 12
-5.246707 -5.0208764 -0.3805871 1
-5.2060046 -4.9801836 1.6632881 16
-5.185492 -4.9588275 -0.12523846 8
-5.2017097 -4.9726005 1.9282019 10
-5.2005115 -4.9575753 0.125413 14
-5.2161489 -4.969008 0.37755162 12
-1.7683427 -1.6845587 -0.47473282 63
-5.1999674 -4.9518623 0.62821859 13
-2.1962011 -2.0906837 -0.48025388 1
-5.1999011 -4.9483395 0.88135916 10
-2.8750908 -2.7350433 -0.48723367 1
-5.1933489 -4.9386487 1.1350887 13
-4.1046991 -3.9033902 -0.49556756 1
-5.1893692 -4.9331417 1.3917608 15
-5.2091856 -4.9502497 -0.37660959 2
-5.203577 -4.9431896 1.6569895 19
-5.1882687 -4.9269271 -0.12488942 10
-5.1966181 -4.9331322 1.9199197 10
-5.1901917 -4.9132729 0.1247498 16
-5.1957388 -4.9150839 0.37483016 17
-1.7770644 -1.6810739 -0.47549605 63
-5.1911635 -4.9090419 0.625081 16
-2.2149699 -2.0938606 -0.48275682 1
-5.1825156 -4.8974361 0.87550944 12
-2.8701894 -2.7113595 -0.48479629 1
-5.1861391 -4.8974347 1.1297698 14
-5.1780047 -4.8880439 1.3841285 18
-5.1857619 -4.8936529 -0.37367877 2
-5.1981187 -4.9036012 1.649791 19
-5.2010708 -4.9046707 -0.12478471 15
-5.194128 -4.896409 1.9126729 12
-5.1956563 -4.8841677 0.12447057 19
-5.1910276 -4.8764067 0.37326008 20
-1.7857832 -1.6775494 -0.47625926 64
-5.2068167 -4.8895259 0.62490666 18
-2.2366676 -2.0996361 -0.4858855 1
-5.1749701 -4.8562245 0.8713659 14
-2.8912196 -2.7121885 -0.48674619 1
-5.1931167 -4.8698435 1.1275797 17
-5.1778474 -4.8538284 1.3795491 18
-5.1882377 -4.861866 -0.37263206 2
-5.1896048 -4.8614459 1.6416928 22
-5.1816688 -4.8523145 -0.12391209 16
-5.1942625 -4.8624063 1.9064611 12
-5.2039032 -4.8578143 0.12426113 24
-5.1934133 -4.8446326 0.37221336 26
-1.7944993 -1.6739838 -0.4770225 64
-5.2005386 -4.8495798 0.6221177 23
-2.2410929 -2.0891225 -0.48525977 1
-5.1860819 -4.832716 0.87039089 16
-2.8832393 -2.6858428 -0.48382133 1
-5.1840611 -4.827456 1.1219481 21
-5.1875744 -4.8290348 1.377641 15
-5.1978664 -4.8369226 -0.37210867 3
-5.1937013 -4.8313556 1.6376437 22
-5.1707525 -4.8083243 -0.1232489 18
-5.1970549 -4.8310924 1.9012847 13
-5.2076287 -4.8273854 0.12394699 26
-5.2015023 -4.8183298 0.37158534 26
-1.794571 -1.6623726 -0.47549605 63
-5.1911197 -4.8070312 0.61898005 23
-2.2106812 -2.0463974 -0.4771252 1
-5.1985483 -4.8105388 0.86965966 18
-2.8940539 -2.6771097 -0.48406506 1
-5.1863775 -4.7959189 1.1188195 24
-5.1899829 -4.7975702 1.3738248 21
-5.2059178 -4.810616 -0.37148067 4
-5.1990829 -4.802618 1.6340445 26
-5.1801596 -4.783463 -0.12307438 22
-5.1982727 -4.7985077 1.8955908 13
-5.2038503 -4.7902174 0.12345833 30
-5.2094688 -4.7920318 0.37095729 28
-1.8003625 -1.6560985 -0.47549605 63
-5.193202 -4.7753954 0.61723697 23
-2.2527146 -2.0707514 -0.48463401 1
-5.1977687 -4.7762451 0.86673486 16
-2.9179997 -2.6804211 -0.48650244 1
-5.1987238 -4.7737765 1.1178808 23
-5.192235 -4.7661486 1.3700087 22
-5.2094331 -4.7802625 -0.37053862 5
-5.2086349 -4.777854 1.6317949 26
-5.1879821 -4.7572427 -0.12286495 18
-5.2007489 -4.7672806 1.8904144 13
-5.2028275 -4.7558331 0.12303946 32
-5.2069941 -4.7563066 0.36959657 28
-1.8177288 -1.6603966 -0.478549 65
-5.2113113 -4.7585816 0.61741126 29
-2.2628472 -2.0655391 -0.48525977 1
-5.1997447 -4.7446933 0.86429745 21
-2.9068062 -2.6514897 -0.48309013 1
-5.2124362 -4.7529383 1.1172551 26
-5.1972322 -4.7374163 1.3669558 24
-5.2142782 -4.751286 -0.36970121 6
-5.2195182 -4.7543936 1.6299953 29
-5.1971622 -4.7323732 -0.12269042 25
-5.2116446 -4.7438946 1.8883438 14
-5.219398 -4.7376413 0.12303946 35
-5.211731 -4.7273669 0.36875919 34
-1.8060639 -1.6382134 -0.47396958 62
-5.2116556 -4.7256389 0.61549383 24
-2.2641885 -2.0523214 -0.48400828 1
-5.20892 -4.7198491 0.86307877 18
-2.9160445 -2.6413264 -0.48309013 2
-5.2158155 -4.7227831 1.1144392 27
-5.2166481 -4.72188 1.3677189 24
-5.2145405 -4.7183151 -0.36854982 6
-5.2187386 -4.720459 1.6245965 29
-5.206234 -4.7074971 -0.12251589 24
-5.2238731 -4.7217875 1.886791 14
-5.2314463 -4.7153783 0.12293475 37
-5.2192955 -4.7011271 0.36813116 35
-1.8146886 -1.6345273 -0.47473282 63
-5.2370024 -4.7154183 0.61653972 33
-2.3124492 -2.081408 -0.49276862 1
-5.222414 -4.6989813 0.86259133 20
-2.9252462 -2.6311319 -0.48309013 2
-5.2234559 -4.6966228 1.1125621 28
-5.2258 -4.6970787 1.3658109 24
-5.2339497 -4.7027555 -0.36875919 6
-5.2293854 -4.6970048 1.6227969 29
-5.207756 -4.6759338 -0.12216685 31
-5.2374468 -4.7009439 1.8857557 14
-5.238935 -4.6890864 0.12272533 35
-5.2356749 -4.682878 0.36813116 35
-1.8233099 -1.6307999 -0.47549605 63
-5.2192693 -4.6665654 0.61253053 27
-2.2990811 -2.054894 -0.48838848 1
-5.2373028 -4.6794009 0.86234754 18
-2.943296 -2.6288388 -0.48455253 1
-5.2309771 -4.6704669 1.1106849 28
-5.2363038 -4.6735806 1.3642844 25
-5.2503333 -4.6844568 -0.36875919 6
-5.2428417 -4.676127 1.6218971 29
-5.2225528 -4.6563973 -0.12213194 32
-5.2350764 -4.6659231 1.8790263 16
-5.2448072 -4.6614728 0.12248099 42
-5.2541599 -4.6681442 0.36834049 42
-1.8319272 -1.6270329 -0.47625926 64
-5.2429757 -4.6549315 0.61340207 38
-2.338743 -2.0757034 -0.49527156 1
-5.2506351 -4.6584563 0.8618601 23
-2.9549673 -2.6216991 -0.48504004 2
-5.2493925 -4.6557159 1.1113106 30
-5.2423005 -4.6461582 1.361613 27
-5.2576838 -4.658154 -0.36813116 7
-5.2656116 -4.6651778 1.6241466 29
-5.2424564 -4.6430302 -0.12223665 32
-5.2606454 -4.6575012 1.8826498 16
-5.2572393 -4.6414061 0.12241118 42
-5.2651191 -4.6467304 0.36802649 41
-1.8490902 -1.6313397 -0.47931221 66
-5.2553949 -4.6348844 0.6130535 30
-2.3130145 -2.0391977 -0.48838848 1
-5.2496729 -4.6265807 0.8591789 20
-2.9606664 -2.6092601 -0.48455253 2
-5.2648029 -4.6382828 1.1113106 28
-5.256206 -4.6274519 1.3612314 25
-5.2566099 -4.6261787 -0.36697978 7
-5.2781277 -4.6451159 1.6232469 29
-5.2623286 -4.6295824 -0.12234137 33
-5.2775126 -4.6413064 1.8831675 19
-5.2771125 -4.6279025 0.12251589 42
-5.2783041 -4.625689 0.36781713 42
-1.8397248 -1.6122593 -0.47549605 63
-5.2782292 -4.6239953 0.61392504 38
-2.334625 -2.0445302 -0.49151716 1
-5.2679739 -4.611762 0.85966641 24
-2.9578061 -2.5884514 -0.48260266 2
-5.2794733 -4.6185775 1.1109977 30
-5.2729998 -4.6112876 1.361613 27
-5.2719221 -4.6087217 -0.36697978 8
-5.286972 -4.6202526 1.6209973 29
-5.275445 -4.6085539 -0.12227156 34
-5.2995014 -4.6279387 1.8852381 18
-5.2977576 -4.6133947 0.12262061 42
-5.2914052 -4.6046138 0.36760777 39
-1.8483034 -1.6084052 -0.47625926 64
-5.2898273 -4.6016207 0.61340207 27
-2.3119354 -2.0104439 -0.48525977 1
-5.2915306 -4.5998564 0.86088508 18
-2.9608293 -2.5729032 -0.48162767 2
-5.2940731 -4.5988235 1.1106849 27
-5.3024063 -4.6044388 1.3650476 25
-5.2970257 -4.5981474 -0.36760777 7
-5.3015966 -4.600491 1.6205474 29
-5.2854576 -4.5848694 -0.12213194 34
-5.3200016 -4.6132102 1.886791 16
-5.3153419 -4.5961814 0.12265551 39
-5.3119793 -4.590034 0.3679218 35
-1.8449935 -1.5942425 -0.47396958 62
-5.3118892 -4.5883369 0.61409938 33
-2.3338907 -2.0152707 -0.48838848 1
-5.3150673 -4.5878444 0.86210382 21
-2.9788098 -2.5703332 -0.48309013 1
-5.3100934 -4.5803156 1.1106849 28
-5.3184452 -4.5859027 1.3650476 25
-5.3160701 -4.5822377 -0.36781713 7
-5.3250046 -4.5883169 1.6227969 29
-5.2923384 -4.5585628 -0.12192252 37
-5.3302178 -4.5895681 1.8847204 17
-5.3343883 -4.5802045 0.12272533 39
-5.3400955 -4.5818686 0.36875919 37
-1.8597653 -1.5951382 -0.47625926 64
-5.3226204 -4.5636497 0.61340207 24
-2.3322618 -1.9989904 -0.48651123 1
-5.3370786 -4.5744305 0.86307877 18
-2.9817348 -2.5547523 -0.48211515 1
-5.3350511 -4.5694633 1.1125621 27
-5.3307443 -4.5625477 1.3639028 24
-5.3419347 -4.5705128 -0.36844519 7
-5.355114 -4.5801702 1.6268461 29
-5.3325334 -4.5608573 -0.12248099 30
-5.3491426 -4.5734453 1.8857557 16
-5.3420076 -4.5528398 0.12251589 32
-5.3629351 -4.5674448 0.36917788 33
-1.8683114 -1.5911826 -0.4770225 64
-5.3597574 -4.5631247 0.61584246 33
-2.3332083 -1.9857161 -0.48525977 1
-5.3462491 -4.5484066 0.8618601 19
-3.0001509 -2.5515234 -0.48357758 1
-5.3607926 -4.5575557 1.1144392 28
-5.3541174 -4.5502706 1.3658109 25
-5.3548121 -4.5492516 -0.36823583 7
-5.3770118 -4.566494 1.6286457 29
-5.3614092 -4.5516357 -0.12276023 30
-5.3761787 -4.5625601 1.889379 14
-5.3761849 -4.5496659 0.12293475 34
-5.3788462 -4.548697 0.36917788 33
-1.8648599 -1.5770451 -0.47473282 31
-5.3756528 -4.5443878 0.61584246 25
-2.3401256 -1.9775597 -0.48525977 1
-5.3727088 -4.5386844 0.86356628 17
-2.9999392 -2.5333509 -0.48211515 1
-5.3827066 -4.5439115 1.1156907 24
-5.3864722 -4.5454807 1.3700087 22
-5.3782926 -4.5369711 -0.36875919 7
-5.391428 -4.5464416 1.6281958 26
-5.3879671 -4.5419145 -0.12300456 26
-5.4009361 -4.5512347 1.8924849 13
-5.4073424 -4.5437374 0.1232838 32
-5.3977504 -4.5324621 0.36938724 28
-1.8703536 -1.5705259 -0.47473282 31
-5.4143724 -4.5448108 0.61845714 29
-2.3560934 -1.9769973 -0.48713696 1
-5.403728 -4.5326595 0.86600363 20
-3.0026796 -2.5177619 -0.4811402 1
-5.4061046 -4.5314393 1.1172551 26
-5.4143453 -4.5367379 1.3730617 22
-5.4063454 -4.5284295 -0.36959657 8
-5.4237003 -4.5413556 1.6331446 22
-5.3961215 -4.5166616 -0.12283003 26
-5.4330893 -4.5459895 1.8981789 12
-5.4308486 -4.531239 0.12345833 30
-5.4273438 -4.525105 0.37032926 27
-1.8848712 -1.5715312 -0.4770225 32
-5.4194913 -4.5169525 0.61723697 24
-2.3447685 -1.9535873 -0.48338255 1
-5.4347692 -4.5264745 0.86844105 17
-3.0206034 -2.5148861 -0.48260266 1
-5.4309998 -4.5201225 1.1191323 22
-5.4422207 -4.5278568 1.3761146 21
-5.4359403 -4.5210242 -0.37053862 8
-5.451508 -4.5323625 1.6367439 22
-5.4272351 -4.5105786 -0.12317909 25
-5.4474373 -4.5257635 1.8976613 13
-5.4458437 -4.513206 0.12345833 29
-5.4607792 -4.5223689 0.37158534 28
-1.881 -1.5577587 -0.47473282 31
-5.4605298 -4.5205564 0.62020022 25
-2.3360157 -1.9332068 -0.48025388 1
-5.4558682 -4.5134883 0.86941594 17
-3.044224 -2.5175061 -0.48504004 1
-5.4596615 -4.5134153 1.1219481 21
-5.4587193 -4.5110354 1.3764962 18
-5.4586015 -4.5093327 -0.37106195 9
-5.4800315 -4.5254269 1.640793 22
-5.4560399 -4.5040154 -0.12349322 24
-5.4758258 -4.5187402 1.90232 12
-5.4770069 -4.5068731 0.12380737 26
-5.4780746 -4.5045476 0.37169001 23
-1.9349515 -1.591085 -0.48694456 35
-5.4839735 -4.507792 0.62107182 21
-2.3366442 -1.9200248 -0.47900239 2
-5.4884629 -4.508276 0.87209707 15
-3.0468564 -2.5018253 -0.48406506 1
-5.5028658 -4.5168905 1.1275797 18
-5.4850569 -4.5006704 1.3791674 17
-5.4866629 -4.5003843 -0.37189934 8
-5.5183983 -4.524806 1.6475415 22
-5.4918356 -4.5014215 -0.12394699 22
-5.5154748 -4.5191884 1.9106023 12
-5.5159335 -4.5067072 0.12433095 24
-5.5123315 -4.5005546 0.37294605 22
-1.9070374 -1.5570046 -0.478549 32
-5.5228271 -4.5075197 0.62368649 20
-2.3525157 -1.9193493 -0.4808796 2
-5.5195513 -4.5016356 0.87453443 15
-3.040185 -2.4786317 -0.48162767 1
-5.5369744 -4.51263 1.1313342 16
-4.4464159 -3.6238256 -0.50184274 1
-5.5342202 -4.5087757 1.3875631 16
-5.5178246 -4.4938183 -0.37294605 7
-5.5507827 -4.5190492 1.6524904 22
-5.5276771 -4.4986324 -0.12440075 19
-5.5641847 -4.5267296 1.9219903 11
-5.5518193 -4.5038028 0.12478471 16
-5.5497279 -4.4988952 0.37441146 17
-5.558651 -4.5045214 0.62595254 18
-2.3776205 -1.9260466 -0.48463401 2
-5.5722551 -4.5123248 0.88038421 12
-3.0580761 -2.4754982 -0.48309013 1
-5.5726566 -4.5094275 1.1354015 14
-4.4466481 -3.5982547 -0.50044823 2
-5.5804529 -4.5141249 1.3951955 13
-5.5676446 -4.5021586 -0.37524885 7
-5.5892572 -4.5180206 1.6592389 16
-5.5589008 -4.491878 -0.1247498 18
-5.6160183 -4.5364146 1.9344137 9
-5.597096 -4.5082288 0.1254479 14
-5.5949602 -4.5032892 0.37640023 12
-5.5991778 -4.505074 0.6287415 11
-2.3658578 -1.9028788 -0.4808796 3
-5.6312904 -4.5276747 0.88720888 9
-3.0636044 -2.4623215 -0.48260266 1
-5.6253219 -4.5196414 1.1429104 9
-4.4529691 -3.5777194 -0.499751 2
-5.635973 -4.5265827 1.4051175 10
-5.6207037 -4.5127058 -0.37776098 7
-5.6429892 -4.5289764 1.6704865 13
-5.6182189 -4.5074863 -0.12572713 14
-5.6725111 -4.5494161 1.9483899 4
-5.6534023 -4.5211372 0.12635542 13
-5.6574526 -4.5211377 0.37954038 9
-5.6662383 -4.5265408 0.63449377 9
-2.3601372 -1.8847476 -0.47837666 4
-5.6920505 -4.5439048 0.89427733 7
-3.0908005 -2.4664698 -0.48552752 1
-5.6997433 -4.5467892 1.1547993 5
-4.4591994 -3.5571849 -0.49905378 2
-5.6993237 -4.544827 1.4169476 3
-5.6863995 -4.532896 -0.38111049 5
-11.74883 -9.3621941 3.4682956 24
-5.6996112 -4.5401769 -0.12719314 7
-11.151537 -8.8798676 3.8196516 15
-16.962036 -13.46806 0.37805402 56
-16.991381 -13.476863 1.8973805 24
-2.3697975 -1.8789519 -0.47900239 3
-17.010065 -13.482018 2.6650391 64
-15.047968 -11.922597 3.0407736 32
-4.4809604 -3.5490198 -0.50009966 2
-15.027479 -11.897835 3.7257366 37
-7.9385839 -6.2830262 -0.53058195 4
-11.717251 -9.2703428 3.4493995 45
-14.067038 -11.129425 -0.31309617 7
-11.180923 -8.8428392 3.8196516 22
-17.050568 -13.446415 0.37903136 87
-17.05644 -13.441394 1.1380978 99
-17.07589 -13.447054 1.9015639 33
-2.3760154 -1.8710831 -0.47900239 3
-17.092112 -13.455003 2.6708887 74
-15.05844 -11.84557 3.0345161 14
-4.4901891 -3.5308936 -0.499751 2
-14.989691 -11.787254 3.7066557 37
-7.9216905 -6.2270427 -0.52806985 4
-11.672847 -9.1724377 3.4273543 53
-14.027172 -11.01849 -0.31135091 7
-11.217798 -8.8085318 3.8217223 21
-17.138342 -13.418862 0.37993887 96
-17.144156 -13.413772 1.1408192 100
-17.158052 -13.419813 1.9057474 33
-2.3918691 -1.8700784 -0.4808796 4
-17.168692 -13.418483 2.6755197 68
-15.101255 -11.79415 3.0348291 13
-4.5056281 -3.5176504 -0.50009966 3
-14.944086 -11.667201 3.6852851 34
-7.9418044 -6.1981239 -0.52796519 4
-11.643335 -9.0836868 3.4093583 50
-13.97567 -10.899364 -0.30936137 7
-11.251524 -8.7716951 3.8227575 22
-17.229279 -13.393323 0.38091621 100
-17.236618 -13.389374 1.1438547 100
-17.243319 -13.384937 1.9097565 31
-2.3987076 -1.8612988 -0.4808796 3
-17.256207 -13.390109 2.6818569 68
-15.139209 -11.738948 3.0342033 13
-4.519454 -3.5031216 -0.50027394 3
-14.896738 -11.542606 3.6631515 34
-7.9676251 -6.171422 -0.52817452 3
-11.614917 -8.9932289 3.3913622 53
-13.936154 -10.790523 -0.30765101 7
-11.266798 -8.720542 3.8175812 23
-17.313086 -13.356958 0.38168412 100
-17.325119 -13.356597 1.1464715 99
-17.323076 -13.350204 1.9134171 28
-2.3832824 -1.8360369 -0.47649944 3
-17.344486 -13.357056 2.6879506 64
-15.189961 -11.689399 3.0357676 16
-4.5348134 -3.4897547 -0.50062257 3
-14.846684 -11.42111 3.6410174 35
-7.9970369 -6.1496572 -0.52869785 3
-11.584437 -8.9051237 3.3733659 52
-13.907426 -10.686982 -0.30615014 7
-11.300217 -8.6803656 3.8180988 20
-17.391359 -13.320759 0.38238224 100
-17.404943 -13.321533 1.1486697 86
-17.409136 -13.319919 1.917775 25
-2.4022288 -1.8373073 -0.47900239 4
-17.416237 -13.315722 2.6918504 68
-17.542818 -13.402802 3.4966235 25
-4.5406332 -3.4690666 -0.49992532 3
-14.805326 -11.307251 3.6211731 34
-8.0025797 -6.1095853 -0.52765119 3
-11.553484 -8.8173437 3.3553698 52
-13.865155 -10.577722 -0.30440488 7
-11.331985 -8.6420383 3.8186164 19
-17.47595 -13.289023 0.38321993 97
-17.479235 -13.286707 1.1506585 73
-17.495186 -13.2892 1.9221327 25
-2.4054811 -1.8265216 -0.47837666 3
-17.500563 -13.283647 2.6977 72
-17.618641 -13.368433 3.5028808 57
-4.5431905 -3.4459715 -0.49887949 3
-14.775874 -11.203307 3.6043823 37
-8.0254478 -6.0828223 -0.52775586 4
-11.509637 -8.7204714 3.3337746 52
-13.825243 -10.47493 -0.30276436 7
-11.36366 -8.6067448 3.8196516 19
-17.564606 -13.264739 0.38419729 100
-17.57971 -13.266521 1.1542172 94
-17.598736 -13.271235 1.9284079 57
-2.4178338 -1.8232923 -0.47962815 3
-17.592068 -13.261392 2.7050121 72
-3.151706 -2.3749812 -0.48455253 1
-17.685711 -13.322302 3.5069482 67
-4.5663338 -3.4384799 -0.50009966 4
-14.737665 -11.09756 3.5860643 37
-8.0487661 -6.0585771 -0.52796519 3
-11.476206 -8.6353874 3.3157785 50
-13.781822 -10.366502 -0.3010191 7
-11.398265 -8.5705118 3.8212047 20
-17.6556 -13.236935 0.38517463 97
-17.657885 -13.229022 1.1563108 99
-17.660191 -13.225938 1.9303253 77
-2.4194396 -1.8112895 -0.47868952 3
-17.682755 -13.233205 2.7118368 65
-17.75267 -13.275864 3.5110154 52
-4.5697322 -3.4173532 -0.49922809 3
-14.694544 -10.984926 3.5662203 37
-8.0778666 -6.0364227 -0.52848852 3
-11.450074 -8.5532904 3.299582 55
-13.742614 -10.262098 -0.2993786 7
-11.420372 -8.5248938 3.8186164 30
-17.730572 -13.196714 0.38580289 97
-17.753633 -13.204251 1.1595556 99
-17.733433 -13.184422 1.9332887 28
-2.4178197 -1.7969422 -0.4771252 3
-17.763895 -13.197444 2.7171991 68
-3.190521 -2.3694901 -0.4879649 2
-17.711674 -13.149055 3.4938078 42
-4.5768347 -3.3978181 -0.49870515 4
-14.638207 -10.863367 3.5433233 32
-8.0844507 -5.9974785 -0.52754653 3
-11.41725 -8.4668388 3.2815859 46
-13.710883 -10.16405 -0.2979126 7
-11.400391 -8.4481697 3.8020518 42
-17.810301 -13.159702 0.38653588 87
-17.833361 -13.167112 1.1617537 96
-17.829039 -13.159122 1.9386923 27
-2.4288466 -1.7920092 -0.47806379 3
-17.851393 -13.165991 2.7235363 70
-3.1907833 -2.3524494 -0.48674619 1
-17.666824 -13.020347 3.4759743 40
-4.5918751 -3.3841853 -0.49905378 4
-14.609651 -10.763294 3.5272951 36
-8.0892534 -5.9573798 -0.52649975 4
-11.387101 -8.3830309 3.2644899 48
-13.685077 -10.071087 -0.29658622 7
-11.38624 -8.3762703 3.7875581 42
-17.912563 -13.138846 0.38775757 97
-17.906595 -13.124858 1.1635331 99
-17.937546 -13.142725 1.9454904 24
-2.4366808 -1.784687 -0.47837666 3
-17.935678 -13.131745 2.7293861 70
-3.1733456 -2.3225377 -0.48284638 3
-17.624481 -12.894445 3.4587665 40
-4.6036601 -3.3681357 -0.49905378 4
-14.57265 -10.657763 3.5093591 35
-8.113225 -5.9314623 -0.52670908 3
-11.34392 -8.2903385 3.2437942 46
-13.63941 -9.9642782 -0.29484096 7
-11.356125 -8.2931795 3.7678878 41
-18.006819 -13.111548 0.38880473 97
-17.998466 -13.100667 1.1666733 99
-18.017151 -13.104641 1.9491509 24
-2.4524815 -1.7831409 -0.48025388 3
-18.026369 -13.101736 2.7362108 63
-3.1910696 -2.3184474 -0.48430881 2
-17.566465 -12.762781 3.4390557 42
-4.6073279 -3.3461924 -0.49818221 4
-14.535099 -10.552616 3.4914231 33
-8.138731 -5.9066248 -0.52702314 3
-11.319157 -8.2117853 3.2284975 46
-13.597921 -9.8649759 -0.29323533 7
-11.324137 -8.2123766 3.7482176 36
-18.084227 -13.076372 0.38953772 94
-18.091032 -13.07168 1.1697087 96
-18.095089 -13.065001 1.9526372 24
-2.4503734 -1.7692165 -0.47868952 3
-18.121225 -13.079062 2.7440104 65
-3.2148387 -2.3194673 -0.48674619 1
-17.51157 -12.629746 3.4196577 40
-4.6189804 -3.3300893 -0.49818221 4
-14.499939 -10.453842 3.474632 33
-8.1679955 -5.88661 -0.52765119 3
-11.290986 -8.1343346 3.2127509 49
