# .PCD v0.7 - Point Cloud Data file format
VERSION 0.7
FIELDS x y z intensity
SIZE 4 4 4 4
TYPE F F F F
COUNT 1 1 1 1
WIDTH 1337
HEIGHT 1
VIEWPOINT 0 0 0 1 0 0 0
POINTS 1337
DATA ascii
-18.002153 -7.7455029 3.1039729 13
-5.2200599 -2.2448733 -0.49713635 5
-15.288038 -6.5714245 3.2345943 48
-9.1147633 -3.9160111 -0.51990539 4
-12.654309 -5.4341044 3.1794581 67
-9.5693893 -4.1093559 -0.18178427 2
-12.662746 -5.4351134 3.6923127 56
-9.8891459 -4.2262392 0.18771808 2
-1.8906578 -0.80760449 -0.47464675 2
-9.9347715 -4.2436905 0.56617045 2
-2.2244678 -0.94973421 -0.47015342 100
-24.819466 -10.591517 2.3608747 31
-2.7563798 -1.1756961 -0.47462222 4
-22.904354 -9.7648087 3.0572145 21
-3.6122284 -1.5392556 -0.48211515 3
-18.009092 -7.6740985 3.1005316 13
-5.2351956 -2.2297623 -0.49783361 5
-15.265726 -6.4987903 3.2250538 50
-9.1265392 -3.8833888 -0.51980078 3
-12.631953 -5.3723602 3.1691103 72
-9.633359 -4.0970607 -0.1827267 1
-12.642529 -5.374249 3.6809247 57
-9.8846931 -4.1856246 0.18736903 2
-1.8915308 -0.80057073 -0.47419682 1
-9.9348087 -4.2027597 0.56533301 2
-2.2205369 -0.9389047 -0.46862692 100
-24.938868 -10.539723 2.3687186 32
-2.765722 -1.168856 -0.47556084 4
-22.958551 -9.6980743 3.0601394 15
-3.6173129 -1.5272684 -0.48211515 3
-18.032129 -7.6096559 3.099906 13
-5.2319326 -2.2068284 -0.49678773 5
-15.234733 -6.4260077 3.2139866 47
-9.1375275 -3.8523266 -0.51969612 4
-12.613784 -5.3153062 3.1601124 72
-9.6218033 -4.0525398 -0.18223803 1
-12.604235 -5.3060994 3.6643603 64
-9.8512955 -4.1309915 0.18646152 2
-1.9033 -0.79772955 -0.47644633 2
-9.942049 -4.1649704 0.56491435 2
-2.2272592 -0.93305397 -0.46939012 100
-25.060059 -10.493132 2.3769114 32
-2.7552075 -1.1530936 -0.4730579 4
-22.995928 -9.619401 3.0606267 12
-3.6299477 -1.5176961 -0.48309013 4
-20.269424 -8.4705753 3.4794157 20
-5.2281914 -2.1848567 -0.49574184 5
-15.202724 -6.3500843 3.2025383 46
-9.1527605 -3.8211782 -0.51980078 4
-12.589098 -5.2532325 3.1493149 70
-9.6820307 -4.0381722 -0.18311065 2
-12.588799 -5.2479496 3.654525 60
-9.8545752 -4.0919776 0.18625209 2
-1.8862746 -0.7828638 -0.47149745 1
-9.9270096 -4.1179934 0.56323957 2
-2.2413833 -0.92978674 -0.47167987 100
-25.190397 -10.444509 2.3858011 32
-2.7683401 -1.1472503 -0.47462222 4
-25.255825 -10.461307 3.3565259 14
-3.6315551 -1.5034972 -0.48260266 4
-20.247763 -8.3786211 3.4706554 50
-5.2468328 -2.1711645 -0.49678773 5
-15.166742 -6.2729707 3.1903267 49
-9.1402025 -3.7785232 -0.51833534 4
-12.569538 -5.1936255 3.1398668 69
-9.7644529 -4.0325961 -0.18440214 1
-12.569543 -5.1884952 3.6436548 56
-9.8558521 -4.0522308 0.18600775 4
-1.8889958 -0.77627468 -0.47149745 1
-9.9228497 -4.0757284 0.56219292 7
-2.2482471 -0.92344892 -0.4724431 100
-25.372309 -10.416291 2.3995719 38
-2.7686732 -1.1360803 -0.47399649 3
-25.204029 -10.336926 3.3448262 32
-3.6220872 -1.4847879 -0.48065275 4
-20.211082 -8.2809296 3.4593921 66
-5.2488484 -2.1505699 -0.49626479 6
-15.148577 -6.2036214 3.181931 48
-9.1385489 -3.7405422 -0.51749802 3
-12.546105 -5.1327486 3.129519 75
-9.7710657 -3.9954591 -0.18426251 1
-12.555388 -5.1314316 3.6343372 64
-9.8866053 -4.02459 0.1863219 2
-1.8953041 -0.77114493 -0.47239724 1
-9.944418 -4.0440755 0.56261158 1
-2.2278149 -0.90598089 -0.46748206 100
-25.476803 -10.355425 2.4060214 23
-2.7799423 -1.1293827 -0.47524795 3
-25.171906 -10.221251 3.335808 58
-3.6235693 -1.4706423 -0.48016527 4
-20.164816 -8.1798859 3.4465647 68
-5.2563233 -2.1322348 -0.49626479 6
-15.128293 -6.1337385 3.1731539 50
-9.1663589 -3.7146206 -0.51833534 3
-12.515179 -5.06917 3.1173718 78
-9.8220253 -3.9763353 -0.1849606 1
-12.530245 -5.0701823 3.6219139 66
-9.9043036 -3.9915471 0.1863917 4
-1.9106375 -0.76962107 -0.47554654 2
-10.02517 -4.0361938 0.56637979 1
-2.2382483 -0.90113223 -0.46900854 100
-27.619921 -11.114337 2.6047366 44
-2.7728715 -1.1152494 -0.47337076 4
-25.139282 -10.105933 3.3267896 68
-3.6323647 -1.4594649 -0.48065275 4
-20.121756 -8.0807352 3.4343626 71
-5.2419147 -2.1040502 -0.49417305 6
-15.096774 -6.0596886 3.1620867 49
-9.1792698 -3.6826012 -0.51833534 4
-12.502048 -5.013123 3.1097233 63
-6.2088885 -2.4884083 -0.1167566 1
-12.50124 -5.0077348 3.6084552 57
-9.9701815 -3.9776978 0.18736903 1
-1.9042615 -0.75933844 -0.47329703 1
-27.427366 -10.931318 1.5473651 9
-2.248832 -0.89582813 -0.47053501 100
-27.575319 -10.979133 2.5967181 22
-2.7787759 -1.1058091 -0.47368363 4
-25.082186 -9.9814129 3.3146029 65
-3.648504 -1.4511784 -0.48211515 4
-20.100277 -7.9907503 3.4259152 73
-5.2510796 -2.0864742 -0.49434736 5
-15.065969 -5.9832964 3.1510198 54
-9.1704283 -3.6400926 -0.51707929 3
-12.494978 -4.9572053 3.1034248 34
-6.2101016 -2.4637699 -0.11661698 1
-12.468362 -4.9441276 3.5939615 52
-9.9995728 -3.9470046 0.18764828 1
-1.9034065 -0.75092304 -0.47239724 1
-27.389208 -10.799947 1.5429689 61
-2.2629035 -0.89229435 -0.47282472 5
-27.520796 -10.846284 2.5880027 10
-2.784457 -1.0968266 -0.47399649 4
-25.033632 -9.8559685 3.3033907 63
-3.6482568 -1.4356165 -0.48138395 4
-20.07428 -7.895329 3.4165289 68
-5.2698169 -2.0715885 -0.49539325 5
-15.035602 -5.9105625 3.1403346 52
-9.1682091 -3.6022141 -0.51624191 4
-12.519463 -4.916409 3.1052244 27
-6.2116442 -2.438071 -0.11647736 2
-12.450432 -4.884285 3.5836086 53
-27.322351 -10.674516 0.51201868 36
-1.8969398 -0.74073058 -0.47014773 2
-27.335573 -10.668692 1.5378399 78
-2.2588427 -0.88113993 -0.47129822 100
-27.354317 -10.665007 2.5686541 53
-2.7939799 -1.088766 -0.47493511 4
-24.98835 -9.7375317 3.2929099 63
-3.6439974 -1.4192698 -0.48016527 4
-20.037289 -7.8001328 3.4055786 67
-5.2714458 -2.0510132 -0.49487031 6
-15.01874 -5.8404675 3.1323206 47
-9.1776266 -3.567142 -0.51603258 4
-12.533764 -4.869081 3.1043243 25
-6.2052054 -2.4105806 -0.11619812 1
-12.442192 -4.8310056 3.5763617 63
-27.296053 -10.560048 0.51086682 68
-1.9102911 -0.73865283 -0.4728471 2
-27.288832 -10.546306 1.5332344 83
-2.2524433 -0.87050104 -0.46939012 100
-27.294758 -10.543121 2.5599384 64
-2.8010721 -1.0814058 -0.47556084 4
-24.95013 -9.6274576 3.283648 66
-3.6560924 -1.410035 -0.4811402 4
-19.989315 -7.7052231 3.3930638 67
-5.287158 -2.0380254 -0.49574184 5
-15.016861 -5.7854953 3.1281228 30
-9.1906519 -3.5390069 -0.51613724 4
-12.543543 -4.8275809 3.1029749 27
-6.2019663 -2.3856821 -0.11598869 1
-12.414868 -4.7730803 3.5639384 60
-27.246843 -10.431813 0.50926125 73
-1.914678 -0.73267657 -0.47329703 3
-27.245264 -10.420305 1.5287334 78
-2.2426322 -0.85772383 -0.46671882 100
-27.243927 -10.414344 2.5517459 63
-2.7956035 -1.0680965 -0.47399649 5
-24.916822 -9.5148115 3.2748733 63
-3.6572826 -1.3958495 -0.48065275 4
-19.955185 -7.6121664 3.3827393 69
-5.2849326 -2.0160067 -0.49487031 6
-15.031462 -5.7309432 3.1269779 18
-9.2066813 -3.5083282 -0.51634657 4
-12.567602 -4.7865405 3.1047745 27
-6.1953063 -2.3583257 -0.11570945 1
-12.391731 -4.714602 3.5525503 60
-27.18585 -10.299798 0.50744617 76
-1.9154012 -0.7252984 -0.4728471 3
-27.186203 -10.289088 1.5233952 78
-2.2694826 -0.85892493 -0.47167987 5
-27.175755 -10.279706 2.5419843 57
-2.7937715 -1.0562357 -0.4730579 4
-24.875607 -9.3997097 3.2651238 63
-3.6658468 -1.3844773 -0.4811402 4
-19.928041 -7.522233 3.3736663 72
-5.2975292 -1.9996572 -0.49539325 5
-15.034844 -5.6721969 3.1235435 14
-6.2680101 -2.3634851 -0.35106963 2
-12.587881 -4.7440162 3.1056743 27
-6.1398745 -2.3127196 -0.11452269 1
-12.375568 -4.6590691 3.5432329 63
-27.120527 -10.166934 0.50556135 71
-1.9142717 -0.71724093 -0.47194731 2
-27.132175 -10.160501 1.5183709 76
-2.2743056 -0.85168558 -0.47206149 100
-27.142433 -10.158939 2.5355349 73
-2.7918906 -1.0444014 -0.47211927 5
-24.826452 -9.2822313 3.2543991 64
-3.6743762 -1.3730621 -0.48162767 4
-19.89311 -7.4298215 3.3633416 69
-5.2988777 -1.9790629 -0.49487031 6
-15.054552 -5.6196847 3.1235435 14
-6.2612519 -2.3360057 -0.35023224 14
-12.597062 -4.6973205 3.1038747 27
-6.1629 -2.2968614 -0.11480194 1
-12.35917 -4.603703 3.5339153 62
-27.077105 -10.043001 0.50409532 71
-1.9185911 -0.71123141 -0.47239724 3
-27.079575 -10.038535 1.513556 80
-2.269901 -0.84101313 -0.47053501 100
-27.10112 -10.035771 2.528388 57
-2.8103402 -1.0401341 -0.47462222 5
-24.776783 -9.1652107 3.2436748 60
-3.6679749 -1.3560985 -0.48016527 4
-19.862053 -7.3432612 3.3539553 63
-5.3150983 -1.9640058 -0.49574184 7
-15.083285 -5.5705004 3.1254516 14
-6.2412624 -2.3037629 -0.34866217 14
-12.60241 -4.6492753 3.1011751 27
-6.136713 -2.2639534 -0.11417364 1
-12.334493 -4.5479898 3.5225275 62
-27.033295 -9.9248981 0.50266421 76
-1.9227684 -0.70553684 -0.4728471 2
-27.028194 -9.9123144 1.508741 89
-2.2654493 -0.83038247 -0.46900854 100
-27.053671 -9.9109535 2.5207183 66
-2.8082092 -1.028771 -0.47368363 4
-24.738071 -9.0577431 3.2346563 67
-3.6612666 -1.3398342 -0.47870281 4
-19.824492 -7.2508101 3.343318 65
-5.3163075 -1.9433883 -0.4952189 6
-15.109051 -5.5231476 3.1269779 15
-6.2226038 -2.2734578 -0.34719676 13
-12.612267 -4.605453 3.0998256 25
-6.1182795 -2.2329204 -0.11368498 1
-12.310366 -4.4903426 3.5111394 64
-27.00387 -9.8072643 0.50147742 66
-1.9362104 -0.70280981 -0.47554654 3
-27.015692 -9.8008852 1.5061244 59
-2.2644997 -0.82152629 -0.46824533 100
-27.037691 -9.8035269 2.5161862 35
-2.8154979 -1.0203074 -0.47430936 4
-24.707943 -8.9490337 3.226613 60
-3.6864533 -1.3344783 -0.48138395 4
-19.786524 -7.1587148 3.3326802 63
-5.3189764 -1.9243922 -0.49487031 7
-15.124547 -5.469038 3.1262147 15
-6.2248669 -2.2496862 -0.34688276 14
-14.864332 -5.3690786 3.6487062 36
-6.1147509 -2.2074757 -0.11347555 1
-12.28962 -4.4342303 3.5007865 60
-27.137682 -9.7487736 0.50332743 61
-1.940486 -0.69670588 -0.47599643 3
-27.17757 -9.7523937 1.513242 68
-2.2692013 -0.81427968 -0.46862692 100
-6.6183715 -2.3736315 0.61514527 3
-2.8078849 -1.0064747 -0.47243217 4
-24.66428 -8.8359509 3.2168636 64
-3.6892207 -1.3209318 -0.4811402 4
-19.744436 -7.0656424 3.3214169 61
-5.3162818 -1.9024572 -0.49399874 7
-15.132452 -5.4122467 3.1239252 10
-6.2195177 -2.2232361 -0.34615004 15
-14.835269 -5.3001132 3.6370087 71
-6.0998201 -2.1780496 -0.11305669 1
-12.272275 -4.3796167 3.4914691 65
-27.27895 -9.6921453 0.50531697 56
-1.9227057 -0.68275481 -0.47104752 3
-27.313089 -9.6935387 1.5188943 39
-2.2775803 -0.80832356 -0.46977177 100
-6.6266174 -2.3505127 0.61514527 9
-2.8113811 -0.99666715 -0.47243217 4
-24.607031 -8.7186441 3.2054079 67
-3.6975517 -1.3093712 -0.48162767 4
-19.731735 -6.9835014 3.3151596 65
-5.3382454 -1.8882759 -0.49539325 7
-17.248291 -6.1011686 3.5562983 32
-6.2008781 -2.1921921 -0.34468466 17
-14.811419 -5.2333674 3.6266611 80
-6.1036153 -2.1554105 -0.11298689 1
-12.254696 -4.3251777 3.4821515 67
-27.446568 -9.6439304 0.50779521 61
-1.9232384 -0.67539334 -0.47059759 3
-6.4659042 -2.2693951 0.35912937 4
-2.2805276 -0.79997033 -0.46977177 100
-6.6257863 -2.3229148 0.61427367 14
-2.8168797 -0.98700875 -0.472745 5
-24.566126 -8.6077452 3.1961458 65
-3.6758699 -1.2872717 -0.47821537 4
-19.696327 -6.8936992 3.3051476 70
-5.3485656 -1.8709446 -0.49574184 9
-17.229767 -6.0236549 3.5479028 63
-6.1881299 -2.1622045 -0.34353325 16
-14.777148 -5.1604099 3.6136138 82
-6.0959988 -2.1288176 -0.11270764 1
-12.235064 -4.2702823 3.4723163 71
-27.602627 -9.5852594 0.51002914 63
-1.9367471 -0.6721735 -0.47329703 3
-6.4628563 -2.2417552 0.35850134 11
-2.2814512 -0.79136145 -0.46939012 100
-6.4474888 -2.2351658 0.59701681 11
-2.8259072 -0.97911072 -0.47368363 6
-24.537481 -8.4968672 3.1883459 65
-3.6899431 -1.2770356 -0.47943404 4
-19.654257 -6.7982163 3.2938845 62
-5.3512979 -1.8509618 -0.49539325 7
-17.2043 -5.9474387 3.5383623 50
-6.1880889 -2.1379802 -0.34311455 16
-14.743494 -5.0909901 3.6010165 87
-6.0772953 -2.0973284 -0.11221898 1
-12.20863 -4.2109184 3.4604108 67
-27.711571 -9.5148172 0.51142532 15
-1.9446114 -0.66730642 -0.47464675 2
-27.769915 -9.5240221 1.5385725 26
-2.2749143 -0.78020889 -0.46748206 100
-6.3628993 -2.1809893 0.58847558 8
-2.834914 -0.97116101 -0.47462222 6
-24.499382 -8.3880138 3.1795716 65
-3.7018907 -1.2667189 -0.480409 4
-19.621794 -6.7103915 3.2844982 66
-5.2351885 -1.7903646 -0.484063 6
-17.169224 -5.8682985 3.5269136 53
-6.1841741 -2.1124945 -0.34248653 16
-14.729823 -5.0287905 3.5933683 80
-6.0732245 -2.0722258 -0.11200955 1
-12.186684 -4.1558089 3.450058 65
-6.3510404 -2.1558876 0.11707074 3
-1.9377017 -0.65738392 -0.47239724 3
-6.389071 -2.1675537 0.35358176 9
-2.2887795 -0.77604562 -0.46977177 100
-6.4648232 -2.1907372 0.59719115 13
-2.8233187 -0.95618993 -0.47211927 6
-24.460821 -8.2795315 3.1707969 68
-3.7100506 -1.2550613 -0.48089647 4
-19.595287 -6.6288276 3.2763636 66
-5.3169036 -1.7976044 -0.49103546 6
-17.133804 -5.7894769 3.5154653 48
-6.1763721 -2.0857823 -0.34164914 15
-14.710359 -4.964879 3.5843701 74
-6.0724845 -2.0495183 -0.11186992 1
-12.167449 -4.104259 3.4407406 65
-6.3391976 -2.1284497 0.11672169 3
-1.9306337 -0.6478548 -0.47014773 2
-6.6276174 -2.2227175 0.36635172 26
-2.2914746 -0.76805097 -0.46977177 100
-2.8246012 -0.94619471 -0.47180638 6
-24.412846 -8.1731682 3.1610475 78
-3.7104273 -1.2414916 -0.480409 4
-19.569597 -6.5440979 3.268229 62
-5.3609385 -1.7916658 -0.49452168 6
-17.104496 -5.7164507 3.5055432 48
-6.152945 -2.0551651 -0.3399744 14
-14.687923 -4.9031115 3.5749223 76
-6.0530448 -2.0194488 -0.11138126 1
-12.157878 -4.0538173 3.4340112 71
-6.3352013 -2.1025293 0.11651226 3
-1.9217852 -0.63743103 -0.46744829 2
-6.0628018 -2.0097761 0.33474082 15
-2.294009 -0.76044786 -0.46977177 100
-6.54389 -2.1679859 0.60311776 8
-2.8297617 -0.93695074 -0.47211927 6
-24.38092 -8.0679379 3.1532476 37
-3.7147384 -1.2285321 -0.480409 5
-19.543554 -6.4596338 3.2600944 66
-5.3630667 -1.7726277 -0.49417305 7
-17.079607 -5.6419263 3.4963844 51
-6.1411152 -2.0274131 -0.33892769 14
-14.654982 -4.8353281 3.5627747 82
-6.0410662 -1.9920449 -0.11103221 1
-12.138927 -4.0004697 3.4246936 74
-6.1961946 -2.0324135 0.1138246 16
-1.9462198 -0.63800335 -0.4728471 3
-6.5955248 -2.1608465 0.36373493 12
-2.2723958 -0.74448949 -0.46481073 100
-28.487305 -9.3276033 2.6225164 45
-2.8348927 -0.92768157 -0.47243217 6
-24.352333 -7.964272 3.1459355 18
-3.7208908 -1.2161753 -0.48065275 5
-19.48712 -6.3656077 3.246954 66
-5.3767982 -1.7563697 -0.49487031 9
-17.054405 -5.5676498 3.4872253 51
-6.1291676 -1.9997708 -0.33788097 14
-14.625454 -4.7690363 3.5515273 78
-6.0251675 -1.9635102 -0.11061335 1
-12.112405 -3.9449131 3.4133058 74
-6.3078756 -2.0446861 0.11574436 3
-1.9502892 -0.63180602 -0.47329703 3
-6.139389 -1.9877038 0.338195 7
-2.2955263 -0.74320525 -0.46900854 100
-6.7882357 -2.1964672 0.6242094 2
-2.8456318 -0.92021078 -0.47368363 6
-6.9983606 -2.2617588 0.90305191 8
-3.7194462 -1.201349 -0.47992152 5
-19.456587 -6.2805548 3.2381938 65
-5.3791041 -1.736366 -0.49452168 7
-17.02142 -5.4912109 3.4765401 51
-6.1399126 -1.9795892 -0.33809033 14
-14.612334 -4.7083917 3.5443287 78
-6.016757 -1.9375641 -0.11033412 1
-12.089323 -3.8907688 3.4029529 69
-6.2959304 -2.0165551 0.11539531 3
-1.9543387 -0.62558883 -0.47374693 3
-6.22048 -1.9899949 0.3422772 11
-2.2924969 -0.73339319 -0.46786368 100
-6.4941187 -2.0762854 0.5964939 16
-2.8394182 -0.90726644 -0.47211927 5
-24.265512 -7.7487826 3.127655 25
-3.7406375 -1.1937892 -0.48211515 4
-19.433224 -6.1981983 3.2306848 61
-5.3794374 -1.7157637 -0.49399874 7
-16.999331 -5.4186435 3.4681444 50
-6.1239491 -1.9508684 -0.33683425 15
-14.595257 -4.6467185 3.5362306 76
-5.9968057 -1.9080614 -0.10984544 1
-12.064171 -3.8362517 3.3920827 65
-6.2838664 -1.9885325 0.11504627 1
-1.943504 -0.61464971 -0.47059759 3
-6.2883286 -1.9875305 0.34562668 10
-2.3025308 -0.72775298 -0.46939012 100
-6.5222249 -2.0602052 0.59841132 13
-2.8388007 -0.89616013 -0.47149354 5
-6.993156 -2.2062762 0.90037078 9
-3.7391021 -1.1789347 -0.48138395 4
-19.409523 -6.1160769 3.223176 63
-5.3834939 -1.6963767 -0.49382445 7
-16.969456 -5.3439393 3.4582224 53
-6.1040497 -1.921087 -0.33536884 15
-14.57235 -4.5834641 3.5267825 82
-6.0034299 -1.8871154 -0.10984544 1
-12.057214 -3.78775 3.3863885 69
-6.2907696 -1.9665856 0.11504627 3
-1.9530782 -0.6101864 -0.47239724 3
-6.243753 -1.9494956 0.34280053 10
-2.2975612 -0.71737069 -0.46786368 100
-6.4685149 -2.0184343 0.59283334 11
-2.8456829 -0.88742149 -0.47211927 5
-7.0027094 -2.1824424 0.9006145 14
-3.7337182 -1.1629239 -0.48016527 4
-19.376059 -6.0312624 3.214103 65
-5.4007964 -1.6811273 -0.49487031 6
-16.937391 -5.2689261 3.4479189 53
-6.0935531 -1.8944315 -0.33442679 18
-14.536153 -4.5163789 3.5141854 82
-5.9908824 -1.8602192 -0.1094964 2
-12.044531 -3.7376232 3.3791416 71
-6.1925082 -1.912165 0.1131265 9
-1.9589204 -0.60451484 -0.47329703 4
-6.2196479 -1.919358 0.34112579 11
-2.2962992 -0.70818907 -0.46710047 100
-29.306446 -9.0326395 2.6830025 42
-2.8563147 -0.87980938 -0.47337076 6
-6.7977948 -2.0925736 0.87331581 7
-3.7413485 -1.151704 -0.48065275 4
-19.337423 -5.9489684 3.2044039 63
-5.4123449 -1.6640211 -0.49539325 7
-16.914394 -5.1970854 3.4395232 50
-6.0829453 -1.8678727 -0.33348474 16
-14.504477 -4.4538484 3.5029378 81
-5.9817252 -1.835649 -0.10921716 1
-12.019919 -3.6863325 3.368789 71
-1.6831964 -0.51396269 -0.47156835 1
-6.149087 -1.8764441 0.11221898 24
-1.9609141 -0.59801537 -0.47329703 4
-6.1629357 -1.879496 0.33767161 20
-2.298635 -0.70057029 -0.46710047 100
-29.425817 -8.9626894 2.691195 12
-2.8686655 -0.87320882 -0.47493511 6
-24.145943 -7.3453059 3.0988939 9
-3.754643 -1.1421795 -0.48187143 5
-19.304125 -5.8687215 3.1956437 63
-5.3968635 -1.639694 -0.49347579 6
-16.893961 -5.1295576 3.4318907 48
-6.0776391 -1.8442109 -0.33285671 15
-14.49679 -4.3989348 3.4975388 76
-5.9648151 -1.8088403 -0.1087983 3
-11.987706 -3.6330047 3.3563654 74
-1.7070854 -0.51507461 -0.47777998 1
-6.0825229 -1.8341047 0.11089259 13
-1.9610205 -0.59094709 -0.4728471 3
-6.2054687 -1.8699976 0.33966038 8
-2.3103447 -0.69577497 -0.46900854 100
-6.3970385 -1.9252895 0.5844664 16
-2.8412786 -0.85458755 -0.46992919 6
-6.3666739 -1.9137293 0.81628096 4
-3.7679148 -1.1325803 -0.48309013 5
-19.279966 -5.7916031 3.1884477 67
-5.4060879 -1.6229339 -0.49382445 6
-16.858227 -5.0577097 3.4212053 55
-6.0760689 -1.8217521 -0.33243802 16
-14.468365 -4.337965 3.4871912 82
-5.9746122 -1.790198 -0.10886811 1
-11.966376 -3.5832567 3.3470478 69
-1.67546 -0.49947652 -0.4684625 1
-6.1498981 -1.8321946 0.11200955 6
-1.9498954 -0.58054823 -0.4696978 4
-6.2556624 -1.8625174 0.34206784 13
-2.3239295 -0.69146901 -0.47129822 5
-6.0176187 -1.7893559 0.54925549 15
-2.8478842 -0.84628612 -0.47055492 6
-6.2473903 -1.8553075 0.8001942 10
-3.7640383 -1.1178185 -0.48211515 4
-19.247936 -5.7124605 3.1800003 61
-5.4171705 -1.6066971 -0.49434736 7
-16.827848 -4.9878335 3.411665 56
-6.0514364 -1.7925168 -0.33076328 15
-14.449038 -4.2799993 3.4790931 84
-5.9536715 -1.762429 -0.10837945 1
-11.957816 -3.5375292 3.3413541 65
-1.6846929 -0.49551269 -0.47053304 1
-6.2390685 -1.833892 0.11351045 3
-1.95388 -0.57394683 -0.47014773 3
-6.2033601 -1.821044 0.33882302 20
-2.3245647 -0.68239379 -0.47091663 5
-5.9667811 -1.7504634 0.54402614 6
-2.8509669 -0.83584172 -0.47055492 7
-6.1474676 -1.8011409 0.7865448 20
-3.7568719 -1.1000105 -0.48065275 4
-19.224228 -5.6251979 3.1724913 57
-5.4306717 -1.5890681 -0.49504462 9
-16.795137 -4.9112449 3.4013612 55
-6.0426288 -1.7658446 -0.32992589 14
-14.4186 -4.2108302 3.4678454 86
-5.9603949 -1.7395556 -0.10837945 1
-11.947201 -3.4845567 3.3346248 71
-1.6938332 -0.49178353 -0.47260359 1
-6.2339091 -1.8087587 0.11330102 3
-1.9539999 -0.56658024 -0.4696978 4
-6.1003332 -1.7676938 0.33285671 26
-2.3080757 -0.6688112 -0.46710047 100
-5.9537177 -1.7240827 0.542283 10
-2.8633544 -0.82863104 -0.47211927 6
-6.1975775 -1.7923554 0.7921508 15
-3.7530606 -1.0846851 -0.47967777 4
-19.186811 -5.5416188 3.1631052 61
-5.4361854 -1.5701029 -0.49504462 9
-16.785772 -4.8449669 3.3960185 55
-6.0372419 -1.7414184 -0.32929787 14
-14.397634 -4.150218 3.4592972 82
-5.9318428 -1.7087753 -0.10775116 1
-11.92402 -3.4326744 3.3247895 79
-1.6732543 -0.47948194 -0.46639192 1
-6.2248054 -1.7825847 0.11302178 3
-1.9709539 -0.56404531 -0.47329703 3
-5.9835687 -1.7112412 0.32615772 25
-2.3047333 -0.65913081 -0.46595559 100
-5.9865193 -1.7109549 0.54472339 10
-2.8719277 -0.82025844 -0.4730579 7
-6.2076135 -1.7718003 0.79263824 14
-3.7625508 -1.0732113 -0.480409 4
-19.158545 -5.461072 3.1552835 63
-5.4301367 -1.5478404 -0.49399874 7
-16.76482 -4.7755861 3.3883865 55
-6.0394421 -1.7192401 -0.32908851 15
-14.382042 -4.0914073 3.4520988 84
-5.9108424 -1.6804031 -0.10726249 1
-11.900621 -3.3809996 3.3149545 77
-1.6823535 -0.47574136 -0.4684625 1
-6.2078977 -1.7543176 0.11260293 3
-1.9654094 -0.55504352 -0.47149745 3
-5.9683619 -1.6843785 0.32500634 15
-2.3202462 -0.65481502 -0.46862692 100
-5.9656091 -1.6824759 0.542283 5
-2.8595634 -0.80594164 -0.47055492 7
-6.1507053 -1.7323627 0.78459489 7
-3.7700958 -1.0611465 -0.48089647 4
-19.128048 -5.3802557 3.1471488 61
-5.4259171 -1.5261787 -0.4931272 7
-16.722799 -4.7005644 3.3765562 58
-6.0319462 -1.6943682 -0.32835582 13
-14.364341 -4.0322256 3.4444504 86
-5.9128218 -1.6586783 -0.10719268 1
-11.880727 -3.3305755 3.3061545 82
-1.6840041 -0.4698655 -0.4684625 2
-6.1870165 -1.725118 0.11211426 3
-1.9635803 -0.5471338 -0.47059759 3
-6.001142 -1.6710337 0.32647175 26
-2.3281918 -0.64829111 -0.46977177 100
-5.9407344 -1.6530956 0.53949404 5
-2.8604555 -0.79542625 -0.47024205 7
-5.9405899 -1.6508217 0.75705242 10
-3.773777 -1.0479798 -0.48089647 4
-19.106741 -5.3023653 3.1405785 59
-5.4350505 -1.5082961 -0.49347579 6
-16.701267 -4.6316724 3.3689237 60
-5.9993296 -1.6626341 -0.32626238 12
-14.340766 -3.9716611 3.4354525 86
-5.92243 -1.6390967 -0.10726249 1
-11.864352 -3.281359 3.2983899 77
-1.6912217 -0.46552238 -0.47001541 3
-6.1814318 -1.70033 0.11190483 3
-1.9692364 -0.5413093 -0.47149745 3
-6.0050125 -1.6495463 0.32636705 30
-2.3228683 -0.63808006 -0.46824533 100
-5.9772091 -1.6407887 0.542283 2
-2.87274 -0.78804874 -0.47180638 7
-5.9233422 -1.623777 0.75412756 13
-3.7659247 -1.0316545 -0.47943404 4
-19.077501 -5.2225928 3.1327569 61
-5.4364395 -1.4882615 -0.4931272 6
-16.679459 -4.562984 3.3612914 58
-5.9877572 -1.636942 -0.32532033 12
-14.305667 -3.9082215 3.4237549 91
-5.8933921 -1.6089336 -0.1066342 1
-11.849642 -3.2328057 3.2911432 77
-1.6872432 -0.45809788 -0.4684625 2
-6.1796103 -1.6766478 0.11176521 3
-1.971114 -0.53443158 -0.47149745 4
-6.1071219 -1.6546919 0.33160067 8
-2.3175013 -0.62791455 -0.46671882 100
-2.879287 -0.77904803 -0.47243217 7
-5.9443045 -1.6072373 0.75607747 14
-3.7695029 -1.0185025 -0.47943404 4
-19.028868 -5.1379452 3.1218066 60
-5.4531422 -1.4723916 -0.49417305 6
-16.663063 -4.4960399 3.3548038 52
-5.9934349 -1.6160308 -0.32532033 13
-14.285354 -3.8491352 3.4156568 86
-5.879663 -1.5831527 -0.10628515 1
-11.838469 -3.1853993 3.2849314 71
-1.6944304 -0.45370451 -0.47001541 3
-6.0907698 -1.6297392 0.11005487 21
-1.978615 -0.52905834 -0.4728471 5
-6.1919723 -1.6545026 0.3358922 10
-2.3082988 -0.61678028 -0.46442911 100
-6.4562817 -1.7239175 0.58464068 10
-2.8762631 -0.76746476 -0.47149354 7
-5.957551 -1.5885236 0.75705242 10
-3.7711174 -1.0048262 -0.47919029 4
-19.006601 -5.0608172 3.1152363 61
-5.4428463 -1.4492465 -0.49277857 6
-16.642607 -4.4282589 3.3475533 56
-5.9797378 -1.5899675 -0.32427362 13
-14.270451 -3.7917397 3.4089081 84
-5.8696914 -1.5585151 -0.10600592 1
-11.810303 -3.1336515 3.274061 79
-1.6904001 -0.44630754 -0.4684625 3
-6.0944881 -1.6079583 0.11001997 30
-1.9823341 -0.52264524 -0.47329703 5
-6.3580122 -1.6751125 0.34457996 48
-2.3199301 -0.61121988 -0.46633717 100
-6.5065746 -1.7130374 0.58864987 11
-2.8712826 -0.75541025 -0.47024205 6
-5.9688191 -1.5692321 0.75778365 6
-3.7803617 -0.99316955 -0.47992152 4
-18.980204 -4.9829078 3.1080401 60
-5.4440174 -1.4292278 -0.49242991 6
-16.593399 -4.3531961 3.3345783 58
-5.9717278 -1.5655391 -0.3235409 13
-14.253437 -3.7340047 3.4017098 84
-5.8750958 -1.538015 -0.10600592 1
-11.664177 -3.0513372 3.2305794 35
-1.6919478 -0.44040415 -0.4684625 2
-6.1116762 -1.5896949 0.1102294 37
-1.9652858 -0.51082009 -0.46879801 3
-6.2188377 -1.6152495 0.33672959 10
-2.333451 -0.6060788 -0.46862692 100
-5.972537 -1.5501655 0.53984267 23
-2.8758144 -0.74587882 -0.47055492 7
-6.1337538 -1.5897226 0.77801394 10
-3.7761185 -0.97797757 -0.47894657 4
-18.957323 -4.90623 3.10147 58
-5.4682612 -1.4152076 -0.49417305 6
-16.570478 -4.2854156 3.3269458 62
-5.942349 -1.5356905 -0.32165682 13
-14.226762 -3.6739955 3.392262 86
-5.8688116 -1.5144995 -0.10579649 1
-11.334297 -2.9228103 3.1363695 28
-1.6972173 -0.43545562 -0.46949777 3
-6.1094389 -1.5663646 0.11008978 29
-1.9670568 -0.50395727 -0.46879801 4
-6.1296301 -1.5692613 0.33160067 23
-2.3336506 -0.59744352 -0.46824533 100
-5.9952836 -1.5337522 0.54141146 17
-2.8784008 -0.73583508 -0.47055492 7
-6.323905 -1.6154705 0.80141288 15
-3.7814326 -0.96528137 -0.47919029 4
-18.932226 -4.8292804 3.0945871 61
-5.4731684 -1.3961097 -0.49417305 6
-16.551094 -4.218823 3.3200769 56
-5.9379959 -1.5124733 -0.32113346 13
-14.194176 -3.6127722 3.3814642 91
-5.8701854 -1.4930196 -0.10572667 1
-11.344431 -2.8832281 3.1363695 27
-1.698727 -0.42952856 -0.46949777 3
-6.1303797 -1.5489494 0.11036902 8
-1.9725829 -0.49804142 -0.4696978 3
-6.0924654 -1.537106 0.32929787 33
-2.3242998 -0.58641213 -0.46595559 100
-5.9909406 -1.5103812 0.54053992 8
-2.8943603 -0.72916168 -0.472745 7
-6.3449059 -1.5972629 0.80336279 14
-3.7809289 -0.9511072 -0.47870281 4
-18.89341 -4.7492042 3.0855138 48
-5.4683471 -1.3745691 -0.49330151 7
-16.556198 -4.1586308 3.3181686 37
-5.9393654 -1.4907627 -0.32092413 13
-11.68518 -2.9307797 2.7812948 17
-5.8288093 -1.4608523 -0.10488896 1
-11.346931 -2.8417308 3.1342988 28
-1.6889684 -0.42079443 -0.46639192 2
-6.1512728 -1.5314054 0.11064825 3
-1.9837649 -0.493505 -0.47194731 3
-6.0881023 -1.5134207 0.32877451 16
-2.3263328 -0.57829517 -0.46595559 100
-5.976841 -1.484655 0.53879678 20
-2.8911362 -0.71762627 -0.47180638 7
-6.3331017 -1.5708041 0.80116916 19
-3.7822993 -0.93742585 -0.47845906 4
-11.669588 -2.8900933 1.9041206 33
-5.4750457 -1.3559513 -0.49347579 6
-11.674706 -2.8891985 2.3377919 32
-5.9328995 -1.4671458 -0.32029608 13
-11.674529 -2.8848305 2.776346 28
-5.8416381 -1.4424143 -0.10502858 1
-11.35678 -2.8021078 3.1342988 28
-1.6847986 -0.41351476 -0.46483904 3
-6.1177387 -1.5003963 0.10995016 3
-1.9854755 -0.4865773 -0.47194731 3
-6.1418462 -1.5040377 0.3313913 18
-2.3435924 -0.57390749 -0.46900854 100
-6.1097164 -1.4950379 0.55030131 16
-2.8840292 -0.70518398 -0.47024205 7
-6.3269763 -1.5458623 0.7997067 15
-3.7990475 -0.92751312 -0.48016527 4
-11.65274 -2.8427866 1.8997405 27
-5.4778104 -1.3363593 -0.49330151 7
-11.64085 -2.837734 2.3290148 34
-5.9244013 -1.4431182 -0.31956339 17
-11.673167 -2.8412957 2.7736466 30
-5.8388658 -1.4201239 -0.10488896 1
-11.362739 -2.7615354 3.1332636 28
-1.6974984 -0.41035435 -0.46794486 3
-6.095726 -1.4724587 0.10946149 3
-1.9701128 -0.47552902 -0.46789822 3
-6.3700728 -1.5375539 0.34342858 20
-2.3379474 -0.56388146 -0.46748206 100
-6.2504826 -1.5063781 0.56250316 5
-2.882632 -0.69418818 -0.46961632 7
-6.2242537 -1.4977583 0.78605735 7
-3.7984018 -0.91331798 -0.47967777 5
-11.642895 -2.7995105 1.8966117 28
-5.4843783 -1.3176965 -0.49347579 6
-11.623959 -2.7906659 2.3236721 34
-5.9099808 -1.4177701 -0.31851667 19
-11.654587 -2.7937198 2.7668979 34
-5.8435426 -1.4007549 -0.10488896 1
-11.381227 -2.7260895 3.1358516 27
-1.7083173 -0.4066633 -0.47053304 2
-6.1005754 -1.4522362 0.10946149 3
-1.9792622 -0.470797 -0.4696978 4
-6.235496 -1.4820559 0.3358922 8
-2.3513622 -0.5584389 -0.46977177 100
-6.3235521 -1.5006534 0.56860405 8
-2.8926063 -0.68644953 -0.47086781 7
-6.090116 -1.4441321 0.76850814 10
-3.7859566 -0.89705539 -0.47772786 6
-11.617995 -2.7506626 1.89098 25
-5.4986391 -1.3008364 -0.49434736 7
-11.610223 -2.7466798 2.3190925 35
-5.9165931 -1.3986232 -0.31862134 14
-11.622065 -2.7452006 2.7570002 39
-5.8289342 -1.3757536 -0.10453992 1
-11.385033 -2.6850145 3.1342988 28
-1.7190605 -0.40320173 -0.47312123 3
-6.0900316 -1.4272833 0.10918226 3
-1.978996 -0.46344081 -0.46924794 5
-6.2211847 -1.4557287 0.33484548 22
-2.3302622 -0.54527062 -0.46519238 100
-6.3129735 -1.4760464 0.56720954 13
-2.8988321 -0.67724705 -0.47149354 7
-6.116384 -1.4278286 0.77118921 21
-3.781332 -0.88203156 -0.47675291 7
-11.590973 -2.7015715 1.8850355 26
-5.5009818 -1.282144 -0.49417305 7
-11.604444 -2.7025731 2.3160398 35
-5.9019866 -1.3734365 -0.31757462 14
-11.608799 -2.699316 2.7516012 39
-5.8103275 -1.3499676 -0.10412105 1
-11.398099 -2.6461329 3.135334 28
-1.7091634 -0.39459157 -0.47001541 3
-6.0988736 -1.4069152 0.10925207 3
-1.9938945 -0.45959395 -0.47239724 5
-6.1542149 -1.4174193 0.33097261 15
-2.3340642 -0.53757429 -0.46557397 100
-6.3103204 -1.4522135 0.56651235 16
-2.9088793 -0.66889405 -0.472745 7
-6.1619596 -1.4158061 0.77630776 12
-3.7495623 -0.86083144 -0.47236562 6
-11.567603 -2.6535835 1.8797168 29
-5.493773 -1.2602599 -0.4931272 7
-11.588929 -2.6563499 2.3110785 36
-5.8989573 -1.3510426 -0.31715593 14
-11.599154 -2.6544297 2.7471023 39
-5.768219 -1.3189807 -0.10328334 1
-11.399734 -2.6046085 3.1332636 29
-1.6973433 -0.385627 -0.46639192 3
-6.0647459 -1.3767636 0.10855397 3
-1.9954867 -0.45263109 -0.47239724 5
-6.2682047 -1.4206506 0.33683425 7
-2.3416703 -0.53072536 -0.46671882 6
-6.2862034 -1.4235766 0.56389767 7
-2.8957827 -0.655249 -0.47024205 6
-6.2017155 -1.4021678 0.78069508 6
-3.7447994 -0.84598798 -0.47139066 7
-11.563307 -2.6101468 1.8775268 32
-5.5117426 -1.2441474 -0.49434736 9
-11.555998 -2.6063774 2.3026831 36
-5.8841538 -1.3260506 -0.31610921 15
-11.585536 -2.6087902 2.7417035 38
-5.7883959 -1.3023493 -0.10356259 1
-11.404986 -2.5639496 3.1322281 29
-1.7081057 -0.38180688 -0.4689801 3
-6.0499988 -1.3512263 0.10820492 3
-1.9799368 -0.44184273 -0.46834809 6
-6.5382419 -1.4578763 0.35106963 9
-2.3454249 -0.52297539 -0.46710047 100
-6.3708677 -1.4193888 0.57104445 17
-2.8961244 -0.64470756 -0.46992919 6
-6.1581297 -1.3697361 0.77460164 7
-3.7477295 -0.83291095 -0.47139066 6
-11.547278 -2.5642004 1.8734595 35
-5.5179968 -1.225332 -0.49452168 7
-11.538193 -2.5600698 2.2973404 36
-5.873147 -1.3020461 -0.31527182 14
-11.562226 -2.5611682 2.734055 37
-5.8046207 -1.2847286 -0.10377201 1
-11.419526 -2.5253773 3.1337812 31
-1.7150884 -0.37708703 -0.47053304 2
-6.0585852 -1.3309578 0.10827474 3
-1.9795637 -0.43451098 -0.46789822 6
-6.1570148 -1.3503298 0.33034459 23
-2.3529892 -0.51604742 -0.46824533 6
-6.3563218 -1.3928767 0.56930131 12
-2.9022164 -0.63543922 -0.47055492 6
-6.1880827 -1.3537468 0.77777022 10
-3.7816427 -0.82660604 -0.47529048 4
-11.52528 -2.5171328 1.8684534 32
-5.5222406 -1.2060629 -0.49452168 7
-11.531713 -2.5164292 2.2942874 36
-5.8561912 -1.2768567 -0.31412044 16
-11.538728 -2.513741 2.7264068 38
-5.7778077 -1.2576524 -0.10321353 1
-11.483014 -2.4974058 3.1487925 48
-1.7239473 -0.37273049 -0.47260359 2
-6.0475569 -1.3064231 0.10799549 3
-1.9924973 -0.43006563 -0.47059759 5
-6.7181172 -1.4488266 0.36017609 6
-2.3470998 -0.50617462 -0.46671882 6
-6.5189071 -1.4046744 0.58342052 45
-2.9140723 -0.62738407 -0.47211927 6
-6.3829594 -1.3730497 0.80165666 15
-3.7883868 -0.81423479 -0.47577798 4
-11.503095 -2.4702532 1.8634475 31
-5.5322604 -1.1880355 -0.49504462 9
-11.521231 -2.4720418 2.2904713 36
-5.8508472 -1.2543133 -0.31359708 12
-11.528377 -2.4693632 2.7219076 39
-5.7860727 -1.2383146 -0.10328334 1
-11.521889 -2.4637706 3.1570749 47
-1.7120104 -0.36389887 -0.4689801 3
-6.0559921 -1.2861372 0.1080653 3
-1.9958929 -0.4235124 -0.47104752 5
-6.5805044 -1.3951283 0.35253504 13
-2.3488524 -0.49797857 -0.46671882 100
-2.9143121 -0.61679846 -0.47180638 6
-6.4770517 -1.3696522 0.8128686 6
-3.7174013 -0.78541332 -0.46651587 4
-11.492319 -2.4260015 1.8603188 31
-5.51688 -1.1646004 -0.49330151 9
-11.495213 -2.4245169 2.2836022 33
-5.8532362 -1.2334719 -0.31349242 15
-11.515949 -2.4246926 2.716959 39
-5.7629642 -1.2123464 -0.10279468 1
-11.492608 -2.4155917 3.1467221 31
-1.7113791 -0.35752594 -0.4684625 2
-6.0369549 -1.2600868 0.10764644 3
-1.991636 -0.41534877 -0.4696978 5
-6.1023831 -1.271521 0.32668105 11
-2.3563421 -0.49097845 -0.46786368 100
-6.2964373 -1.3108084 0.56267744 38
-2.8990417 -0.60300136 -0.46899059 6
-6.4351478 -1.3373423 0.80701888 7
-3.6229386 -0.75225389 -0.45432895 9
-11.477509 -2.3810558 1.8565645 30
-5.515059 -1.1441215 -0.49277857 9
-11.472847 -2.3780034 2.2774963 33
-5.8399043 -1.2093861 -0.31255037 14
-11.499536 -2.3793464 2.7111101 39
-5.7632437 -1.191414 -0.10272487 1
-11.468808 -2.3688142 3.1379223 32
-1.7182939 -0.35271528 -0.47001541 3
-6.0178099 -1.2341835 0.10722758 3
-1.9854375 -0.40682983 -0.46789822 5
-6.122438 -1.2534164 0.32751846 3
-2.3638117 -0.48393145 -0.46900854 100
-6.291214 -1.2868236 0.5618059 6
-2.9049993 -0.59366971 -0.46961632 6
-6.3775377 -1.302163 0.79921919 18
-3.7364097 -0.76221848 -0.46822205 4
-11.474135 -2.3386128 1.8546873 28
-5.5229235 -1.1256604 -0.4931272 9
-11.454145 -2.3324566 2.2721536 34
-5.8264761 -1.1854097 -0.31160831 15
-11.490583 -2.3356969 2.7070611 41
-5.771287 -1.1720853 -0.10279468 1
-11.463754 -2.3260767 3.1342988 31
-1.723302 -0.34747875 -0.47105068 3
-6.0220804 -1.2131712 0.10722758 3
-1.981114 -0.39874327 -0.4665485 5
-6.1346083 -1.2336123 0.32793713 6
-2.3539381 -0.47335497 -0.46671882 100
-6.3698955 -1.2797698 0.56842977 17
-2.9070539 -0.58352572 -0.46961632 6
-11.440578 -2.2943592 1.4326961 11
-3.8110642 -0.76360172 -0.47724038 4
-11.451238 -2.2923419 1.8496813 26
-5.53268 -1.107548 -0.49365011 9
-11.442966 -2.2886064 2.2683375 35
-5.8051171 -1.1599765 -0.3102476 13
-11.458535 -2.2875638 2.697613 37
-5.759655 -1.1488017 -0.10251543 1
-11.464225 -2.2845361 3.1322281 29
-1.7112391 -0.33883455 -0.46742722 2
-6.0223556 -1.1913666 0.10715777 3
-1.9901409 -0.39333677 -0.46834809 5
-6.311306 -1.2462389 0.33714828 10
-2.3536499 -0.46475488 -0.46633717 100
-6.5561118 -1.2933899 0.58464068 8
-2.9168258 -0.57490259 -0.47086781 7
-6.3864727 -1.2576077 0.79921919 7
-3.8214977 -0.75182664 -0.47821537 4
-11.433972 -2.2474027 1.845614 13
-5.542377 -1.0893811 -0.49417305 9
-11.431621 -2.2448657 2.2645214 35
-5.8208899 -1.1420141 -0.31087559 18
-11.437765 -2.2419264 2.6908646 39
-5.736156 -1.1233095 -0.10202677 1
-11.447482 -2.2396848 3.1254988 25
-1.704826 -0.33138463 -0.46535668 3
-6.0186262 -1.1688124 0.10701816 3
-2.0048933 -0.38898611 -0.47149745 5
-6.1822863 -1.198356 0.33003056 13
-2.355258 -0.4565362 -0.46633717 100
-6.5605869 -1.2704967 0.58464068 12
-2.9226937 -0.56546712 -0.47149354 6
-6.3849773 -1.2341769 0.79848802 9
-3.8182516 -0.73735332 -0.47748414 4
-7.5062828 -1.4481987 1.2108029 10
-5.5304961 -1.0670071 -0.49277857 9
-11.416254 -2.2004919 2.2599418 35
-5.8130736 -1.1194223 -0.3102476 13
-11.426384 -2.1983054 2.6863654 37
-5.7361145 -1.1025259 -0.10195696 1
-11.421082 -2.1931543 3.1161816 28
-1.7154604 -0.32724157 -0.46794486 3
-5.9990964 -1.1433052 0.1065993 3
-2.0043247 -0.38162035 -0.47104752 5
-6.3139663 -1.2010278 0.33683425 13
-2.3491228 -0.44684455 -0.46481073 100
-6.4631987 -1.2282472 0.57557648 22
-2.9052424 -0.55157769 -0.46836486 6
-11.405467 -2.1633339 1.4253839 7
-3.836405 -0.72697812 -0.47943404 4
-7.5112925 -1.4219897 1.2108029 15
-5.5322294 -1.0473262 -0.49260426 9
-11.385284 -2.1533308 2.2523096 34
-5.7855458 -1.0931894 -0.30857283 12
-11.416754 -2.1551557 2.6823163 38
-5.7399282 -1.0824963 -0.10195696 1
-11.398293 -2.1475477 3.1078992 33
-1.7127947 -0.32054114 -0.46690959 3
-5.9755321 -1.1172109 0.10611063 3
-1.9884039 -0.37140131 -0.46699843 5
-6.178721 -1.1529695 0.32940254 15
-2.3718975 -0.4426038 -0.46900854 100
-6.6828985 -1.2458422 0.59475076 10
-2.9149179 -0.5428797 -0.46961632 5
-11.379773 -2.1173379 1.4212404 21
-3.8272095 -0.71140444 -0.47797161 4
-7.5259213 -1.3975649 1.2123673 9
-5.5456457 -1.0298274 -0.49347579 9
-11.365707 -2.108562 2.2469668 33
-5.7814708 -1.0715326 -0.30815417 12
-11.405046 -2.1117423 2.6778173 39
-5.7436719 -1.0624535 -0.10195696 1
-11.384823 -2.103888 3.1022053 34
-1.7329041 -0.31804773 -0.47208595 3
-5.9793959 -1.0963454 0.10611063 3
-1.9992723 -0.36621419 -0.46924794 5
-6.0862465 -1.1148405 0.32427362 13
-2.3657031 -0.432908 -0.46748206 100
-6.7969613 -1.2425712 0.60451221 16
-2.9284546 -0.53483146 -0.47149354 5
-7.3837428 -1.3471792 0.92157602 4
-3.8140461 -0.69519281 -0.47602168 4
-7.5363445 -1.3736627 1.2133058 7
-5.5550871 -1.0115337 -0.49399874 9
-11.365272 -2.0674694 2.2454405 33
-5.7556996 -1.0459881 -0.30658406 13
-11.379752 -2.0660005 2.6701691 39
-5.7392931 -1.0419719 -0.10181734 1
-11.372728 -2.062675 3.0970287 31
-1.7359052 -0.31233847 -0.47260359 2
-5.9633179 -1.0729697 0.10576159 3
-2.0004756 -0.35958228 -0.46924794 6
-6.3928366 -1.1479504 0.3403931 8
-2.3594704 -0.42326027 -0.46595559 100
-6.6090651 -1.1843953 0.5874297 18
-2.9263234 -0.52441972 -0.47086781 5
-7.3569045 -1.3170906 0.91767621 8
-3.8163307 -0.68254107 -0.47602168 4
-7.4399753 -1.3292807 1.1970366 12
-5.5625072 -0.99283814 -0.49434736 9
-11.356604 -2.0270121 2.2423875 33
-5.7630696 -1.0275968 -0.30679342 11
-11.359681 -2.0234675 2.6638706 41
-5.6641445 -1.007918 -0.10042115 1
-11.358936 -2.0192447 3.0913348 30
-1.7064921 -0.30120793 -0.46432137 2
-5.9591494 -1.0507596 0.10562197 3
-2.0074763 -0.35361126 -0.47059759 5
-6.7882457 -1.1945088 0.3612228 19
-2.3608608 -0.41543415 -0.46595559 100
-6.5462384 -1.150744 0.58150309 21
-2.9242449 -0.51351905 -0.47024205 5
-7.205039 -1.2639601 0.89817715 9
-3.8245554 -0.67024326 -0.47675291 4
-7.3356056 -1.2842278 1.1795161 12
-5.5422182 -0.97026354 -0.49225563 9
-11.332667 -1.9819432 2.2362814 35
-5.7430115 -1.0033488 -0.30553734 11
-11.337878 -1.9787791 2.6571219 42
-5.6833887 -0.99088794 -0.10070039 1
-11.335465 -1.9742785 3.0830526 30
-1.7227621 -0.29788208 -0.4684625 2
-5.9312525 -1.0245057 0.10506349 3
-2.0067782 -0.34627032 -0.47014773 5
-6.7628503 -1.1657152 0.35965273 28
-2.3661661 -0.407857 -0.46671882 100
-2.929913 -0.50397801 -0.47086781 5
-11.345279 -1.9494742 1.4134407 5
-3.8386106 -0.65890485 -0.47821537 4
-7.3595133 -1.2619523 1.1826447 12
-5.5416431 -0.95023805 -0.49190697 9
-11.312426 -1.9377319 2.2309389 35
-5.7405729 -0.98228639 -0.30522332 10
-11.340876 -1.9385309 2.6562221 39
-5.6513319 -0.96498448 -0.1000721 1
-11.323243 -1.931452 3.0778761 23
-1.73522 -0.29380211 -0.47156835 2
-5.9308491 -1.0031284 0.10499368 3
-1.9983673 -0.33763942 -0.46789822 5
-6.739306 -1.1374491 0.35818732 13
-2.3637035 -0.39894208 -0.46595559 100
-6.235837 -1.0513552 0.55326468 22
-2.9180188 -0.49145037 -0.4686777 5
-7.350718 -1.2366844 0.91523886 6
-3.8408873 -0.64550143 -0.47821537 4
-7.3989401 -1.2421399 1.1882763 6
-5.5372295 -0.92860228 -0.49120975 9
-11.303631 -1.8956372 2.227886 43
-5.7262387 -0.95927209 -0.30428126 12
-11.32451 -1.8950721 2.6508231 45
-5.6901674 -0.95118761 -0.10070039 1
-11.308957 -1.8884146 3.0721822 22
-1.7400968 -0.28807163 -0.47260359 2
-5.9145861 -0.979155 0.10464463 3
-1.9995337 -0.33066219 -0.46789822 4
-6.5067692 -1.0748556 0.34562668 33
-2.3728983 -0.3915545 -0.46748206 100
-6.0882769 -1.0035417 0.53984267 8
-2.9334445 -0.48299915 -0.47086781 5
-7.3667421 -1.212953 0.91670126 13
-3.8235295 -0.62886763 -0.47577798 4
-7.4129767 -1.2179083 1.1898407 6
-5.5561662 -0.91184932 -0.49260426 9
-11.277567 -1.8487922 2.2213984 33
-5.7178893 -0.93634111 -0.30365324 12
-11.294838 -1.8475783 2.6422751 34
-5.6658244 -0.92679983 -0.10021172 1
-11.296414 -1.8458091 3.0670059 26
-1.7258358 -0.27952442 -0.4684625 2
-5.9299793 -0.9593851 0.10485406 3
-2.0122747 -0.32519665 -0.47059759 4
-2.3606834 -0.38107902 -0.46481073 100
-6.0878086 -0.98164898 0.53949404 17
-2.9390132 -0.47338474 -0.47149354 5
-7.1947489 -1.1575649 0.89476484 7
-3.8179688 -0.61359036 -0.474803 4
-11.267175 -1.8107612 1.8074441 20
-5.5553808 -0.89181739 -0.49225563 9
-11.27426 -1.8078632 2.2194905 34
-5.7171793 -0.91574436 -0.30344391 12
-11.280052 -1.804751 2.6373262 26
-5.6413813 -0.90259236 -0.099723049 1
-11.281805 -1.803015 3.061312 30
-1.7306172 -0.27410281 -0.46949777 2
-5.9015269 -0.93470991 0.10429558 3
-2.0210414 -0.31973991 -0.47239724 4
-6.028811 -0.95271415 0.31987742 10
-2.36006 -0.37253019 -0.46442911 100
-6.0459323 -0.95325547 0.53548485 23
-2.9405668 -0.46363592 -0.47149354 5
-11.273345 -1.7754395 1.4012538 7
-3.8317485 -0.60277689 -0.47626543 5
-7.5266757 -1.1826843 1.2067356 6
-5.5427136 -0.86994845 -0.49086115 9
-11.305407 -1.7744235 2.2244515 20
-5.7122922 -0.89554304 -0.30302522 12
-11.336032 -1.7751763 2.6490238 22
-5.6444974 -0.88289595 -0.099723049 1
-11.247947 -1.7573602 3.0504413 31
-1.7219714 -0.2668829 -0.46690959 3
-5.8928967 -0.91226828 0.10408615 3
-2.0144415 -0.31149244 -0.47059759 4
-5.9511719 -0.91916281 0.31558585 2
-2.3690434 -0.36590046 -0.46595559 6
-6.0451221 -0.93259341 0.53513628 25
-2.9304528 -0.45156413 -0.46961632 5
-11.253968 -1.7321515 1.3980851 21
-3.8338292 -0.58939785 -0.47626543 4
-7.4975657 -1.1513088 1.2014169 17
-5.5416293 -0.85095972 -0.49051252 10
-11.328997 -1.7376277 2.227886 70
-5.7193313 -0.87620252 -0.30323455 12
-11.346011 -1.7361844 2.6499236 53
-5.6001029 -0.85593629 -0.098885335 1
-11.233006 -1.7148796 3.0447474 29
-1.7381729 -0.2631841 -0.47105068 3
-5.8189335 -0.88003194 0.10272487 4
-2.0039556 -0.30271187 -0.46789822 3
-6.1656594 -0.93026662 0.32678574 17
-2.381954 -0.35938612 -0.46824533 6
-6.0109081 -0.90584648 0.53182435 27
-2.9281049 -0.44074339 -0.46899059 5
-11.246204 -1.6907909 1.396379 5
-3.8280106 -0.57483333 -0.47529048 5
-7.4820042 -1.1221983 1.1982881 15
-5.5603285 -0.83397323 -0.49190697 13
-11.364116 -1.7024342 2.2336102 61
-5.7085285 -0.85416538 -0.30250186 14
-11.400187 -1.7037694 2.661171 50
-5.6030564 -0.83638293 -0.098885335 1
-11.219815 -1.6728121 3.039571 30
-1.739081 -0.25711551 -0.47105068 3
-5.812079 -0.85825396 0.10255034 14
-2.0088556 -0.29628354 -0.46879801 3
-6.0088181 -0.88516283 0.31830731 5
-2.3793092 -0.35049757 -0.46748206 6
-5.9726391 -0.87876832 0.52816379 17
-2.9433062 -0.43253005 -0.47118065 6
-7.0116558 -1.0291411 0.87014717 8
-3.8123171 -0.55887514 -0.47309685 4
-7.4995575 -1.0980774 1.2004782 9
-5.5671492 -0.81513619 -0.49225563 12
-13.613683 -1.9908779 2.6743791 23
-5.7035704 -0.83307755 -0.30208316 12
-12.81953 -1.8701671 2.9909492 16
-5.594069 -0.81509072 -0.098675907 1
-11.21794 -1.6325217 3.0375006 29
-1.7323197 -0.2499399 -0.4689801 3
-5.8031645 -0.83624798 0.10234091 26
-2.0137353 -0.28982517 -0.4696978 4
-5.8991857 -0.84798449 0.31234103 16
-2.3688588 -0.340514 -0.46519238 6
-6.0091972 -0.86272639 0.5311271 10
-2.950664 -0.42309511 -0.47211927 6
-7.0132408 -1.0043781 0.86990345 16
-3.8221054 -0.5466885 -0.47407177 4
-11.207107 -1.6009969 1.7930521 12
-5.5719323 -0.79598123 -0.49242991 9
-13.700236 -1.9547143 2.6900253 39
-5.6787615 -0.80921847 -0.30061778 12
-12.818262 -1.8243115 2.9891498 22
-5.5889616 -0.79443169 -0.09853629 1
-11.208268 -1.5911813 3.0333593 24
-1.7255298 -0.24281465 -0.46690959 3
-5.8555536 -0.82294488 0.10321353 3
-2.0243838 -0.28414848 -0.47194731 3
-5.9001317 -0.82710987 0.31223634 15
-2.3700328 -0.33224303 -0.46519238 100
-6.3594446 -0.89036703 0.5618059 15
-2.946254 -0.41197205 -0.47118065 6
-7.0285001 -0.98153657 0.8713659 27
-3.8298883 -0.53416693 -0.474803 4
-11.17741 -1.5569612 1.7874204 33
-5.5450768 -0.77240342 -0.48981526 9
-11.311317 -1.5735989 2.219872 21
-5.6795731 -0.78911728 -0.30051309 11
-11.3151 -1.5701019 2.6373262 48
-5.587739 -0.77436858 -0.098466478 1
-11.173568 -1.5464877 3.0224888 23
-1.7263669 -0.2367899 -0.46690959 3
-5.84056 -0.80005747 0.10289939 3
-2.0234327 -0.27681616 -0.47149745 4
-5.899025 -0.80596864 0.31202701 21
-2.3731232 -0.32423374 -0.46557397 100
-6.4454265 -0.87947619 0.56912696 22
-2.9378877 -0.40035146 -0.46961632 6
-7.0181141 -0.95512408 0.86965966 13
-3.8474658 -0.5229336 -0.47675291 5
-11.163202 -1.5152779 1.7842916 33
-5.5516877 -0.75357854 -0.49016386 9
-11.289506 -1.5304157 2.2145293 73
-5.6743765 -0.76821506 -0.3000944 12
-11.310856 -1.5292867 2.6350768 52
-5.6062617 -0.75699955 -0.098745719 1
-11.155924 -1.504377 3.0162773 26
-1.7348422 -0.23178555 -0.4689801 3
-5.8353891 -0.77860719 0.10275977 3
-2.0127966 -0.26820692 -0.46879801 4
-5.8562675 -0.77931267 0.30961955 26
-2.3761866 -0.31620693 -0.46595559 100
-6.0791278 -0.80788964 0.53653073 8
-2.9314346 -0.38905433 -0.46836486 6
-6.928915 -0.91836154 0.85820401 11
-3.8492677 -0.50950015 -0.47675291 5
-11.146882 -1.473454 1.7808502 33
-5.570086 -0.73628354 -0.49155837 9
-11.316189 -1.4938245 2.2187271 10
-5.6493015 -0.74474835 -0.29862899 14
-5.5890431 -0.73481995 -0.098396674 3
-11.153447 -1.4644202 3.0142069 31
-1.7375565 -0.22597753 -0.46949777 4
-5.834105 -0.75771922 0.10268996 3
-2.0098555 -0.26067796 -0.46789822 5
-5.8450871 -0.75706965 0.30888686 10
-2.38117 -0.30841482 -0.46671882 6
-5.902101 -0.76340842 0.52066839 12
-2.9347336 -0.37907228 -0.4686777 7
-6.908453 -0.89112192 0.85527909 14
-3.8392096 -0.49453878 -0.47529048 5
-11.132365 -1.4320145 1.7777214 34
-5.5666943 -0.7160731 -0.49103546 9
-11.30965 -1.4528134 2.2164373 4
-5.6419616 -0.72375196 -0.29810563 13
-11.309658 -1.4488018 2.6323771 4
-5.5995088 -0.71632093 -0.09853629 3
-11.143159 -1.4235169 3.0100656 31
-1.7498341 -0.22136606 -0.47260359 3
-5.8446498 -0.73835081 0.10282958 3
-2.0184867 -0.25463623 -0.4696978 5
-5.6772766 -0.71519482 0.29988506 26
-2.3705447 -0.29862931 -0.46442911 100
-5.5014606 -0.69206977 0.48510888 15
-2.9458389 -0.37005681 -0.47024205 7
-6.960763 -0.87317997 0.86137259 9
-3.8547006 -0.48286152 -0.47699666 5
-11.109855 -1.3897136 1.7733413 34
-5.567183 -0.69638985 -0.49086115 9
-11.299067 -1.411382 2.2133844 5
-5.6345444 -0.70281863 -0.29758227 13
-11.303044 -1.4078695 2.6296778 4
-5.5662551 -0.69232631 -0.097907998 1
-11.125056 -1.3817565 3.003854 31
-1.7237524 -0.21195586 -0.46535668 2
-5.8392525 -0.71696967 0.10268996 3
-2.0309689 -0.2490122 -0.47239724 4
-5.594492 -0.68493617 0.29538417 30
-2.3793674 -0.29130703 -0.46595559 6
-5.4820886 -0.67020208 0.48319143 11
-2.9373085 -0.3585754 -0.4686777 8
-7.0485005 -0.85920393 0.87185335 10
-3.8445392 -0.46796387 -0.47553423 5
-11.089145 -1.3478285 1.769274 32
-5.5458455 -0.67406899 -0.48876941 9
-11.270794 -1.3679082 2.206897 5
-5.6409283 -0.68362647 -0.2977916 13
-11.276937 -1.3646597 2.6224794 6
-5.5527563 -0.67097431 -0.097628765 1
-11.099124 -1.3392112 2.9955716 31
-1.7321546 -0.20685337 -0.46742722 2
-5.8020072 -0.69184834 0.10199186 3
-2.0202153 -0.24053881 -0.4696978 4
-5.7713795 -0.68615174 0.30459529 11
-2.3803699 -0.28299907 -0.46595559 6
-5.5101147 -0.65411645 0.48545748 11
-2.9208877 -0.34622735 -0.46586189 8
-11.098603 -1.3136058 1.3722489 21
-3.8560061 -0.4557068 -0.47675291 4
-11.083974 -1.3079542 1.7677096 34
-5.5639939 -0.65657401 -0.49016386 9
-11.256002 -1.3262599 2.2030807 5
-5.6313796 -0.6625315 -0.29716361 14
-11.262276 -1.3230135 2.6179802 4
-5.543148 -0.65018958 -0.097419336 1
-11.084544 -1.2982125 2.9903955 31
-1.732866 -0.20080614 -0.46742722 1
-5.7884951 -0.66975242 0.10171262 3
-2.0152349 -0.232814 -0.46834809 3
-5.7856436 -0.6673761 0.30522332 32
-2.3910949 -0.27581367 -0.46786368 6
-5.4510064 -0.62781161 0.48005384 9
-2.9044163 -0.33399755 -0.46304604 8
-7.4783363 -0.85866153 0.92425722 6
-3.8496847 -0.44133955 -0.47577798 4
-11.074734 -1.2676803 1.7655195 33
-5.5622935 -0.63669342 -0.48981526 9
-11.229355 -1.2833937 2.196975 5
-5.6078601 -0.63992769 -0.29580286 13
-11.255209 -1.2823689 2.6152809 4
-5.5533314 -0.63174039 -0.097558953 1
-11.069812 -1.2573344 2.985219 32
-1.7335565 -0.19475605 -0.46742722 2
-5.8166313 -0.65244025 0.10216638 13
-2.0024791 -0.22426033 -0.46519879 4
-5.5973887 -0.62587005 0.29517484 28
-2.3861897 -0.26681095 -0.46671882 6
-5.4749455 -0.61121166 0.48197123 15
-2.9055645 -0.32385713 -0.46304604 11
-11.089746 -1.2341175 1.3700553 4
-3.8275263 -0.42526743 -0.47285309 5
-11.065349 -1.2274898 1.7633295 29
-5.572403 -0.61815202 -0.49051252 9
-11.220107 -1.2426778 2.1943038 5
-5.5961642 -0.61881065 -0.29507017 12
-11.236373 -1.2405065 2.6098821 6
-5.5674286 -0.61366749 -0.097768381 1
-11.064532 -1.2176263 2.9826307 30
-1.7380668 -0.1891215 -0.4684625 2
-5.7970052 -0.62975669 0.10178243 3
-2.0168111 -0.21873981 -0.46834809 5
-5.5975542 -0.60611254 0.29507017 30
-2.367588 -0.2563664 -0.46290264 6
-5.4136586 -0.58524287 0.47639325 6
-2.8909657 -0.31201777 -0.46054313 12
