# .PCD v0.7 - Point Cloud Data file format
VERSION 0.7
FIELDS x y z rgba
SIZE 4 4 4 4
TYPE F F F U
COUNT 1 1 1 1
WIDTH 353
HEIGHT 1
VIEWPOINT 0 0 0 1 0 0 0
POINTS 353
DATA ascii
4.6916919 -1.8898536 0.62104625 0
4.6758728 -1.9024788 0.61982757 0
4.6636953 -1.9165254 0.61909634 0
4.6719828 -1.9380652 0.62104625 0
4.6820102 -1.9604477 0.62323987 0
4.6434612 -1.9614749 0.44100806 0
4.6714811 -1.9752327 0.62275237 0
4.6494145 -1.9831433 0.44222823 0
4.6554294 -1.9876298 0.62153369 0
4.638804 -1.9977845 0.4418796 0
4.6539321 -2.0062258 0.62226492 0
4.7011924 -2.0285451 0.8109563 0
4.6318021 -2.0139649 0.4418796 0
4.6541815 -2.0256276 0.62323987 0
4.6817622 -2.0386035 0.80876625 0
4.6247439 -2.0301204 0.4418796 0
4.6601615 -2.0466378 0.62494606 0
4.6764259 -2.0557287 0.80907917 0
4.6216297 -2.0470593 0.44222823 0
4.6511741 -2.0620878 0.62470233 0
4.6710272 -2.0728409 0.80939204 0
4.6268268 -2.0696797 0.44344842 0
4.6399612 -2.0774989 0.62421483 0
4.6796222 -2.097218 0.81220788 0
4.6373677 -2.094826 0.44519153 0
4.6395507 -2.0977626 0.62518978 0
4.6719041 -2.1143558 0.81220788 0
4.6300268 -2.1110008 0.44519153 0
4.6394234 -2.1172414 0.62616473 0
4.6644955 -2.1306508 0.81220788 0
4.6063404 -2.1196539 0.44362271 0
4.6464291 -2.1400669 0.62811464 0
4.6570296 -2.14692 0.81220788 0
4.7047367 -2.1699092 1.00709 0
4.6097555 -2.1407554 0.44466859 0
4.6425314 -2.1579466 0.62860215 0
4.660253 -2.1681623 0.81408507 0
4.6900148 -2.1830049 1.0055635 0
4.6156378 -2.1611404 0.44588876 0
4.6321335 -2.1708357 0.62811464 0
4.6587834 -2.1853089 0.8150236 0
4.670692 -2.1918895 1.0028921 0
4.6152716 -2.1806433 0.44658601 0
4.6227336 -2.1861434 0.62787092 0
4.6546979 -2.2032483 0.81564939 0
4.6736588 -2.2132215 1.0051818 0
4.6094303 -2.197598 0.44676036 0
4.6311979 -2.2099602 0.63006455 0
4.645196 -2.218631 0.81533653 0
4.6765327 -2.2346005 1.0074716 0
4.5791659 -2.2018352 0.26628536 0
4.597754 -2.2127495 0.4464117 0
4.6270332 -2.2278352 0.63055205 0
4.6427622 -2.2374053 0.81627518 0
4.6683111 -2.2517259 1.0074716 0
4.5971708 -2.2322662 0.44710895 0
4.622407 -2.2465146 0.63103956 0
4.6491356 -2.2605081 0.8187781 0
4.6639538 -2.269726 1.0082349 0
4.5676603 -2.234709 0.26649469 0
4.5986905 -2.2518802 0.44798052 0
4.6113672 -2.2600834 0.63055205 0
4.6522565 -2.2811308 0.82065529 0
4.6493511 -2.2817199 1.0067083 0
4.5598321 -2.2506392 0.26649469 0
4.6019168 -2.2724104 0.44902641 0
4.6074061 -2.2771218 0.63103956 0
4.6531177 -2.3017354 0.82221961 0
4.6554341 -2.3049042 1.0097612 0
4.6869755 -2.3215389 1.2075372 0
4.55334 -2.2682273 0.26659939 0
4.6006899 -2.2928166 0.44972363 0
4.6132398 -2.3010821 0.63298941 0
4.626977 -2.3099511 0.8190909 0
4.6627607 -2.3298492 1.0131959 0
4.6871505 -2.3430586 1.2097868 0
4.563241 -2.2930758 0.2676461 0
4.5869155 -2.306978 0.44920069 0
4.6118679 -2.3215451 0.63396436 0
4.6241784 -2.3287537 0.82002956 0
4.651093 -2.3443439 1.0124326 0
4.6820111 -2.3619776 1.2106866 0
4.5516458 -2.3071842 0.26743674 0
4.5806112 -2.3238766 0.449375 0
4.6059141 -2.3377244 0.63420814 0
4.6301107 -2.3520384 0.82253253 0
4.6397934 -2.3579757 1.0116693 0
4.6880484 -2.3845587 1.2142857 0
4.5581975 -2.3295367 0.26827416 0
4.5799747 -2.3426828 0.45007223 0
4.5906577 -2.3501692 0.63323313 0
4.6398673 -2.376384 0.82566124 0
4.6385221 -2.3777394 1.0131959 0
4.676228 -2.3991292 1.2133859 0
4.5447121 -2.3426881 0.26796013 0
4.5806227 -2.3632231 0.4509438 0
4.5934229 -2.3708422 0.63469559 0
4.6245241 -2.3889396 0.82440978 0
4.6410766 -2.3985164 1.0154855 0
4.6647849 -2.4128325 1.2124861 0
4.5418234 -2.3613019 0.26827416 0
4.5709934 -2.377481 0.45076951 0
4.5956841 -2.3923616 0.63615805 0
4.6196604 -2.4068928 0.82503545 0
4.6431217 -2.4201469 1.0177752 0
4.6649728 -2.4336078 1.2147356 0
4.5441666 -2.3827062 0.26890215 0
4.5644307 -2.3943477 0.4509438 0
4.5908203 -2.4102347 0.63664556 0
4.6112309 -2.4230039 0.82503545 0
4.6346459 -2.4363399 1.0177752 0
4.6702471 -2.4571357 1.2183349 0
4.5446491 -2.4032221 0.26942554 0
4.5595675 -2.4121292 0.45129246 0
4.5876417 -2.4290311 0.63737667 0
4.6132178 -2.4446349 0.8269127 0
4.6313162 -2.4552615 1.0189201 0
4.6771345 -2.481643 1.2223841 0
4.5379953 -2.420011 0.26953021 0
4.561667 -2.4336574 0.45233828 0
4.577384 -2.4440956 0.63713294 0
4.6116247 -2.464447 0.82816416 0
4.6209869 -2.4704874 1.0185385 0
4.6667247 -2.497035 1.2219341 0
4.5264273 -2.4331551 0.26932088 0
4.5619173 -2.4542856 0.45320985 0
4.5670772 -2.4591174 0.63688928 0
4.6138616 -2.4853473 0.83004135 0
4.6261597 -2.4940557 1.0215914 0
4.6528349 -2.5105331 1.2205844 0
4.504931 -2.439873 0.08942613 0
4.5266852 -2.4536994 0.2698442 0
4.5568252 -2.472095 0.4535585 0
4.576344 -2.4837179 0.63932663 0
4.6016865 -2.499552 0.82941562 0
4.6247644 -2.5131323 1.0231179 0
4.6530442 -2.5306044 1.222834 0
4.5251031 -2.4733169 0.2702629 0
4.5433578 -2.4843247 0.45303556 0
4.5746117 -2.503489 0.64030159 0
4.5929332 -2.5155995 0.82941562 0
4.6211281 -2.5320907 1.0242627 0
4.6561432 -2.55339 1.2259833 0
4.491291 -2.4731927 0.089495942 0
4.5269375 -2.4948816 0.27089092 0
4.5364032 -2.5011306 0.45320985 0
4.5710592 -2.5223193 0.64103281 0
4.5979581 -2.5392563 0.8319186 0
4.6105433 -2.5472569 1.0238811 0
4.6574335 -2.5752857 1.2286826 0
4.4826307 -2.4888554 0.089495942 0
4.5269303 -2.5155191 0.27141431 0
4.5380931 -2.5227587 0.45425573 0
4.5552878 -2.5343997 0.64005786 0
4.5925179 -2.5572124 0.83254427 0
4.6016235 -2.5633349 1.0238811 0
4.6433101 -2.5886805 1.2273329 0
4.484385 -2.5103481 0.08970537 0
4.5059247 -2.5244722 0.27068159 0
4.5375051 -2.5442469 0.45512727 0
4.5533385 -2.5541697 0.64103281 0
4.5904541 -2.577096 0.83379585 0
4.6007557 -2.5849922 1.0257893 0
4.6185031 -2.5970852 1.2232838 0
4.4821191 -2.5307002 0.089844987 0
4.5001192 -2.5429354 0.27089092 0
4.5337996 -2.5630116 0.45565021 0
4.5508575 -2.5747514 0.64200777 0
4.5809774 -2.5939038 0.83379585 0
4.60537 -2.608777 1.0288421 0
4.6111045 -2.6141522 1.2237337 0
4.7294674 -2.6823456 -0.094906189 0
4.4802094 -2.550287 0.089984603 0
4.5016279 -2.5645602 0.27151898 0
4.5226445 -2.5786247 0.4554759 0
4.5590858 -2.6004565 0.64444512 0
4.5753255 -2.6118369 0.83442152 0
4.5991869 -2.6275871 1.0296054 0
4.6234846 -2.64361 1.2295824 0
4.7218113 -2.699831 -0.094941087 0
4.4699931 -2.5641351 0.089949705 0
4.5121517 -2.5904124 0.27267036 0
4.5231595 -2.5977814 0.45634744 0
4.5573215 -2.619518 0.64542013 0
4.5786252 -2.6338897 0.83661157 0
4.5875058 -2.640064 1.0288421 0
4.4627466 -2.5807235 0.089984603 0
4.4978967 -2.6031458 0.27235636 0
4.5209618 -2.6175482 0.45704472 0
4.5378447 -2.6294382 0.64395767 0
4.5779481 -2.6548111 0.83817595 0
4.5782623 -2.6560614 1.0288421 0
4.4588938 -2.5993071 0.090089321 0
4.4892397 -2.6180472 0.27235636 0
4.5272837 -2.6423519 0.45861349 0
4.5337806 -2.6482661 0.6446889 0
4.5725303 -2.6719708 0.83880174 0
4.5842156 -2.6809461 1.0322767 0
4.4657679 -2.6231945 0.090403467 0
4.487421 -2.6369669 0.27277502 0
4.5184965 -2.6573505 0.45861349 0
4.5369492 -2.6703346 0.64639509 0
4.5653467 -2.6881213 0.83911461 0
4.5820656 -2.7001204 1.0338032 0
4.4656482 -2.6430812 0.09057799 0
4.4936538 -2.6617756 0.27371708 0
4.5028033 -2.6682568 0.45791626 0
4.541728 -2.6934655 0.64834493 0
4.5576339 -2.7050493 0.83942741 0
4.5793643 -2.7201085 1.0353296 0
4.4507799 -2.6563566 0.090473272 0
4.4975858 -2.6864214 0.27455446 0
4.5015454 -2.6898525 0.45878783 0
4.5318255 -2.7100935 0.64834493 0
4.5578589 -2.7278225 0.84130466 0
4.5693641 -2.7368746 1.0353296 0
4.4478679 -2.6767766 0.090612896 0
4.4859986 -2.7018576 0.2744498 0
4.5036016 -2.713531 0.46000803 0
4.5252624 -2.7287357 0.64883244 0
4.5579782 -2.7506332 0.84318191 0
4.5631442 -2.7548375 1.0360929 0
4.4555941 -2.702657 0.090961948 0
4.4714179 -2.7143908 0.27413577 0
4.5077262 -2.7375088 0.46140248 0
4.5191021 -2.7465768 0.64931989 0
4.551724 -2.7685797 0.84380758 0
4.5602083 -2.7748311 1.0376194 0
4.4743056 -2.7257712 -0.091450609 0
4.4478393 -2.7192364 0.090996847 0
4.467504 -2.7323298 0.2744498 0
4.5015416 -2.7553072 0.46175113 0
4.5230293 -2.7706301 0.65126985 0
4.5391498 -2.7815945 0.84318191 0
4.5622101 -2.7979169 1.0402907 0
4.4124093 -2.7081668 -0.090368561 0
4.4473109 -2.7392147 0.091171376 0
4.482224 -2.7617979 0.27591521 0
4.4889884 -2.7681282 0.46140248 0
4.5171952 -2.7876987 0.6517573 0
4.5349436 -2.7997446 0.8441205 0
4.5562472 -2.8150945 1.0410539 0
4.400003 -2.7206807 -0.09029875 0
4.4399014 -2.7550018 0.091206275 0
4.4759493 -2.7795339 0.27612451 0
4.4950156 -2.7924614 0.4629713 0
4.5180411 -2.8089514 0.6532197 0
4.5352063 -2.8218191 0.84599775 0
4.5902224 -2.8571618 1.050976 0
4.4091477 -2.7476563 -0.0906827 0
4.4268665 -2.7683625 0.091136463 0
4.4729919 -2.7993796 0.27654323 0
4.4886184 -2.8102496 0.46331993 0
4.5115733 -2.8268137 0.65370721 0
4.5320225 -2.8418303 0.84724921 0
4.7182598 -2.9597585 1.0826503 0
4.4130764 -2.771539 -0.090961948 0
4.4324021 -2.7933936 0.091450609 0
4.4581251 -2.8117795 0.2762292 0
4.4872065 -2.8312163 0.46419147 0
4.4999995 -2.8414848 0.65346348 0
4.5320945 -2.8639641 0.8491264 0
4.7278132 -2.9887991 1.0872297 0
4.4135141 -2.7933431 -0.091171376 0
4.4378171 -2.8184977 0.091764756 0
4.4533401 -2.830538 0.27654323 0
4.4840212 -2.8511384 0.46488872 0
4.500102 -2.8635695 0.65492588 0
4.5204039 -2.8787053 0.84881347 0
4.7355652 -3.0168879 1.0914276 0
4.3969922 -2.8044305 -0.091031753 0
4.4296355 -2.8350492 0.091799662 0
4.4518409 -2.8514521 0.27706659 0
4.4690089 -2.8635483 0.46436578 0
4.5034471 -2.8878326 0.65687585 0
4.5103273 -2.8944671 0.84881347 0
4.3905406 -2.8219247 -0.091101564 0
4.4247537 -2.8537455 0.091904372 0
4.4619975 -2.879972 0.27832264 0
4.4673548 -2.8845346 0.46523735 0
4.5000086 -2.9078448 0.65785074 0
4.5167842 -2.9209206 0.85194218 0
4.3873768 -2.8415813 -0.091241181 0
4.4197955 -2.872443 0.09200909 0
4.4524226 -2.8947527 0.27832264 0
4.4706192 -2.9088037 0.46663183 0
4.4865036 -2.9213686 0.6573633 0
4.5136938 -2.9401953 0.8531937 0
4.3997025 -2.8703189 -0.091694944 0
4.4253039 -2.8969409 0.092323236 0
4.4406204 -2.9091825 0.27821797 0
4.4737682 -2.9331307 0.46802634 0
4.4834313 -2.9405854 0.65833825 0
4.5215688 -2.9678564 0.85663521 0
4.4268494 -2.9200783 0.092567563 0
4.4387722 -2.9301667 0.27874133 0
4.4673419 -2.9501457 0.46837494 0
4.4814196 -2.9616899 0.65955693 0
4.4980001 -2.9749041 0.85413224 0
4.4166293 -2.935513 0.092567563 0
4.4434843 -2.9555986 0.27968338 0
4.4570165 -2.9657218 0.46837494 0
4.4809685 -2.9839165 0.66101938 0
4.494164 -2.9949689 0.85538375 0
4.4030323 -2.9486861 0.092497751 0
4.4347992 -2.972203 0.27978805 0
4.4466372 -2.981262 0.46837494 0
4.4837122 -3.008388 0.66296923 0
4.4935217 -3.0172455 0.857261 0
4.4010015 -2.9696302 0.092672281 0
4.4392943 -2.997725 0.2807301 0
4.4510622 -3.0068028 0.46994376 0
4.4633164 -3.0173502 0.66150689 0
4.4976873 -3.0428739 0.86007679 0
4.4021845 -2.9928448 0.092916615 0
4.4255004 -3.0109556 0.28052074 0
4.4520693 -3.0301688 0.47116393 0
4.4658818 -3.0418513 0.66345674 0
4.4935675 -3.0630057 0.86132824 0
4.4016094 -3.0149736 0.093126044 0
4.4133162 -3.0252557 0.28041607 0
4.4496808 -3.0513248 0.4720355 0
4.4617834 -3.0619147 0.66443169 0
4.477963 -3.0753179 0.86038971 0
4.4142327 -3.0485878 0.28114879 0
4.4324455 -3.0623088 0.47133827 0
4.4706626 -3.0910182 0.66735661 0
4.415041 -3.0719626 0.28188148 0
4.4282703 -3.082315 0.4720355 0
4.4598455 -3.1066051 0.66735661 0
4.421186 -3.0980482 0.2829282 0
4.4305339 -3.1069052 0.47342998 0
4.4424748 -3.1175921 0.66638166 0
4.3972917 -3.1042471 0.28209084 0
4.4310532 -3.130399 0.47465014 0
4.4483228 -3.1437635 0.66881901 0
4.394567 -3.1253655 0.28261417 0
4.4352584 -3.1554708 0.47621897 0
4.440556 -3.1615748 0.66930646 0
4.4193592 -3.1674514 0.47569603 0
4.4488502 -3.1909397 0.67223138 0
4.4115067 -3.1851912 0.47604465 0
4.4409027 -3.208775 0.67271888 0
4.4100285 -3.2076025 0.47709054 0
4.426465 -3.2219207 0.67223138 0
4.4068403 -3.2288644 0.47796208 0
4.4215946 -3.2420475 0.67320627 0
4.4067645 -3.2525098 0.47918224 0
4.4214282 -3.2657177 0.67491245 0
4.3953843 -3.2678728 0.47918224 0
4.4338918 -3.2989058 0.67856854 0
4.4223495 -3.3143625 0.67856854 0
4.4060001 -3.3261912 0.67783737 0
