# .PCD v0.7 - Point Cloud Data file format
VERSION 0.7
FIELDS x y z intensity
SIZE 4 4 4 4
TYPE F F F F
COUNT 1 1 1 1
WIDTH 1380
HEIGHT 1
VIEWPOINT 0 0 0 1 0 0 0
POINTS 1380
DATA ascii
12.892408 -3.6530449 0.23389715 45
1.8692102 -0.52999043 -0.4485524 6
12.900404 -3.6601756 0.70276725 55
2.1795657 -0.61839873 -0.44038719 81
12.90473 -3.6638362 1.1736392 59
2.6203465 -0.74444789 -0.43144631 4
12.89247 -3.6652193 1.6457237 50
3.3489738 -0.95271653 -0.42751768 3
12.886994 -3.668525 2.1221902 52
4.5032077 -1.2819227 -0.409632 3
12.899793 -3.674602 2.6072142 59
6.9800091 -1.9896251 -0.38037777 5
12.911842 -3.6829083 3.0998256 45
12.748845 -3.6388218 -0.23141891 21
12.56833 -3.5896711 3.5023394 3
1.6173792 -0.46408156 -0.4508628 8
12.958382 -3.7206521 0.23532824 19
1.8523651 -0.53220689 -0.44495317 6
12.970089 -3.728914 0.70726818 28
2.1830542 -0.62763035 -0.44153205 82
12.960793 -3.7286906 1.1799145 20
2.6158338 -0.75304371 -0.43113342 4
12.942546 -3.7283337 1.6537671 18
3.3379979 -0.96220154 -0.42654276 3
12.953826 -3.7364807 2.1353307 24
4.5101914 -1.3009472 -0.41067785 3
12.917067 -3.7283199 2.6133201 30
6.9730215 -2.0139775 -0.38037777 5
12.943839 -3.7409422 3.1106234 37
12.739907 -3.6844127 -0.23148872 21
12.570568 -3.6378169 3.5064805 3
1.6268796 -0.47296011 -0.45396861 7
12.970277 -3.7731233 0.23578201 27
1.8579805 -0.54084831 -0.44675279 6
12.966579 -3.776958 0.70779151 35
2.1789651 -0.63469779 -0.4411504 100
12.961088 -3.7778127 1.1811346 27
2.6207745 -0.76438242 -0.43238491 4
12.938981 -3.7762699 1.6549859 25
3.311753 -0.96716952 -0.42361787 3
12.944495 -3.7827833 2.1359563 36
4.5113602 -1.3183594 -0.41120079 3
12.934124 -3.782202 2.619426 34
6.975534 -2.0411105 -0.38090113 5
12.940053 -3.7888398 3.1128726 39
12.728889 -3.7294233 -0.23152363 22
12.542963 -3.6773262 3.5023394 3
1.6159531 -0.47590733 -0.45138043 7
12.966617 -3.8212018 0.23595653 34
1.8560811 -0.54733056 -0.44675279 6
12.94374 -3.8193712 0.70726818 46
2.1597893 -0.63729942 -0.43771586 77
12.943999 -3.8219032 1.1807859 34
2.6275628 -0.77632457 -0.43394926 4
12.929527 -3.8225374 1.6554734 27
3.319778 -0.98210269 -0.4250803 3
12.917953 -3.8240199 2.1337664 37
4.5124621 -1.3357955 -0.41172373 3
12.932137 -3.8306737 2.6217158 35
6.9721966 -2.0665824 -0.38111049 5
12.930485 -3.8350947 3.1137726 39
12.70429 -3.7704186 -0.2313142 20
12.526346 -3.7199874 3.5013041 3
1.6031746 -0.47823173 -0.44827461 6
12.949368 -3.8652964 0.23588672 40
1.8634955 -0.55659473 -0.4490023 5
12.9265 -3.8633852 0.70705879 48
2.1613138 -0.6459589 -0.4384791 78
12.917218 -3.8630674 1.1795658 36
2.6248367 -0.7854917 -0.43394926 4
12.912303 -3.8665085 1.6549859 28
3.3125265 -0.99254537 -0.42459282 4
12.904527 -3.8690889 2.1337664 38
4.4925041 -1.3469613 -0.41032922 3
12.911164 -3.8735347 2.6201892 35
6.9840693 -2.0966499 -0.38215721 4
12.913287 -3.8790855 3.1128726 39
12.673816 -3.8095615 -0.23100007 18
12.505885 -3.7614639 3.4992335 3
1.6014955 -0.48382494 -0.44827461 6
12.920483 -3.9058456 0.23560749 43
1.8652718 -0.56422454 -0.44990209 5
12.911025 -3.9079053 0.70695418 46
2.1628039 -0.65463692 -0.43924233 79
12.89412 -3.9052455 1.1786942 35
2.6201882 -0.79407632 -0.43363637 4
12.906325 -3.913861 1.6559607 29
3.3223386 -1.008137 -0.42629901 6
12.887162 -3.9129622 2.1331406 39
4.4992137 -1.3661078 -0.41137511 3
12.884415 -3.9145846 2.6175179 36
6.9805298 -2.1221778 -0.38236654 5
12.899668 -3.9241381 3.1128726 36
12.671919 -3.8572719 -0.23120949 23
12.488983 -3.8039694 3.4981983 3
1.6071862 -0.49167287 -0.45034516 6
12.906771 -3.9509227 0.23560749 40
1.8521112 -0.56730777 -0.44720268 5
12.903034 -3.9547052 0.70726818 48
2.1642597 -0.66333306 -0.44000554 80
12.886125 -3.9519835 1.1792172 36
2.6136236 -0.80205864 -0.43301064 4
12.873609 -3.9530616 1.6535234 27
3.3131068 -1.0179788 -0.42556778 7
12.884755 -3.9614067 2.1350179 37
4.4944177 -1.3818048 -0.41137511 3
12.865044 -3.957804 2.6163731 35
6.9635353 -2.1435935 -0.38184318 6
12.887754 -3.9697158 3.1133227 37
12.654555 -3.9003031 -0.23113967 24
12.475629 -3.8475404 3.4981983 3
1.6202229 -0.50185263 -0.45448625 6
12.8929 -3.9959517 0.23560749 40
1.8594261 -0.57665557 -0.44945222 4
12.871983 -3.9943936 0.70632613 46
2.158181 -0.66972005 -0.43924233 79
12.877959 -3.9987125 1.1797401 35
2.6089215 -0.81059092 -0.43269777 4
12.865417 -3.9997425 1.6542546 28
3.2962649 -1.0254099 -0.42386162 7
12.867076 -4.0051842 2.1343923 37
4.5009809 -1.4010376 -0.41242099 3
12.860521 -4.0056067 2.6182814 36
6.9560099 -2.1678877 -0.38184318 5
12.862657 -4.0111976 3.1106234 37
12.638954 -3.9438567 -0.23110476 26
12.462122 -3.8910651 3.4981983 3
1.6147746 -0.50634921 -0.45345098 7
12.890322 -4.0445237 0.23581693 40
1.8611203 -0.58431017 -0.45035201 3
12.852245 -4.0375056 0.70601213 48
2.1520841 -0.6760726 -0.4384791 78
12.863923 -4.0436406 1.1797401 38
2.6154981 -0.82265627 -0.4342621 4
12.841911 -4.0416479 1.653036 30
3.2945585 -1.0375061 -0.42410538 9
12.830408 -4.0429502 2.1306376 39
4.4922624 -1.415543 -0.41207233 3
12.846461 -4.0504737 2.6182814 36
6.9636378 -2.1969631 -0.38268054 5
12.850434 -4.0566587 3.111073 39
12.60795 -3.9825299 -0.23079063 27
12.448464 -3.9345424 3.4981983 4
1.5982666 -0.50730699 -0.44930989 6
12.872313 -4.088284 0.2357471 39
1.8627838 -0.5919835 -0.4512518 3
12.84759 -4.0853696 0.70653552 49
2.1459692 -0.68239081 -0.43771586 77
12.826946 -4.0812702 1.1776484 37
2.6107283 -0.83118188 -0.43394926 4
12.837181 -4.0894623 1.6542546 32
3.2890258 -1.0483972 -0.42386162 12
12.819981 -4.0889125 2.1312635 39
4.4872937 -1.4312153 -0.41207233 5
12.832245 -4.0952911 2.6182814 36
6.9616346 -2.2230797 -0.38299456 5
12.830626 -4.0997105 3.1097233 37
12.59397 -4.0265155 -0.23079063 27
12.438334 -3.9791486 3.4992335 3
1.5946468 -0.51229209 -0.44879225 7
12.842733 -4.1282959 0.23546787 40
1.8532856 -0.5960955 -0.44945222 4
12.828267 -4.1261168 0.70622146 48
2.143574 -0.68987751 -0.43771586 77
12.814518 -4.1266308 1.1778227 37
2.5984099 -0.83726066 -0.43238491 4
12.819051 -4.133029 1.6537671 34
3.3061275 -1.0665758 -0.42654276 16
12.808231 -4.132009 2.1315763 40
4.4784789 -1.4456459 -0.41172373 3
12.806663 -4.1364393 2.6159916 37
6.9576335 -2.2485955 -0.38320392 4
12.823655 -4.1468716 3.1115229 37
12.580549 -4.0682569 -0.23079063 23
12.41588 -4.0174003 3.4966455 4
1.6001977 -0.52024448 -0.4508628 7
12.825171 -4.1696253 0.23539807 43
1.8475924 -0.60103226 -0.4485524 4
12.819485 -4.1727252 0.70653552 50
2.1542201 -0.70161164 -0.44038719 100
12.803823 -4.1725707 1.1781713 37
2.5956192 -0.84587276 -0.43238491 4
12.792063 -4.1712084 1.652061 33
3.2987978 -1.0763019 -0.42605525 16
12.801241 -4.1791449 2.1328278 40
4.4847684 -1.464982 -0.41276959 3
12.785409 -4.1764464 2.614465 37
6.9425449 -2.2691734 -0.3827852 4
12.807981 -4.1887679 3.111073 39
12.573874 -4.1146336 -0.23093024 22
12.392601 -4.0577097 3.4940574 3
1.6039692 -0.52735817 -0.4524157 6
12.810537 -4.2143679 0.23539807 43
1.843632 -0.60686851 -0.4481025 4
12.793459 -4.2136993 0.70590746 50
2.1462874 -0.70690894 -0.43924233 79
12.80127 -4.218749 1.1792172 39
2.6001546 -0.8574025 -0.43363637 4
12.777424 -4.2158351 1.652061 32
3.2818255 -1.0834541 -0.42434907 7
12.779073 -4.2213259 2.1315763 40
4.4761019 -1.478596 -0.41242099 3
12.774481 -4.2222819 2.6152282 38
6.9421668 -2.295902 -0.38320392 4
12.780332 -4.2291646 3.1079237 42
12.551841 -4.1559858 -0.23079063 25
12.385697 -4.1033731 3.4961278 3
1.5984526 -0.53173441 -0.45138043 6
12.805236 -4.2622175 0.23557259 45
1.8488979 -0.61576343 -0.44990209 4
12.771092 -4.2558055 0.70548874 50
2.1438069 -0.7143966 -0.43924233 99
12.778906 -4.2608876 1.1785198 37
2.6027677 -0.86834896 -0.43457499 4
12.764514 -4.2610397 1.6523046 31
3.2836723 -1.09679 -0.4250803 3
12.749271 -4.2608981 2.1290734 40
4.4746928 -1.4954746 -0.41276959 3
12.76339 -4.2680936 2.6159916 36
6.9341102 -2.3201208 -0.38320392 4
12.761793 -4.2725134 3.107024 42
12.529674 -4.1972337 -0.23065101 25
12.391447 -4.153336 3.5018218 3
1.5947556 -0.53669465 -0.4508628 6
12.782699 -4.304337 0.23543297 48
1.8541244 -0.62470233 -0.45170173 3
12.765622 -4.3035483 0.70601213 48
2.1338584 -0.71936667 -0.43771586 77
12.750739 -4.3010097 1.1772997 37
2.6034641 -0.87869239 -0.43520072 4
12.751443 -4.3062053 1.6525484 33
3.3023913 -1.1158708 -0.42800516 3
12.736191 -4.3060083 2.1293862 40
4.4618955 -1.5085325 -0.41207233 3
12.752131 -4.3138776 2.6167548 38
6.9373193 -2.3481529 -0.38383192 4
12.752339 -4.3189096 3.1083736 40
12.514946 -4.2409449 -0.23065101 22
12.353089 -4.1884999 3.4950926 2
1.5947014 -0.54288065 -0.45138043 6
12.760023 -4.3463516 0.23529334 49
1.8519324 -0.63117063 -0.45170173 3
12.754303 -4.3493724 0.70622146 52
2.1369092 -0.72871202 -0.43886071 79
12.728106 -4.3429189 1.1766025 36
2.5854254 -0.88266903 -0.43269777 4
12.72882 -4.3481231 1.6515735 33
3.3003545 -1.1280335 -0.42824891 3
12.730429 -4.3536353 2.1309505 39
4.4603734 -1.5253876 -0.41242099 3
12.725851 -4.3545513 2.614465 38
6.9366393 -2.3749425 -0.38425064 4
12.753778 -4.3690815 3.1124227 42
12.503849 -4.2859011 -0.2307208 24
12.331083 -4.2290883 3.493022 2
1.5873168 -0.54655701 -0.44982749 6
12.733431 -4.3869581 0.23508391 49
1.8349792 -0.6325506 -0.4481025 4
12.733379 -4.3919129 0.70590746 50
2.1362083 -0.73680681 -0.43924233 99
12.724169 -4.3912215 1.1776484 36
2.5860631 -0.89297801 -0.43332353 4
12.706059 -4.3899355 1.6505985 33
3.2870162 -1.1363043 -0.42703021 2
12.718887 -4.3993382 2.1315763 40
4.4813824 -1.5500661 -0.41486132 5
12.703152 -4.3963776 2.6129384 38
6.9245324 -2.3978345 -0.38404128 4
12.725561 -4.4091077 3.1092734 40
12.49637 -4.3321419 -0.23086044 21
12.321722 -4.2740054 3.494575 3
1.5981702 -0.55654168 -0.45345098 6
12.725594 -4.434011 0.23522353 48
1.8382804 -0.64087647 -0.44945222 4
12.70477 -4.4317293 0.70517474 53
2.1391845 -0.74619901 -0.44038719 100
12.723813 -4.4408631 1.1790429 40
2.5959847 -0.90655845 -0.43551362 4
12.69628 -4.4362254 1.6513296 31
3.2680387 -1.1425302 -0.4250803 2
12.707183 -4.445013 2.1322021 40
4.4646606 -1.5617524 -0.41381544 3
12.698846 -4.4445844 2.6152282 37
6.9085808 -2.4193504 -0.38362259 4
12.702736 -4.4509244 3.1074739 39
12.46985 -4.3717661 -0.23065101 19
12.312198 -4.3189087 3.4961278 3
1.5962176 -0.56211698 -0.45345098 6
12.727012 -4.484385 0.23553768 51
1.8323562 -0.64599353 -0.4485524 4
12.691888 -4.4744997 0.70527941 49
2.1236067 -0.74908996 -0.43771586 96
12.691323 -4.4792814 1.177474 38
2.579766 -0.91101021 -0.43332353 4
12.690076 -4.4838238 1.6525484 30
3.2715168 -1.1565773 -0.42605525 2
12.675611 -4.4812012 2.1293862 41
4.4666948 -1.5799851 -0.41451269 3
12.683254 -4.4888849 2.6152282 38
6.91892 -2.4501181 -0.3846693 4
12.683448 -4.4939361 3.1065741 40
12.438319 -4.407083 -0.23033686 22
12.294166 -4.3584228 3.4950926 3
1.5869662 -0.56509322 -0.45138043 5
12.702652 -4.523211 0.23536316 49
1.8375468 -0.65468234 -0.45035201 3
12.685598 -4.5221281 0.7058028 53
2.1246772 -0.75781727 -0.4384791 98
12.668106 -4.5208774 1.1767769 37
2.5934749 -0.92553544 -0.43613935 4
12.680746 -4.5278835 1.6532797 34
3.2676635 -1.1674198 -0.42605525 2
12.659891 -4.5254202 2.1293862 40
4.4423928 -1.5888575 -0.41276959 3
12.671997 -4.5322418 2.6159916 37
6.9258008 -2.4784319 -0.38550669 4
12.67031 -4.5366273 3.107024 42
12.432272 -4.453846 -0.23051138 25
12.267965 -4.3973994 3.4919868 3
1.5796303 -0.56839043 -0.44982749 6
12.675497 -4.5634599 0.23515373 48
1.8370839 -0.66175306 -0.45080194 3
12.673493 -4.5677361 0.70601213 48
2.1239996 -0.76552451 -0.43886071 98
12.653044 -4.562861 1.1767769 38
2.5790794 -0.93056023 -0.4342621 4
12.659261 -4.5700979 1.6525484 32
3.2785048 -1.184214 -0.42800516 2
12.649591 -4.5715981 2.1303248 39
4.4445949 -1.606289 -0.41346684 3
12.641328 -4.5711064 2.6129384 36
6.9133515 -2.5012336 -0.38529736 4
12.665392 -4.5848079 3.1097233 42
12.42041 -4.4985776 -0.23058119 23
12.256173 -4.4415126 3.493022 3
1.5812675 -0.57522178 -0.4508628 6
12.66137 -4.6083617 0.23518863 43
1.823776 -0.66416073 -0.4481025 4
12.651842 -4.6098957 0.70569807 50
2.1305375 -0.77629453 -0.44076881 100
12.644526 -4.6097302 1.177474 38
2.5758154 -0.93955714 -0.4342621 4
12.624584 -4.6074533 1.6501111 32
3.2743511 -1.1956509 -0.42800516 2
12.640978 -4.6184373 2.1315763 39
4.4427032 -1.6231612 -0.41381544 3
12.625296 -4.6152053 2.6129384 37
6.908329 -2.5267224 -0.38550669 4
12.64565 -4.6276507 3.1088235 33
12.412143 -4.5446553 -0.2307208 23
12.240595 -4.4842668 3.493022 3
1.5810632 -0.58140463 -0.45138043 6
12.592659 -4.6331964 0.23421131 25
1.8177891 -0.66917634 -0.44720268 4
12.622555 -4.6491985 0.70496535 48
2.1241302 -0.78236961 -0.44000554 100
12.632098 -4.6552176 1.1778227 37
2.5725203 -0.94854271 -0.4342621 4
12.615874 -4.6542416 1.651086 30
3.2552593 -1.2015741 -0.42605525 3
12.622926 -4.6618495 2.1312635 39
4.4370103 -1.6386592 -0.41381544 3
12.612792 -4.6606088 2.6137018 37
6.901341 -2.5515139 -0.38561139 5
12.61297 -4.6656795 3.1047745 33
12.394327 -4.5872602 -0.2306859 24
12.232114 -4.5296507 3.4950926 3
1.5862672 -0.58961236 -0.45345098 8
12.48457 -4.6429701 0.23250096 33
1.8264004 -0.67959511 -0.44990209 4
12.608121 -4.6939282 0.70507008 49
2.1158667 -0.78772455 -0.43886071 79
12.615771 -4.6992841 1.1778227 39
2.5784483 -0.96096587 -0.43582645 5
12.603271 -4.6996379 1.6515735 30
3.254765 -1.2143174 -0.42654276 2
12.589921 -4.6996665 2.1284475 40
4.4293966 -1.6534407 -0.41364115 2
12.605641 -4.7080417 2.6156096 40
6.8830376 -2.5720932 -0.385088 4
12.596608 -4.7096786 3.1047745 36
12.374495 -4.6290956 -0.23061611 18
12.223466 -4.5750303 3.4971633 2
1.5679234 -0.58903134 -0.44879225 7
12.43085 -4.6724496 0.23180287 48
1.8240172 -0.68596625 -0.44990209 8
12.593529 -4.7386141 0.70517474 48
2.1167791 -0.79648834 -0.43962395 60
12.589968 -4.7397823 1.1769512 36
2.5676842 -0.96717536 -0.43457499 3
12.594219 -4.7464027 1.6525484 29
3.2579362 -1.2284729 -0.42751768 2
12.575288 -4.7442822 2.1287606 41
4.4180059 -1.6667823 -0.41311821 3
12.590968 -4.7527089 2.6159916 44
6.8777547 -2.5975151 -0.38529736 4
12.59103 -4.7577534 3.1074739 25
12.339555 -4.6651902 -0.23026705 21
12.191159 -4.6115189 3.4925044 1
1.5622456 -0.5931294 -0.44775698 3
12.448112 -4.7285943 0.23243116 28
1.8234332 -0.69302148 -0.45035201 2
12.582511 -4.7846742 0.70548874 41
2.1194911 -0.80596578 -0.44076881 61
12.569622 -4.7822843 1.1766025 36
2.5606 -0.97472686 -0.43394926 3
12.573864 -4.7889233 1.652061 32
3.2721777 -1.2469063 -0.42995507 1
12.558651 -4.7881489 2.1287606 41
4.4121609 -1.6821936 -0.41311821 3
12.561461 -4.7917318 2.6133201 37
6.8686461 -2.6215072 -0.38529736 5
12.574345 -4.8016753 3.1074739 22
12.332536 -4.7118034 -0.23044157 27
12.176791 -4.6547351 3.493022 2
1.5691841 -0.6020391 -0.45034516 3
12.579014 -4.8286314 0.23518863 39
1.8046304 -0.69309407 -0.44630289 2
12.578783 -4.8335814 0.70622146 42
2.1166646 -0.81335938 -0.44076881 61
12.556571 -4.8275609 1.1769512 32
2.551651 -0.98153144 -0.43301064 3
12.555219 -4.8320718 1.6518172 32
3.2752154 -1.2611741 -0.43093005 1
12.552919 -4.8362188 2.1306376 41
4.4229946 -1.7040315 -0.41468704 2
12.54649 -4.8362565 2.6137018 42
6.8538628 -2.6433113 -0.38498333 5
12.559325 -4.84624 3.1079237 21
12.334669 -4.7620254 -0.23079063 22
12.171283 -4.7013884 3.4961278 2
1.5832841 -0.61379755 -0.45500392 3
12.56954 -4.8754029 0.23532824 39
1.8149172 -0.70432442 -0.44945222 3
12.539492 -4.8687844 0.70496535 38
2.1138127 -0.82074285 -0.44076881 61
12.560073 -4.8792987 1.1788685 37
2.5629389 -0.99615747 -0.43551362 3
12.534574 -4.8744292 1.6513296 34
3.2300932 -1.2567637 -0.42556778 1
12.539643 -4.8814402 2.1312635 40
4.4021659 -1.713678 -0.41329253 2
12.531361 -4.8807349 2.6140833 36
6.8483157 -2.6686695 -0.38519266 6
12.533254 -4.8865113 3.1056743 24
12.314244 -4.8035989 -0.2307208 9
12.158398 -4.7452512 3.4971633 3
1.5667416 -0.61368382 -0.4508628 3
12.559892 -4.9221678 0.23546787 42
1.8106332 -0.70994401 -0.4490023 2
12.536294 -4.9154444 0.70569807 41
2.1036243 -0.82524854 -0.43924233 59
12.531836 -4.9187436 1.1778227 27
2.5576072 -1.0043756 -0.43520072 3
12.526722 -4.921783 1.6525484 30
3.2441614 -1.2752935 -0.42800516 1
12.512357 -4.9186597 2.1293862 40
4.3924494 -1.7275755 -0.41294393 2
12.521555 -4.9273229 2.6156096 27
6.8389583 -2.6925585 -0.38519266 5
12.516121 -4.9302306 3.1056743 22
12.287085 -4.8400111 -0.23051138 8
12.142594 -4.7855434 3.4971633 2
1.5502194 -0.61346233 -0.44672167 4
12.541642 -4.9630556 0.23543297 48
1.8263879 -0.72311813 -0.45350131 1
12.526487 -4.9621158 0.7061168 42
2.0970805 -0.83113974 -0.4384791 58
12.510885 -4.9609885 1.177474 27
2.5616078 -1.015764 -0.43645221 3
12.512176 -4.9640279 1.6527921 31
3.2362244 -1.2845798 -0.42751768 1
12.496947 -4.9630356 2.129699 40
4.3845406 -1.7421616 -0.41276959 3
12.51062 -4.9709935 2.6167548 27
6.833704 -2.7166984 -0.38540202 5
12.506946 -4.9745893 3.1074739 22
12.260825 -4.8791747 -0.23033686 9
12.116841 -4.8243265 3.494575 1
1.5553522 -0.62146682 -0.44879225 3
12.509387 -5.000865 0.23515373 49
1.8166152 -0.72659421 -0.45170173 1
12.516508 -5.00878 0.70653552 38
2.1107175 -0.84465414 -0.44191366 62
12.499915 -5.0046711 1.177997 33
2.5543787 -1.0232304 -0.43582645 2
12.503985 -5.0113664 1.6540109 24
3.2464607 -1.301779 -0.42946759 1
12.492379 -5.011776 2.1318891 29
4.3805885 -1.7574337 -0.41294393 2
12.47315 -5.0065894 2.6125569 29
6.8482738 -2.7502117 -0.38676277 6
12.493121 -5.0196695 3.1083736 16
12.254851 -4.9264188 -0.2305463 6
12.099928 -4.8665929 3.494575 1
1.5603392 -0.62978446 -0.4508628 3
12.502979 -5.0489931 0.23536316 57
1.7923858 -0.7241708 -0.44630289 2
12.506353 -5.0554338 0.70695418 38
2.093195 -0.84613061 -0.43886071 39
12.491605 -5.0520091 1.1788685 37
2.5471294 -1.0306587 -0.43520072 2
12.471696 -5.0490232 1.652061 25
3.2382169 -1.311613 -0.42898014 2
12.478471 -5.0568366 2.132515 27
4.3744273 -1.7727141 -0.41294393 2
12.455598 -5.0500979 2.6125569 31
6.816422 -2.7650909 -0.38550669 4
12.477328 -5.0639811 3.1088235 21
12.252402 -4.9751849 -0.23082553 6
12.084655 -4.9095268 3.4950926 2
1.561709 -0.63668585 -0.45189807 4
12.479724 -5.0903401 0.23525845 61
1.7970642 -0.73336822 -0.4481025 2
12.468291 -5.090754 0.7058028 35
2.1011338 -0.85788471 -0.4411504 61
12.483115 -5.0993485 1.1797401 38
2.5398593 -1.038049 -0.43457499 3
12.461347 -5.0955324 1.653036 27
3.2262697 -1.3199017 -0.42800516 2
12.455259 -5.0981188 2.1315763 29
4.3755879 -1.7909918 -0.41364115 2
12.448795 -5.0980101 2.6148465 29
6.7993364 -2.7858386 -0.385088 4
12.454167 -5.1052871 3.1074739 18
12.22756 -5.0148873 -0.2306859 6
12.081742 -4.9575472 3.4992335 2
1.5630499 -0.64360446 -0.45293337 4
12.472973 -5.1384416 0.23546787 54
1.7980967 -0.74112195 -0.4490023 2
12.459677 -5.138052 0.70632613 39
2.0836067 -0.85922611 -0.43809745 39
12.463398 -5.1421323 1.1795658 32
2.5471759 -1.0514307 -0.43645221 3
12.443483 -5.1389995 1.653036 25
3.2179735 -1.3296393 -0.42751768 2
12.435561 -5.14081 2.1312635 28
4.3693094 -1.8062546 -0.41364115 2
12.443623 -5.1466851 2.6175179 27
6.8006439 -2.8141379 -0.38571605 5
12.434469 -5.1479831 3.107024 19
12.206285 -5.0560093 -0.23061611 6
12.080427 -5.0063472 3.5038924 1
1.5500911 -0.64460593 -0.44982749 4
12.443882 -5.1773405 0.23525845 49
1.8098915 -0.75338507 -0.45260152 1
12.449041 -5.1845846 0.70674485 44
2.0824072 -0.86724883 -0.4384791 58
12.436177 -5.1817746 1.1786942 34
2.5307269 -1.0549949 -0.4342621 4
12.443789 -5.1900449 1.6554734 25
3.2169764 -1.342393 -0.42800516 2
12.417541 -5.1841865 2.1312635 27
4.3519459 -1.8168896 -0.41259527 2
12.421959 -5.1885772 2.6167548 28
6.799993 -2.8417101 -0.38623938 5
12.423615 -5.1943631 3.1088235 19
12.195943 -5.1016726 -0.23075573 6
12.043275 -5.0402808 3.4981983 2
1.5478317 -0.65001279 -0.44982749 3
12.440483 -5.2269425 0.23553768 54
1.7964717 -0.75516713 -0.44990209 2
12.425344 -5.2256856 0.70643085 27
2.086606 -0.87755692 -0.44000554 60
12.416177 -5.224381 1.1785198 31
2.5179257 -1.0599902 -0.43269777 3
12.42194 -5.2319102 1.6549859 25
3.2232471 -1.3582393 -0.42946759 2
12.406651 -5.2305698 2.132515 28
4.3639369 -1.8398098 -0.41433838 7
12.400155 -5.2303805 2.6159916 25
6.7900319 -2.8654292 -0.38623938 5
12.414385 -5.2414885 3.111073 21
12.181743 -5.1457701 -0.23082553 6
12.018489 -5.0792809 3.4961278 2
1.5473318 -0.65616602 -0.45034516 3
1.7902372 -0.75991058 -0.4490023 2
12.41438 -5.2721496 0.70684952 8
2.0835299 -0.8848353 -0.44000554 60
12.396031 -5.2669101 1.1783456 11
2.5178463 -1.0703186 -0.43332353 4
12.39264 -5.2705765 1.6535234 15
3.214833 -1.3679278 -0.42898014 2
12.397404 -5.2777138 2.1340792 16
4.3611546 -1.8565924 -0.41468704 2
12.376402 -5.2713251 2.6148465 22
6.7671266 -2.8836327 -0.38550669 5
12.396012 -5.284791 3.111073 12
11.80687 -5.036057 -0.22405399 12
12.0149 -5.1272674 3.5002687 2
1.5539114 -0.66536534 -0.45293337 3
28.377026 -12.156546 0.5388605 5
1.780409 -0.76308429 -0.44720268 2
2.0822332 -0.89287651 -0.44038719 60
40.084282 -17.196711 3.8160269 100
2.5177252 -1.0806592 -0.43394926 4
27.551853 -11.831514 3.681673 54
3.1990952 -1.3744397 -0.42751768 2
21.017462 -9.0341606 3.6233354 55
4.3363428 -1.8639365 -0.41294393 2
17.021908 -7.3202281 3.6017108 44
6.7643585 -2.910394 -0.38592538 4
14.217556 -6.1201053 3.5735724 42
11.746977 -5.0590472 -0.22325119 15
11.993382 -5.1676474 3.4992335 6
1.5480329 -0.66925216 -0.45189807 4
1.7813115 -0.77084231 -0.4481025 4
43.620125 -18.885155 2.4910872 12
2.0736988 -0.89779937 -0.43924233 59
40.029499 -17.338902 3.8165498 87
2.5139377 -1.0894412 -0.43394926 4
27.497637 -11.922089 3.6799669 45
3.1906357 -1.3840183 -0.42703021 2
20.976738 -9.1035366 3.6217711 49
4.340776 -1.8838207 -0.41398975 2
16.996252 -7.379601 3.6017108 44
6.7724771 -2.9419463 -0.3869721 6
14.185382 -6.1650357 3.570873 48
11.727413 -5.0992246 -0.22321628 20
12.00007 -5.2202697 3.5064805 1
1.535064 -0.67001498 -0.44879225 4
1.7857528 -0.78017628 -0.44990209 9
37.522011 -16.400763 2.1460884 8
2.0669544 -0.90345979 -0.4384791 58
37.50069 -16.399239 3.5808809 25
2.5083098 -1.097418 -0.43363637 4
27.454039 -12.017205 3.6797233 54
3.2003322 -1.4015179 -0.42898014 2
20.935785 -9.1727409 3.6202066 41
4.3232245 -1.8941643 -0.41294393 2
16.954206 -7.4317904 3.5982764 33
6.7621665 -2.9655685 -0.3869721 4
14.161992 -6.2137318 3.5704231 55
11.705879 -5.1385212 -0.22314647 17
11.988851 -5.265233 3.5085511 1
1.5327159 -0.6753692 -0.44879225 4
26.711151 -11.775453 0.50954044 5
1.7741036 -0.78247291 -0.44765261 9
37.445492 -16.515429 2.1448324 17
2.0727692 -0.91463226 -0.44038719 40
37.410412 -16.515558 3.5777433 63
2.495429 -1.1021765 -0.43207204 4
27.391949 -12.104138 3.677042 54
3.2029295 -1.4153321 -0.42995507 6
20.912481 -9.2453108 3.6214583 52
4.3165865 -1.9092435 -0.41294393 2
16.920979 -7.4877472 3.5967495 53
6.7554259 -2.9907718 -0.38718143 4
14.137745 -6.2590828 3.5695233 58
11.705231 -5.1845999 -0.22346061 12
11.946598 -5.2940035 3.5013041 6
1.5392941 -0.68437237 -0.45138043 5
1.7608166 -0.78359789 -0.44495317 10
4.5453992 -2.0227916 0.26073778 2
2.0786922 -0.92549336 -0.44229528 62
37.368176 -16.645201 3.5789635 51
2.4971733 -1.1128577 -0.43301064 4
27.342594 -12.190866 3.6758235 63
3.2090969 -1.4307958 -0.43141752 2
20.894337 -9.320241 3.6236484 66
4.3284254 -1.931667 -0.41468704 2
16.874544 -7.534214 3.5921702 33
6.7308822 -3.0066407 -0.38634408 5
14.111573 -6.3035464 3.5681736 56
11.702579 -5.2299151 -0.22373985 10
11.953668 -5.3446302 3.5085511 1
1.5511173 -0.69579852 -0.45552155 4
26.818556 -12.035863 0.51310074 5
1.7599863 -0.79023087 -0.4454031 14
2.0702388 -0.92996794 -0.4411504 41
37.338215 -16.780458 3.5814037 51
2.4934692 -1.1211325 -0.43301064 4
27.296587 -12.279027 3.6750922 67
3.164258 -1.4240658 -0.42605525 2
20.868877 -9.3963633 3.6248999 66
4.3147287 -1.9427378 -0.41398975 2
16.856628 -7.5933566 3.5936968 45
6.7208748 -3.0289445 -0.38634408 6
14.075273 -6.3463583 3.5645745 60
11.675138 -5.2666206 -0.22356533 12
11.93846 -5.3879128 3.5095863 1
1.5451592 -0.69961506 -0.45448625 3
26.769093 -12.126101 0.51296115 10
1.7572172 -0.79636955 -0.4454031 13
4.5384431 -2.0577741 0.26115644 100
2.0598283 -0.93394607 -0.43962395 60
37.277596 -16.909868 3.5812292 25
2.4931381 -1.1314622 -0.43363637 5
27.257174 -12.375876 3.6755798 67
3.1773417 -1.4433126 -0.42849267 1
20.821568 -9.4626141 3.6223969 49
4.3151765 -1.9610845 -0.41468704 2
16.824657 -7.6497126 3.5925519 39
6.7175326 -3.0556941 -0.38676277 6
14.056581 -6.3970661 3.565474 60
11.660323 -5.3090005 -0.22363515 10
11.916063 -5.4279518 3.5085511 1
1.5321654 -0.70018661 -0.45138043 3
26.850267 -12.276011 0.51533467 5
1.7579709 -0.80411971 -0.44630289 10
4.5348649 -2.0752661 0.2613658 100
2.0583405 -0.94194746 -0.44000554 60
4.5560546 -2.0859246 0.43839338 8
2.5017447 -1.1459163 -0.43582645 7
27.20298 -12.465984 3.6741171 67
3.1542394 -1.4461216 -0.42605525 2
20.78841 -9.5352373 3.6223969 57
4.293817 -1.9694901 -0.41329253 2
16.77644 -7.6985698 3.5879726 42
6.7177167 -3.0841243 -0.38739079 6
14.04479 -6.4509745 3.5681736 66
11.650805 -5.3538451 -0.22380966 11
11.893533 -5.4678988 3.5075159 1
1.5332203 -0.70714873 -0.4524157 3
26.821779 -12.376363 0.51561391 5
1.7586919 -0.81188482 -0.44720268 8
4.5348463 -2.0944326 0.26178449 100
2.063952 -0.95324254 -0.44191366 41
2.4941435 -1.1529844 -0.43520072 8
27.155695 -12.559197 3.6736298 63
3.1852038 -1.4737952 -0.43093005 2
20.76396 -9.6118927 3.6239612 60
4.2905326 -1.9861404 -0.41364115 3
16.729868 -7.7480083 3.5837748 48
6.7105341 -3.1092334 -0.38760012 6
14.01865 -6.4983211 3.5672739 63
11.637487 -5.3970051 -0.22391438 12
11.877879 -5.5110083 3.5085511 1
1.5272399 -0.71086597 -0.45138043 3
28.232264 -13.146928 0.54360753 6
1.7487814 -0.81472707 -0.4454031 8
4.5293174 -2.111093 0.26188916 100
2.0570529 -0.95878237 -0.4411504 41
4.5504098 -2.121891 0.43926495 75
2.4704123 -1.1524971 -0.43175918 5
27.090105 -12.643837 3.6707048 58
3.1620536 -1.4765059 -0.42849267 2
20.728493 -9.6834784 3.6236484 52
4.279614 -2.0001652 -0.41329253 3
16.699163 -7.8046966 3.5830116 38
6.6887846 -3.1275635 -0.3869721 6
14.002943 -6.5505185 3.5690734 61
11.634878 -5.4452233 -0.22422852 10
11.872566 -5.5589895 3.5126922 1
1.5281209 -0.71810204 -0.4524157 3
28.186201 -13.245398 0.54360753 12
1.7353454 -0.81585175 -0.44270366 4
4.5146918 -2.1234903 0.26147047 100
2.0553014 -0.96715134 -0.44153205 61
4.5498128 -2.1419494 0.43996218 71
2.4715326 -1.1640688 -0.43269777 6
27.031439 -12.731556 3.6687551 18
3.1532888 -1.4858421 -0.42800516 2
20.689203 -9.7532482 3.6227098 49
4.3050423 -2.0303898 -0.41643015 7
16.679323 -7.870038 3.5849195 59
6.6646333 -3.1460893 -0.38623938 5
13.968267 -6.5968051 3.5663741 60
11.621224 -5.4883652 -0.22433324 12
11.856582 -5.6020489 3.5137274 1
1.529096 -0.72508723 -0.45345098 3
28.065195 -13.314331 0.54221135 12
1.7587512 -0.83474034 -0.44945222 3
4.512291 -2.1425934 0.26178449 100
2.0519128 -0.97431988 -0.44153205 61
4.53511 -2.1543984 0.43926495 66
2.478159 -1.1777767 -0.43457499 5
4.5625687 -2.1693952 0.62031502 20
3.1406512 -1.4939786 -0.42703021 2
20.6444 -9.8247671 3.6211455 63
4.2673454 -2.0308499 -0.41346684 3
16.649977 -7.9273682 3.584538 35
6.6644297 -3.1744874 -0.3868674 5
13.943396 -6.6446853 3.5659242 58
11.599226 -5.5300617 -0.22429833 12
11.832483 -5.643805 3.5126922 1
1.5126146 -0.72374988 -0.44930989 3
28.24221 -13.51928 0.54653955 6
1.7663721 -0.84592468 -0.4521516 2
4.5083866 -2.1600568 0.26199383 81
2.0484993 -0.98147637 -0.44153205 100
4.5257645 -2.1693544 0.43909061 63
2.4704704 -1.1847115 -0.43394926 5
4.5621276 -2.1887431 0.62128997 56
3.1389964 -1.5066504 -0.42751768 2
20.606417 -9.8950605 3.6205196 66
4.2638221 -2.0474582 -0.41381544 3
16.620434 -7.9845881 3.5841563 48
6.6641092 -3.2029228 -0.38749546 5
13.923629 -6.6950049 3.566824 50
11.588861 -5.574851 -0.22447285 11
11.805748 -5.6817226 3.5106218 1
1.510079 -0.72902548 -0.44930989 3
28.126421 -13.584732 0.54521316 6
1.7511262 -0.8461504 -0.4490023 4
4.5209808 -2.1845539 0.26314521 89
2.0485961 -0.99032998 -0.44229528 9
4.5145774 -2.1834042 0.43874201 57
2.4609854 -1.1907468 -0.43301064 6
4.5383787 -2.1968703 0.61909634 48
3.1339829 -1.5170515 -0.42751768 2
20.56638 -9.9598961 3.6192682 52
4.2602353 -2.0640666 -0.4141641 3
16.581863 -8.0374193 3.5818667 42
6.6457 -3.2226794 -0.38707677 5
13.904857 -6.7428408 3.5677238 58
11.5919 -5.6237249 -0.22489171 11
11.793793 -5.7242146 3.5126922 1
1.5093901 -0.73487473 -0.44982749 2
44.556007 -21.702545 0.86508083 18
1.7360479 -0.84597707 -0.44585299 4
4.5155067 -2.2004089 0.26324987 86
2.04883 -0.9988386 -0.44305849 84
4.5144758 -2.2018569 0.43943924 63
2.4605737 -1.2006336 -0.43363637 6
4.5292845 -2.2110369 0.61885256 46
3.1432061 -1.5344024 -0.42946759 2
20.536789 -10.029776 3.619894 16
4.2569475 -2.079932 -0.41451269 5
16.541006 -8.0854645 3.5788136 42
6.6278 -3.24119 -0.3866581 6
13.861413 -6.7786403 3.5623248 42
11.594743 -5.6726799 -0.22531058 12
11.795568 -5.7734842 3.518904 1
1.5138813 -0.74328166 -0.45189807 2
54.7827 -26.908941 1.0653647 25
1.729735 -0.85001045 -0.44495317 4
4.4970441 -2.2108705 0.26262185 83
2.0259523 -0.99645293 -0.43886071 59
4.5214515 -2.2238498 0.44083372 68
2.4618962 -1.2114031 -0.43457499 6
4.5201473 -2.225168 0.61860883 45
3.123584 -1.5383486 -0.42751768 2
4.2514486 -2.09566 -0.41468704 5
16.510923 -8.1422863 3.5784323 45
6.6056986 -3.2590034 -0.38603005 5
13.825434 -6.8209496 3.5591755 58
11.578458 -5.7148886 -0.22538038 12
11.775343 -5.8146229 3.518904 1
1.504223 -0.74539423 -0.44982749 2
54.647877 -27.091785 1.0646666 51
1.7318454 -0.85894209 -0.44630289 6
4.494278 -2.2300012 0.26293588 92
2.0187695 -1.0021259 -0.43809745 39
4.5275474 -2.247494 0.44222823 92
2.4592087 -1.2212969 -0.43488789 6
4.5261827 -2.2487862 0.62055874 45
3.1108146 -1.5462525 -0.42654276 2
4.5474682 -2.2613411 0.80438608 77
4.2366033 -2.1076782 -0.41398975 5
16.477453 -8.2009964 3.5776687 35
6.6115885 -3.2920949 -0.38707677 5
13.784641 -6.8637586 3.5551264 37
11.568172 -5.7626371 -0.22558981 10
11.747036 -5.8542957 3.5168333 1
1.5118479 -0.75608718 -0.45293337 2
54.583977 -27.309793 1.0653647 25
1.7617955 -0.88185686 -0.45485103 11
4.4971828 -2.2510397 0.2635639 92
2.0187702 -1.0109247 -0.43886071 39
4.4961224 -2.2524717 0.43996218 74
2.4582481 -1.2320724 -0.43551362 6
4.5250082 -2.2689195 0.62153369 45
3.129967 -1.5701046 -0.42995507 2
4.539547 -2.2772009 0.80438608 78
4.2345624 -2.1251349 -0.41451269 5
16.441708 -8.25494 3.5761423 53
6.6036263 -3.3169467 -0.38728613 6
13.766356 -6.9177356 3.556926 56
11.553347 -5.805676 -0.22569451 12
11.726528 -5.8952651 3.5168333 1
1.5057497 -0.75961953 -0.45189807 2
48.590679 -24.512991 0.94996941 20
1.7536422 -0.88506019 -0.45350131 7
4.4928632 -2.2685244 0.26377326 89
2.0082195 -1.0144247 -0.43733424 38
4.4882321 -2.2681525 0.43996218 66
2.4470966 -1.2366536 -0.4342621 6
4.5227747 -2.2865996 0.62226492 46
3.114115 -1.5750999 -0.42849267 2
4.5298076 -2.2921412 0.80407327 72
4.2235637 -2.1381035 -0.4141641 5
6.5979357 -3.3415339 -0.38760012 4
13.736387 -6.9598255 3.5551264 32
11.5669 -5.8631473 -0.22635771 9
11.700711 -5.9335418 3.5152805 1
1.5101101 -0.768112 -0.45396861 2
48.522636 -24.691525 0.95031846 41
1.7297024 -0.88056695 -0.4481025 6
4.4924355 -2.2870352 0.26419193 96
2.0293367 -1.0335525 -0.4426769 42
4.5037637 -2.2947824 0.44222823 68
2.4480445 -1.2478793 -0.43520072 5
4.50946 -2.2996674 0.62153369 57
3.129817 -1.596786 -0.43141752 4
4.5362587 -2.3143318 0.80657619 71
4.2146754 -2.1511917 -0.41398975 5
6.5755601 -3.3590932 -0.3869721 5
13.718949 -7.0112791 3.556926 50
11.577664 -5.9169426 -0.22695109 10
11.68957 -5.9767075 3.5178688 1
1.5039821 -0.77161497 -0.45293337 2
48.451164 -24.857771 0.95052785 41
1.7181042 -0.88184875 -0.44585299 6
4.4755411 -2.2981412 0.26366857 100
2.0117459 -1.0334531 -0.43962395 40
4.5081306 -2.3168643 0.44344842 71
2.4438932 -1.2559904 -0.43520072 5
4.5035744 -2.3155165 0.62177742 56
3.0874341 -1.5880882 -0.42629901 4
4.5316653 -2.33196 0.80720192 72
4.221312 -2.1731863 -0.41538426 5
4.5313797 -2.3328133 0.9906804 82
6.553731 -3.3753932 -0.38634408 5
13.678302 -7.0478096 3.5524271 32
11.562271 -5.9600682 -0.2270558 9
11.675504 -6.0210161 3.5199392 2
1.5098581 -0.78129929 -0.45552155 5
1.7183214 -0.88993233 -0.44675279 6
4.4674921 -2.3137496 0.26366857 100
2.0116127 -1.0422755 -0.44038719 40
4.4964776 -2.3307526 0.44309977 66
2.4480414 -1.2694862 -0.43676507 4
4.5073919 -2.3384063 0.6234836 58
3.0904024 -1.603966 -0.42751768 2
4.5147309 -2.3432143 0.8056376 67
4.2154689 -2.1888263 -0.41555858 3
4.5280256 -2.3521211 0.99182522 62
6.5448599 -3.4012327 -0.38655341 5
13.662752 -7.1032887 3.5551264 50
11.55914 -6.0096169 -0.22740486 8
11.674983 -6.072432 3.5261507 2
1.5054091 -0.78567117 -0.45500392 12
1.7222707 -0.89923346 -0.4485524 6
4.4664693 -2.3330288 0.26408726 100
2.004482 -1.0474725 -0.43962395 40
4.4794865 -2.3418188 0.44222823 63
2.4455686 -1.2785124 -0.43707794 4
4.5119257 -2.3597803 0.62518978 62
3.0745132 -1.6086833 -0.42605525 2
4.5047746 -2.3580432 0.80532473 62
4.209568 -2.2044523 -0.41573292 7
4.5254188 -2.3698559 0.99297011 58
6.5441594 -3.428479 -0.38718143 5
11.55226 -6.0573583 -0.2276841 10
11.634895 -6.1032772 3.5204568 3
1.4822794 -0.77986497 -0.44879225 8
42.352249 -22.292036 0.83541185 33
1.7225699 -0.90705574 -0.44945222 6
4.4710793 -2.3543415 0.26481998 100
2.0044715 -1.0559438 -0.44038719 40
4.4893222 -2.3659499 0.44397137 88
2.4236171 -1.2778283 -0.43394926 4
4.5019054 -2.3745897 0.62494606 60
3.0723906 -1.6212585 -0.42654276 2
4.5074124 -2.3785 0.80720192 71
4.1916628 -2.2128186 -0.41468704 5
4.5014944 -2.3773863 0.98953551 60
6.5321522 -3.4513013 -0.38718143 4
4.5397515 -2.3996181 1.1854922 49
11.565701 -6.1133885 -0.22834729 11
11.619717 -6.1445355 3.5220098 3
1.4795482 -0.78503424 -0.44879225 2
42.288692 -22.437979 0.83562118 33
1.7075036 -0.90636724 -0.44630289 6
4.45225 -2.3643136 0.26419193 88
2.0146437 -1.0703031 -0.44344014 42
4.4739985 -2.3778656 0.44327411 78
2.4245994 -1.2886395 -0.43488789 4
4.4834895 -2.3839138 0.6234836 60
3.0599871 -1.627709 -0.42556778 2
4.516521 -2.4034994 0.81033063 71
4.178637 -2.2246277 -0.4141641 3
4.5057168 -2.3987589 0.99220681 65
6.5136199 -3.4691885 -0.38676277 6
4.542088 -2.4201574 1.1881914 63
11.574288 -6.1697145 -0.22894068 10
11.618653 -6.1959672 3.5282214 3
1.4837508 -0.79358077 -0.4508628 1
42.241848 -22.602442 0.83624953 33
1.7026113 -0.91140229 -0.44585299 6
4.459816 -2.3883269 0.26513401 86
1.9972376 -1.0695634 -0.44038719 40
4.473114 -2.3964527 0.44397137 82
2.4287918 -1.301761 -0.43645221 5
4.4768906 -2.4004874 0.62372732 63
3.0472894 -1.634627 -0.42459282 2
4.5081034 -2.4192502 0.81033063 72
4.1796227 -2.2439125 -0.41503564 2
4.5042348 -2.4181867 0.99373329 59
6.5067496 -3.4947391 -0.38707677 6
4.521596 -2.4295413 1.1850421 30
11.559727 -6.2138658 -0.22908029 9
11.607162 -6.2419758 3.5313272 7
1.4978337 -0.80818719 -0.45603919 1
63.210606 -34.106586 1.2537111 47
1.7079939 -0.92196834 -0.4481025 6
4.4444222 -2.4000835 0.26471528 83
1.9898494 -1.0750101 -0.43962395 40
4.4713111 -2.4166205 0.44466859 82
2.4240043 -1.3106542 -0.43645221 6
4.478961 -2.4217651 0.62518978 57
3.0433109 -1.6461985 -0.42483655 3
4.492682 -2.4312112 0.80907917 71
4.1665082 -2.2556429 -0.41451269 3
4.5056996 -2.4402893 0.996023 58
6.5097013 -3.5271273 -0.38801882 5
13.537983 -7.3382921 3.5551264 34
11.541483 -6.2560849 -0.2291501 9
11.612474 -6.2971888 3.5396094 1
1.4746403 -0.80233133 -0.44982749 1
1.7097375 -0.93101817 -0.44945222 6
4.4535575 -2.4251344 0.265762 100
1.9860848 -1.0819494 -0.43962395 40
4.4523516 -2.4264932 0.44362271 82
2.4159455 -1.3172162 -0.43582645 7
4.4892249 -2.4486215 0.62787092 47
3.0459695 -1.6620959 -0.42605525 3
4.4807 -2.4449861 0.80845338 71
4.1586094 -2.2701728 -0.41451269 3
4.5006003 -2.4578843 0.9967863 46
6.5148773 -3.5594051 -0.38906553 5
13.503735 -7.3808303 3.5528769 48
11.535366 -6.3049655 -0.22946425 10
11.580253 -6.3321242 3.5365036 1
1.4786054 -0.81119066 -0.45189807 1
4.4250431 -2.4276617 0.088099748 1
1.7083489 -0.93762028 -0.44990209 5
4.446816 -2.4416268 0.2658667 100
1.9891788 -1.0926563 -0.4411504 41
4.4473472 -2.4439387 0.44397137 78
2.4132955 -1.3261719 -0.43613935 7
4.4758615 -2.4606254 0.62713969 50
3.0404408 -1.6721877 -0.42605525 4
4.4807916 -2.4653733 0.81001776 68
4.1489143 -2.2837145 -0.41433838 5
4.4855447 -2.4690082 0.99525976 47
6.4995384 -3.5790625 -0.3888562 4
13.470651 -7.4208679 3.5506275 52
11.541309 -6.3606358 -0.23002271 8
11.56823 -6.3781042 3.5396094 1
1.4759072 -0.81608945 -0.45189807 1
4.4200416 -2.445029 0.088169552 26
1.7016556 -0.94169062 -0.4490023 4
4.4435086 -2.4600363 0.26618072 100
1.9855446 -1.0992465 -0.4411504 41
4.4444466 -2.4615695 0.44449428 74
2.405196 -1.3326732 -0.43551362 8
4.4672451 -2.4762342 0.62713969 60
3.0415297 -1.6866415 -0.42703021 4
4.4842505 -2.4877071 0.81220788 71
4.144803 -2.2993934 -0.41468704 2
4.4803324 -2.4865561 0.996023 47
6.4835134 -3.5997896 -0.38864684 4
13.441257 -7.4659519 3.5497277 53
11.545256 -6.4154539 -0.2305463 9
11.56278 -6.4278331 3.544786 1
1.4831737 -0.82688057 -0.45500392 1
4.4132261 -2.4614172 0.088204466 58
1.6983582 -0.94762486 -0.4490023 5
4.4244308 -2.4696913 0.26555267 100
1.978267 -1.1042571 -0.44038719 40
4.4532228 -2.4867823 0.44623742 74
2.4005294 -1.3410608 -0.43551362 7
4.4533758 -2.4889073 0.62640852 58
3.0148318 -1.6856232 -0.42410538 4
4.4824352 -2.5072021 0.81345934 62
4.1228404 -2.3060668 -0.41329253 2
4.4784784 -2.5060153 0.99754947 48
6.47788 -3.6263018 -0.38906553 4
13.403214 -7.5061603 3.5465784 56
11.529769 -6.4596248 -0.2306859 9
11.540273 -6.4681549 3.544786 1
1.4802783 -0.83205289 -0.45500392 1
4.4237804 -2.4875884 0.088588417 99
1.69504 -0.95354742 -0.4490023 5
4.4192634 -2.4870791 0.265762 100
1.9675567 -1.1073042 -0.43886071 39
4.4445148 -2.5023119 0.44623742 59
2.4061606 -1.3552485 -0.43739083 6
4.4636841 -2.5151567 0.62908959 62
3.012388 -1.6980861 -0.42459282 4
4.4616117 -2.5160415 0.81126922 57
4.1269135 -2.3272948 -0.41451269 3
4.4799633 -2.5274208 0.99983919 49
6.4721394 -3.6528182 -0.38948423 5
13.388807 -7.559607 3.5497277 58
11.503669 -6.4978647 -0.23061611 9
11.527715 -6.5141015 3.5478914 1
1.4706421 -0.83340502 -0.45293337 1
4.4133306 -2.5020289 0.088553511 100
1.6967864 -0.96234256 -0.45035201 5
4.4244523 -2.5103753 0.26659939 100
1.9636794 -1.1141655 -0.43886071 39
4.4409513 -2.5207613 0.44676036 68
2.3962619 -1.3607131 -0.43645221 5
4.4686861 -2.5385668 0.63103956 62
3.023701 -1.718399 -0.42703021 4
4.4562359 -2.5335524 0.81189495 57
4.0997124 -2.3308539 -0.41259527 2
4.4745264 -2.5449846 1.0006025 58
6.4715004 -3.6823022 -0.39021692 5
13.3725 -7.6120806 3.5524271 63
11.501769 -6.5498557 -0.23103496 9
11.491478 -6.5466509 3.5437505 1
1.4643691 -0.83661681 -0.45189807 1
4.3976259 -2.5134501 0.088413894 100
1.68665 -0.96439052 -0.4485524 6
4.4195709 -2.5270164 0.26680872 100
1.9665949 -1.1249125 -0.44038719 40
4.4321251 -2.5362477 0.44676036 68
2.3880684 -1.3671063 -0.43582645 5
4.4563527 -2.552177 0.63055205 62
3.0211289 -1.7309171 -0.42751768 3
4.4615221 -2.5561719 0.81439793 56
4.101923 -2.3510952 -0.41364115 2
4.4622092 -2.5586352 0.99983919 61
6.46034 -3.7058635 -0.39032158 5
13.349228 -7.6606526 3.5533268 55
11.493861 -6.5959229 -0.2313142 11
11.48646 -6.5943408 3.5489268 1
1.4614397 -0.84172326 -0.45189807 1
4.3961978 -2.5320113 0.088553511 97
1.678377 -0.96705955 -0.44720268 6
4.4141836 -2.5444229 0.26701808 92
1.983065 -1.1435391 -0.44496658 43
4.4353261 -2.5586727 0.44798052 66
2.3869445 -1.3769922 -0.43645221 4
4.4409871 -2.5629721 0.6295771 52
3.022249 -1.7448963 -0.42849267 2
4.4594145 -2.5756822 0.81564939 56
4.086791 -2.3614123 -0.41294393 2
4.4587994 -2.5763645 1.0009841 50
6.4359112 -3.7202692 -0.38958889 5
13.328813 -7.7078052 3.5546765 61
11.489807 -6.6470189 -0.23169816 14
11.460027 -6.6324606 3.5478914 1
1.4586405 -0.84656501 -0.45189807 1
4.3942504 -2.551358 0.088693127 97
1.6699359 -0.96997595 -0.44585299 6
4.4018211 -2.5578091 0.26680872 81
1.9588923 -1.1382726 -0.44038719 40
4.4354286 -2.578373 0.44885206 68
2.3838308 -1.3863087 -0.43676507 3
4.432014 -2.5784581 0.6295771 50
3.0024145 -1.7474469 -0.42654276 3
4.460639 -2.5971963 0.81752664 57
4.0940175 -2.3846884 -0.41451269 5
4.4514756 -2.5929012 1.0013657 47
6.4401422 -3.7527683 -0.39063561 5
13.286674 -7.7454515 3.5506275 43
11.485536 -6.6981664 -0.2320821 12
11.450155 -6.6802111 3.5520327 1
1.4588625 -0.85385728 -0.45293337 2
4.3991241 -2.5747621 0.088972367 100
1.67663 -0.98170716 -0.4485524 7
4.3997602 -2.5771966 0.26722744 83
1.9479319 -1.1414742 -0.43886071 39
4.4345431 -2.5996506 0.44972363 78
2.3736217 -1.3920386 -0.43582645 3
4.4418221 -2.6049592 0.63225818 52
3.0048571 -1.7629392 -0.42776144 6
4.4447312 -2.6087513 0.81627518 56
4.0770779 -2.3939207 -0.41364115 2
4.4520993 -2.6151655 1.0036553 48
6.4349546 -3.7814066 -0.39115897 5
13.251476 -7.7901473 3.5488279 56
11.463808 -6.7392302 -0.232117 13
11.435093 -6.7250357 3.5546207 1
1.4458899 -0.85305434 -0.44982749 2
4.3931017 -2.5929012 0.089042179 97
1.686445 -0.99577224 -0.4521516 7
4.4040418 -2.6014316 0.2680648 81
1.9574586 -1.1562549 -0.44191366 62
4.4185805 -2.6110597 0.44902641 78
2.3772507 -1.4053421 -0.43739083 4
4.4373703 -2.6242533 0.63298941 50
2.9983754 -1.7739407 -0.42776144 3
4.4351401 -2.6250243 0.81627518 57
4.0601239 -2.4030635 -0.41276959 3
4.4513903 -2.6356919 1.0055635 52
6.4492102 -3.820132 -0.39283374 4
13.210792 -7.8284082 3.5452287 27
11.456233 -6.7913995 -0.23246606 15
11.415352 -6.7698588 3.5561738 1
1.449545 -0.86204612 -0.45189807 2
4.3754311 -2.6031082 0.088867649 91
1.6762606 -0.99766636 -0.45035201 5
4.4069467 -2.6239407 0.26879749 78
1.961845 -1.1681025 -0.44382176 7
4.4111509 -2.6274869 0.44920069 63
2.3638456 -1.4085755 -0.43582645 6
4.4298882 -2.6407433 0.63323313 47
2.9904599 -1.7833796 -0.42751768 3
4.4395213 -2.6485865 0.8187781 61
4.0448666 -2.4131382 -0.41207233 3
4.4371057 -2.6481955 1.0044186 47
4.8993297 -2.9252245 -0.29904768 4
13.180037 -7.8724761 3.5443287 52
11.435889 -6.8333993 -0.23253585 14
11.391651 -6.8096642 3.5561738 1
1.4398992 -0.86312771 -0.44982749 1
4.3611732 -2.6152802 0.088762946 71
1.6660833 -0.99950147 -0.4485524 6
4.3947959 -2.6364856 0.26858816 78
1.9543886 -1.1729228 -0.44305849 100
4.4070768 -2.6459458 0.44972363 60
2.3639948 -1.4198699 -0.43676507 7
4.413837 -2.6521008 0.63225818 47
2.9876194 -1.7958527 -0.42800516 3
4.4442582 -2.6714358 0.82128108 52
4.0466633 -2.4334035 -0.41311821 3
4.4278345 -2.6636679 1.0044186 49
4.8822436 -2.938189 -0.29862899 23
13.155817 -7.9204459 3.5452287 27
11.433724 -6.8836613 -0.23295473 14
11.378937 -6.8533831 3.5592797 1
1.4434915 -0.87214476 -0.45189807 1
4.3678803 -2.6390345 0.089077078 76
1.6644275 -1.0060289 -0.4490023 6
4.3787293 -2.6476762 0.26816946 78
1.9469229 -1.1777055 -0.44229528 62
4.4080415 -2.6675019 0.45076951 60
2.3609633 -1.4287239 -0.43707794 7
4.4101124 -2.669807 0.63298941 46
2.964668 -1.7954667 -0.42556778 4
4.4349065 -2.6869326 0.82128108 50
4.0347366 -2.4454489 -0.41276959 3
4.4307294 -2.6854594 1.00709 49
4.8400245 -2.9346874 -0.29664022 10
13.114484 -7.9549332 3.5411794 47
11.416465 -6.927681 -0.23309435 13
11.371458 -6.9030857 3.564456 1
1.4438919 -0.87893581 -0.45293337 1
4.3740134 -2.663626 0.089391224 71
1.6642342 -1.0138605 -0.44990209 5
4.3779879 -2.6681418 0.26869282 83
1.9346246 -1.1790468 -0.44038719 40
4.4008722 -2.6831422 0.4509438 57
2.3627074 -1.4410709 -0.4383294 7
4.4126282 -2.6924224 0.63469559 48
2.9668543 -1.8109756 -0.42678648 4
4.4153848 -2.6962204 0.81940383 47
4.0164027 -2.4525852 -0.41172373 3
4.4380822 -2.7111437 1.0109061 59
4.8195257 -2.9453158 -0.29601219 3
13.096611 -8.0067606 3.5438788 24
11.370363 -6.9568524 3.571703 1
1.4210552 -0.87184745 -0.44672167 2
4.3715062 -2.6830621 0.089530841 71
1.6640065 -1.0217029 -0.45080194 4
4.3737535 -2.6865437 0.26900685 89
1.9238057 -1.1816825 -0.43886071 39
4.3914795 -2.6984875 0.4509438 57
2.3576627 -1.4493096 -0.4383294 6
4.4099665 -2.7119687 0.63567054 52
2.9588242 -1.8202809 -0.42654276 4
4.4059463 -2.7116163 0.81940383 47
4.0179977 -2.4728553 -0.41276959 5
4.4302635 -2.7276483 1.0112877 67
4.8160176 -2.9663107 -0.29643089 2
13.080196 -8.0595846 3.5470283 27
4.7868099 -2.9506266 -0.098152332 24
11.329566 -6.9863605 3.5665267 1
1.4327912 -0.88594657 -0.45138043 3
4.3502092 -2.6909411 0.089286514 76
1.6637441 -1.0295562 -0.45170173 5
4.3728399 -2.707051 0.26953021 81
1.9330233 -1.1966578 -0.44191366 41
4.3803396 -2.7127514 0.45076951 60
2.3441935 -1.4523288 -0.43676507 6
4.4021606 -2.7283916 0.63591433 56
2.9693236 -1.8410585 -0.42898014 3
4.4031692 -2.7311447 0.82065529 47
4.011035 -2.4879162 -0.41294393 5
4.4090376 -2.7358503 1.0086164 64
4.8090272 -2.9852104 -0.29664022 0
13.060262 -8.1103325 3.5492778 8
4.7679882 -2.9620414 -0.09797781 24
11.30511 -7.0258656 3.5665267 1
1.4313295 -0.8919642 -0.45189807 2
4.3441834 -2.708226 0.089356326 73
1.6485654 -1.0281386 -0.4485524 6
4.3718371 -2.7275848 0.27005357 75
1.9221718 -1.1992412 -0.44038719 40
4.3877459 -2.7385745 0.45251262 55
2.3324072 -1.456318 -0.43551362 5
4.3926101 -2.7437418 0.63591433 57
2.959512 -1.8493084 -0.42849267 3
4.4137092 -2.7590628 0.82440978 51
4.0057044 -2.5040143 -0.41329253 5
4.4094486 -2.7574699 1.0109061 64
4.8019648 -3.0040975 -0.29684958 0
13.051694 -8.1682787 3.5546765 6
4.7542295 -2.9765444 -0.097907998 26
11.306712 -7.0816917 3.5748086 1
1.4283638 -0.89670581 -0.45189807 2
4.3487263 -2.7311254 0.089635558 73
1.6500971 -1.0367099 -0.44990209 7
4.3560038 -2.7378159 0.26963487 78
1.9248333 -1.2097875 -0.44191366 41
4.3853869 -2.7573516 0.45320985 66
2.3258929 -1.4629927 -0.43520072 4
4.3834877 -2.7582929 0.63591433 56
2.9365635 -1.8485368 -0.42605525 3
4.4078784 -2.7757893 0.82503545 62
4.0058088 -2.5225925 -0.4141641 5
4.4102468 -2.7783556 1.0131959 64
6.3921175 -4.0284481 -0.39597389 4
13.016294 -8.2063179 3.5524271 1
4.7443328 -2.9922934 -0.097907998 26
11.289701 -7.123271 3.5768793 2
1.4317552 -0.90581775 -0.45396861 2
4.3459253 -2.7505655 0.089775175 84
1.6530542 -1.0466335 -0.45170173 7
4.354857 -2.7583482 0.27015823 72
1.9073302 -1.2080951 -0.43886071 39
4.374052 -2.7715766 0.45303556 68
2.3274457 -1.475333 -0.43645221 3
4.3905969 -2.7842081 0.63835168 48
2.9200356 -1.8523959 -0.42459282 3
4.3914909 -2.7869244 0.82378399 61
3.9936147 -2.5344245 -0.41381544 3
4.4104662 -2.8000467 1.0154855 64
6.3982482 -4.0635853 -0.39722994 4
4.725421 -3.0034726 -0.097733475 27
11.268028 -7.1647091 3.5779145 6
1.4220687 -0.90665573 -0.45189807 2
4.3379836 -2.7667944 0.089810088 84
1.6707474 -1.0660241 -0.45755047 9
4.3519354 -2.7778308 0.27057692 70
1.8931721 -1.2084076 -0.436571 38
4.371068 -2.7911165 0.45373279 74
2.3172874 -1.4802581 -0.43551362 3
4.382524 -2.8005857 0.6385954 45
2.9369669 -1.8775467 -0.42800516 3
4.3883924 -2.8064938 0.82503545 61
3.9813867 -2.5462027 -0.41346684 3
4.4006653 -2.8154252 1.0154855 59
6.400847 -4.0966611 -0.39827666 4
4.7149081 -3.0199494 -0.097733475 27
11.265722 -7.2185893 3.5851614 1
1.4123942 -0.90743721 -0.44982749 3
4.3198881 -2.7765143 0.089635558 74
1.6522636 -1.0623641 -0.45350131 14
4.353971 -2.8005681 0.27130961 66
1.9120591 -1.2298776 -0.44191366 41
4.3562722 -2.8031232 0.45320985 66
2.315428 -1.4904764 -0.43613935 3
4.3760595 -2.8180161 0.63908291 43
2.9237201 -1.8834869 -0.42703021 2
4.3885322 -2.8282156 0.8269127 61
3.9758236 -2.5622432 -0.41381544 3
4.3908105 -2.8307693 1.0154855 43
6.4032927 -4.1298046 -0.3993234 6
4.6668553 -3.0110424 1.282221 3
4.721139 -3.0472336 -0.098082528 24
11.25344 -7.2662539 3.5893028 0
1.4157045 -0.91656142 -0.45189807 2
4.3168836 -2.7959247 0.089775175 68
1.6420035 -1.0638865 -0.45170173 6
4.3475208 -2.8179224 0.27151898 89
1.9011645 -1.2322733 -0.44038719 40
4.3648491 -2.8302357 0.45512727 74
2.3168404 -1.5028495 -0.43739083 4
4.3578701 -2.8278713 0.63786417 50
2.9171278 -1.8936809 -0.42703021 2
4.3869166 -2.848897 0.82847708 63
3.9668553 -2.5761061 -0.41381544 3
6.3670673 -4.1379824 -0.39796266 5
4.5827951 -2.9795146 1.2619754 12
11.293401 -7.3452353 -0.23515373 3
11.234484 -7.3097053 3.5913732 0
1.4222045 -0.92783099 -0.45500392 2
4.3171453 -2.8175337 0.089984603 66
1.6366481 -1.0685463 -0.4512518 4
4.3343134 -2.8308964 0.27130961 92
1.893564 -1.2367549 -0.43962395 40
4.3616147 -2.8498142 0.45582449 74
2.3049664 -1.5066046 -0.43613935 8
