# .PCD v0.7 - Point Cloud Data file format
VERSION 0.7
FIELDS x y z intensity
SIZE 4 4 4 4
TYPE F F F F
COUNT 1 1 1 1
WIDTH 1318
HEIGHT 1
VIEWPOINT 0 0 0 1 0 0 0
POINTS 1318
DATA ascii
-2.3529892 -0.51604742 -0.46824533 100
-6.5665116 -1.4389362 0.5881269 11
-2.8983572 -0.6345942 -0.46992919 6
-6.1648121 -1.3486559 0.77484536 10
-3.7855215 -0.82745391 -0.47577798 5
-11.532999 -2.5188186 1.869705 32
-5.5241871 -1.206488 -0.49469596 9
-11.516368 -2.5130806 2.2912345 36
-5.8542395 -1.2764311 -0.31401578 16
-11.55396 -2.5170596 2.730006 38
-5.8090706 -1.2644573 -0.10377201 1
-11.477352 -2.4961743 3.1472397 54
-1.7277237 -0.37354699 -0.47363886 2
-6.0592847 -1.3089565 0.10820492 3
-1.9848779 -0.42842105 -0.46879801 5
-6.7142129 -1.4479846 0.35996673 5
-2.3547764 -0.5078302 -0.46824533 6
-2.9082789 -0.62613678 -0.47118065 6
-6.2471099 -1.3438269 0.78459489 11
-3.7883868 -0.81423479 -0.47577798 4
-11.51082 -2.4719124 1.8646991 31
-5.5244689 -1.1863621 -0.49434736 9
-11.513553 -2.4703944 2.2889447 36
-5.8430362 -1.2526387 -0.31317839 12
-11.532189 -2.4701798 2.7228076 38
-5.7821622 -1.2374777 -0.10321353 1
-11.514332 -2.4621549 3.1550043 47
-1.7233483 -0.36630881 -0.47208595 3
-6.0638165 -1.2877989 0.10820492 3
-1.9901741 -0.42229888 -0.4696978 5
-6.5531502 -1.3893288 0.35106963 12
-2.3411703 -0.4963499 -0.46519238 100
-2.9220424 -0.61843449 -0.4730579 6
-6.3741179 -1.3478855 0.79995042 7
-3.701864 -0.7821306 -0.46456599 5
-11.488455 -2.4251857 1.8596932 32
-5.5305257 -1.1674811 -0.49452168 9
-11.502897 -2.4261377 2.2851286 36
-5.8454189 -1.2318245 -0.31307372 15
-11.515949 -2.4246926 2.716959 39
-5.7629642 -1.2123464 -0.10279468 1
-11.50206 -2.4175785 3.1493101 33
-1.7113791 -0.35752594 -0.4684625 3
-6.044785 -1.2617211 0.10778606 3
-1.9973593 -0.41654232 -0.47104752 5
-6.1062937 -1.2723358 0.32689041 10
-2.3448102 -0.48857561 -0.46557397 100
-6.2886343 -1.3091841 0.56198025 28
-2.9222496 -0.60782862 -0.472745 5
-6.3029857 -1.3098766 0.79044467 6
-3.6171076 -0.75104314 -0.45359772 9
-11.473639 -2.3802531 1.8559387 30
-5.518961 -1.144931 -0.4931272 9
-11.488226 -2.381191 2.2805493 33
-5.8418603 -1.2097911 -0.31265503 14
-11.503352 -2.380136 2.7120099 39
-5.7358279 -1.1857464 -0.1022362 1
-11.474483 -2.3699865 3.1394751 31
-1.7069396 -0.35038456 -0.46690959 3
-6.0373993 -1.2382011 0.10757664 3
-1.9949828 -0.40878573 -0.47014773 5
-6.120481 -1.2530158 0.3274138 5
-2.3484247 -0.48078138 -0.46595559 100
-6.2716947 -1.2828311 0.56006277 7
-2.9108057 -0.59485632 -0.47055492 6
-6.3775377 -1.302163 0.79921919 13
-3.7461348 -0.76420236 -0.46944076 4
-11.462523 -2.3362458 1.85281 29
-5.5229235 -1.1256604 -0.4931272 9
-11.457994 -2.33324 2.2729168 34
-5.8343048 -1.1870024 -0.31202701 14
-11.486764 -2.3349204 2.7061613 41
-5.7516899 -1.1681052 -0.10244562 1
-11.461862 -2.3256927 3.1337812 32
-1.723302 -0.34747875 -0.47105068 3
-6.026001 -1.213961 0.1072974 3
-1.9925765 -0.40105036 -0.46924794 5
-6.1541886 -1.2375498 0.32898384 5
-2.3616374 -0.4749032 -0.46824533 100
-6.3796625 -1.2817321 0.56930131 17
-2.9109275 -0.58430326 -0.47024205 6
-11.446417 -2.2955301 1.4334273 9
-3.8266356 -0.76672167 -0.47919029 4
-11.455112 -2.2931175 1.8503071 28
-5.5248656 -1.1059836 -0.49295285 9
-11.439116 -2.2878366 2.2675743 35
-5.8090343 -1.1607592 -0.31045693 13
-11.462357 -2.2883267 2.6985128 38
-5.7753439 -1.1519309 -0.10279468 1
-11.460436 -2.2837811 3.1311929 30
-1.7226094 -0.34108594 -0.47053304 3
-6.0145092 -1.1898143 0.10701816 3
-1.982494 -0.39182541 -0.4665485 5
-6.33286 -1.250495 0.33829966 8
-2.3709846 -0.4681778 -0.46977177 100
-6.5737047 -1.2968607 0.58620954 8
-2.9129493 -0.57413858 -0.47024205 6
-11.429041 -2.2505772 1.4302588 6
-3.8176019 -0.75106025 -0.47772786 3
-11.437849 -2.2481647 1.8462398 28
-5.5501971 -1.0909182 -0.49487031 9
-11.427767 -2.2441089 2.2637579 35
-5.8052111 -1.138938 -0.31003824 18
-11.441589 -2.242676 2.6917644 38
-5.7440057 -1.1248466 -0.10216638 1
-11.445586 -2.2393141 3.1249812 27
-1.7275823 -0.33580804 -0.47156835 2
-6.0068474 -1.166525 0.10680873 3
-2.0048933 -0.38898611 -0.47149745 5
-6.1803255 -1.197976 0.32992589 13
-2.339839 -0.45354748 -0.46328428 100
-6.5801477 -1.2742848 0.58638382 11
-2.9188149 -0.56471664 -0.47086781 7
-6.3849773 -1.2341769 0.79848802 10
-3.8182516 -0.73735332 -0.47748414 4
-11.408774 -2.2011123 1.8402953 27
-5.5500588 -1.0707814 -0.49452168 9
-11.408543 -2.1990054 2.2584155 33
-5.8091512 -1.1186669 -0.31003824 13
-11.424471 -2.1979373 2.6859155 38
-5.7518244 -1.1055455 -0.1022362 1
-11.432466 -2.1953404 3.1192875 28
-1.7040746 -0.32506961 -0.46483904 3
-6.0108824 -1.1455513 0.10680873 3
-2.0062392 -0.38198486 -0.47149745 6
-6.3080802 -1.199908 0.33652022 16
-2.3549087 -0.44794512 -0.46595559 100
-6.4651561 -1.2286192 0.57575083 23
-2.9246495 -0.55526221 -0.47149354 6
-11.41912 -2.1659234 1.4270902 7
-3.8188515 -0.72365183 -0.47724038 4
-11.396979 -2.157603 1.8371665 30
-5.5400596 -1.0488086 -0.49330151 9
-11.404574 -2.1569793 2.2561257 34
-5.7894707 -1.093931 -0.30878216 13
-11.405265 -2.1529868 2.6796169 39
-5.7399282 -1.0824963 -0.10195696 1
-11.394496 -2.1468325 3.106864 32
-1.7089968 -0.31983039 -0.46587428 3
-5.9873261 -1.1194159 0.10632006 3
-2.0018134 -0.37390596 -0.47014773 5
-6.1728311 -1.1518704 0.32908851 15
-2.3525982 -0.43900248 -0.46519238 100
-6.6515598 -1.24 0.5919618 10
-2.918802 -0.54360306 -0.47024205 5
-11.393434 -2.1198795 1.4229466 24
-3.8291612 -0.7117672 -0.47821537 4
-11.394731 -2.1160033 1.8356022 16
-5.5436869 -1.0294636 -0.49330151 9
-11.377288 -2.1107104 2.2492564 33
-5.7814708 -1.0715326 -0.30815417 12
-11.405046 -2.1117423 2.6778173 39
-5.7436719 -1.0624535 -0.10195696 1
-11.384823 -2.103888 3.1022053 34
-1.7215034 -0.31595531 -0.4689801 3
-5.9597268 -1.0927391 0.10576159 3
-1.9992723 -0.36621419 -0.46924794 5
-6.1041226 -1.1170139 0.32521567 15
-2.3618407 -0.43220121 -0.46671882 100
-6.7930412 -1.2418547 0.60416359 17
-2.9187384 -0.53305697 -0.46992919 6
-11.375377 -2.0754611 1.419778 7
-3.8238106 -0.69697261 -0.47724038 4
-11.386499 -2.073384 1.8330992 8
-5.5550871 -1.0115337 -0.49399874 9
-11.353683 -2.0653613 2.2431507 33
-5.7537351 -1.0456311 -0.30647939 12
-11.391256 -2.068089 2.6728685 39
-5.7079935 -1.0352604 -0.10125886 1
-11.371187 -2.0603459 3.0965111 30
-1.7359052 -0.31233847 -0.47260359 2
-5.9556317 -1.0705152 0.10562197 3
-1.9986206 -0.35888875 -0.46879801 6
-6.379076 -1.1454793 0.33966038 10
-2.3633351 -0.42395356 -0.46671882 100
-6.6659384 -1.1945875 0.59248471 11
-2.9225256 -0.52321345 -0.47024205 5
-7.361043 -1.3165039 0.91816372 8
-3.8262203 -0.68362069 -0.47724038 4
-7.5235925 -1.3442204 1.21049 13
-5.5546613 -0.99143779 -0.49365011 9
-11.345361 -2.0229595 2.2400978 33
-5.755383 -1.0251899 -0.3063747 12
-11.363871 -2.0221677 2.6647701 41
-5.7113953 -1.0163262 -0.10125886 1
-11.358936 -2.0192447 3.0913348 30
-1.7293748 -0.30493566 -0.47053304 2
-5.9552102 -1.050065 0.10555216 3
-1.9997997 -0.35225901 -0.46879801 5
-6.7725091 -1.1917397 0.36038542 20
-2.3570664 -0.41434178 -0.46519238 100
-6.5640998 -1.1527045 0.58307195 20
-2.9320273 -0.51488572 -0.47149354 5
-7.244144 -1.2708203 0.90305191 7
-3.8167343 -0.66887265 -0.47577798 4
-7.2869611 -1.2757117 1.1716943 5
-5.5580883 -0.97204083 -0.49365011 9
-11.344271 -1.9839724 2.2385712 34
-5.7390761 -1.0026612 -0.30532798 12
-11.337878 -1.9787791 2.6571219 41
-5.7149076 -0.99638331 -0.10125886 1
-11.346885 -1.9762672 3.0861585 30
-1.7265694 -0.29854035 -0.46949777 2
-5.9470162 -1.0272286 0.10534272 3
-2.0067782 -0.34627032 -0.47014773 5
-6.7628503 -1.1657152 0.35965273 24
-2.3584275 -0.40652308 -0.46519238 100
-2.9260194 -0.5033083 -0.47024205 5
-7.3072281 -1.2556107 0.91036409 6
-3.8307846 -0.65756148 -0.47724038 4
-7.3556194 -1.2612846 1.182019 12
-5.5455713 -0.95091158 -0.49225563 9
-11.327906 -1.9403837 2.2339919 35
-5.7405729 -0.98228639 -0.30522332 10
-11.325509 -1.9359041 2.6526229 42
-5.6513319 -0.96498448 -0.1000721 1
-11.332765 -1.9330764 3.0804644 25
-1.73522 -0.29380211 -0.47156835 2
-5.9269052 -1.0024614 0.10492387 3
-2.0079749 -0.33926269 -0.47014773 5
-6.7767248 -1.1437647 0.36017609 15
-2.3675754 -0.39959556 -0.46671882 100
-6.2161899 -1.0480429 0.55152148 27
-2.9180188 -0.49145037 -0.4686777 5
-11.328523 -1.9059101 1.4105159 7
-3.8448026 -0.64615947 -0.47870281 4
-7.4340062 -1.248027 1.193908 8
-5.5351028 -0.92923748 -0.49103546 9
-11.305568 -1.8959619 2.2282674 41
-5.7301784 -0.95993203 -0.30449063 12
-11.316822 -1.8937857 2.6490238 45
-5.6664996 -0.94723123 -0.10028153 1
-11.297524 -1.8865055 3.0690763 21
-1.736235 -0.28774321 -0.47156835 2
-5.9185319 -0.97980827 0.10471445 3
-1.9956882 -0.33002627 -0.46699843 4
-6.5185928 -1.0768087 0.34625471 30
-2.3689559 -0.39132869 -0.46671882 100
-6.0684438 -1.0013604 0.53809953 8
-2.9197164 -0.48126218 -0.4686777 5
-7.4000406 -1.2184356 0.92084479 9
-3.8352821 -0.6308006 -0.47724038 4
-11.295872 -1.8558449 1.8130757 8
-5.5442104 -0.91088098 -0.49155837 9
-11.271433 -1.8498093 2.2202537 34
-5.7216687 -0.93798393 -0.3038626 12
-11.302208 -1.8508091 2.6440747 34
-5.638196 -0.92228043 -0.099723049 1
-11.284975 -1.8439399 3.0639 26
-1.7410425 -0.28229961 -0.47260359 2
-5.9179678 -0.95850164 0.10464463 3
-2.004523 -0.32430291 -0.46879801 4
-2.3799982 -0.38462311 -0.46862692 100
-6.0896044 -0.98302907 0.53966838 17
-2.9311297 -0.47263977 -0.47024205 5
-7.1847472 -1.1572421 0.8935461 8
-3.8198216 -0.61457199 -0.47504675 5
-11.274976 -1.8120149 1.8086954 20
-5.5473561 -0.89152235 -0.49155837 9
-11.262313 -1.8079637 2.2172008 34
-5.7091312 -0.91547728 -0.30302522 12
-11.285509 -1.8076469 2.6386759 28
-5.6295338 -0.90069681 -0.09951362 1
-11.283711 -1.8033197 3.0618296 31
-1.7343853 -0.27501032 -0.47053304 2
-5.9133778 -0.93658692 0.10450501 3
-2.0094924 -0.31791282 -0.4696978 4
-6.0169744 -0.95084363 0.31924936 10
-2.3638735 -0.37355554 -0.46519238 100
-6.0556068 -0.95586395 0.53635645 22
-2.9405668 -0.46363592 -0.47149354 5
-11.277267 -1.7760574 1.4017414 4
-3.8258655 -0.60185146 -0.47553423 5
-11.255864 -1.7686603 1.8046281 16
-5.5504346 -0.87215281 -0.49155837 9
-11.313165 -1.7756411 2.2259779 20
-5.7083459 -0.89492428 -0.30281588 12
-11.330256 -1.7742717 2.6476738 19
-5.6207895 -0.87918764 -0.099304192 1
-11.255582 -1.7585531 3.0525119 32
-1.7219714 -0.2668829 -0.46690959 3
-5.8889451 -0.9116565 0.10401635 3
-2.0182934 -0.31208807 -0.47149745 4
-5.9472246 -0.91855317 0.31537652 2
-2.3729239 -0.36649981 -0.46671882 6
-6.0549674 -0.93411219 0.53600776 26
-2.9382625 -0.45276752 -0.47086781 6
-11.253968 -1.7321515 1.3980851 17
-3.8299053 -0.58879459 -0.47577798 4
-7.4936609 -1.1507092 1.2007911 17
-5.5475368 -0.8518669 -0.49103546 10
-11.34064 -1.7394136 2.2301757 70
-5.7213063 -0.87650508 -0.30333924 12
-11.338305 -1.7350051 2.6481237 53
-5.6277771 -0.86016607 -0.099374004 1
-11.234915 -1.7151711 3.045265 29
-1.7419932 -0.26376256 -0.47208595 3
-5.8149796 -0.87943393 0.10265506 4
-2.0232244 -0.30562258 -0.47239724 3
-6.1814585 -0.93265039 0.32762313 20
-2.381954 -0.35938612 -0.46824533 6
-6.0148482 -0.90644032 0.53217298 27
-2.9320116 -0.44133142 -0.46961632 5
-11.242278 -1.6902006 1.3958915 6
-3.8476415 -0.5777812 -0.47772786 4
-7.4761434 -1.1213193 1.1973495 19
-5.5544176 -0.83308673 -0.49138409 13
-11.366058 -1.7027251 2.2339919 65
-5.7243309 -0.85652983 -0.30333924 14
-11.407895 -1.7049216 2.6629705 52
-5.614924 -0.83815438 -0.099094771 1
-11.215994 -1.6722424 3.0385358 30
-1.7295257 -0.25570279 -0.4684625 3
-5.812079 -0.85825396 0.10255034 14
-2.003072 -0.29543051 -0.46744829 3
-6.0048661 -0.88458061 0.31809795 5
-2.383194 -0.35106984 -0.46824533 6
-5.9765811 -0.87934834 0.52851242 16
-2.9315801 -0.43080685 -0.46930346 6
-7.0155845 -1.0297177 0.87063468 8
-3.8358865 -0.56233037 -0.47602168 4
-7.4721942 -1.0940709 1.1960981 17
-5.5632057 -0.8145588 -0.49190697 13
-13.605912 -1.9897414 2.6728525 21
-5.7035704 -0.83307755 -0.30208316 12
-12.825315 -1.8710111 2.9922991 16
-5.6098995 -0.8173973 -0.09895514 1
-11.210293 -1.6314088 3.03543 29
-1.7380559 -0.25076753 -0.47053304 3
-5.7992053 -0.8356775 0.1022711 26
-2.0098777 -0.28926995 -0.46879801 4
-5.9108992 -0.85072124 0.31296906 17
-2.3805182 -0.34219003 -0.46748206 6
-6.017086 -0.863859 0.53182435 8
-2.9408875 -0.42169324 -0.47055492 6
-7.0132408 -1.0043781 0.86990345 16
-3.8181751 -0.54612637 -0.47358429 4
-7.5070691 -1.0737611 1.2011039 11
-5.5719323 -0.79598123 -0.49242991 10
-13.690517 -1.9533278 2.6881173 43
-5.6846938 -0.81006378 -0.30093178 12
-12.818262 -1.8243115 2.9891498 22
-5.6125789 -0.79878944 -0.09895514 1
-11.211817 -1.5936811 3.0343947 24
-1.7370077 -0.24442981 -0.47001541 3
-5.8435287 -0.82229495 0.10300411 3
-2.0166152 -0.28341696 -0.47014773 3
-5.8940539 -0.82730681 0.31192234 16
-2.3680885 -0.33197045 -0.46481073 100
-6.3614182 -0.8906433 0.56198025 17
-2.946182 -0.41248623 -0.47118065 6
-7.0204644 -0.98166519 0.87039089 27
-3.8297951 -0.53483444 -0.474803 4
-11.177138 -1.5589117 1.7874204 31
-5.5648103 -0.77515215 -0.49155837 9
-11.314932 -1.5761173 2.2206352 19
-5.6754789 -0.78955674 -0.30030376 11
-11.309034 -1.571272 2.6359763 51
-5.583642 -0.77479535 -0.098396674 1
-11.184781 -1.5500264 3.0255947 22
-1.7378088 -0.23866826 -0.47001541 3
-5.8721189 -0.80542463 0.10345787 3
-2.0272458 -0.27769822 -0.47239724 4
-5.8988848 -0.80699813 0.31202701 21
-2.3691764 -0.32411566 -0.46481073 100
-6.4492211 -0.88114047 0.56947559 22
-2.9417322 -0.40139836 -0.47024205 6
-7.0179477 -0.9563489 0.86965966 15
-3.8395066 -0.52253425 -0.47577798 5
-11.155108 -1.5161619 1.7830403 32
-5.5576105 -0.75438249 -0.4906868 9
-11.295074 -1.533178 2.2156742 70
-5.6782002 -0.76974195 -0.30030376 12
-11.308658 -1.531002 2.6346269 54
-5.5902758 -0.75583446 -0.098466478 1
-11.157576 -1.5065795 3.0167949 26
-1.7233531 -0.23025055 -0.46587428 3
-5.851109 -0.78174406 0.10303901 3
-2.0282028 -0.27062005 -0.47239724 5
-5.8620701 -0.78112602 0.30993357 27
-2.3722947 -0.315689 -0.46519238 100
-6.1423283 -0.81628877 0.54210871 8
-2.9314346 -0.38905433 -0.46836486 6
-6.9464655 -0.92192143 0.86039764 10
-3.8550825 -0.51095438 -0.47748414 5
-11.146626 -1.4753994 1.7808502 34
-5.5621853 -0.73523921 -0.49086115 9
-11.312296 -1.4933106 2.2179639 10
-5.6611824 -0.74631464 -0.29925704 12
-5.5809846 -0.73474991 -0.09825705 3
-11.14936 -1.465863 3.0131714 31
-1.7298936 -0.22498094 -0.46742722 4
-5.8380713 -0.75823438 0.10275977 3
-2.0156529 -0.26142991 -0.46924794 5
-5.8747978 -0.76091784 0.31045693 12
-2.3792229 -0.30816263 -0.46633717 6
-5.8783898 -0.76034147 0.51857668 11
-2.9406111 -0.37983143 -0.46961632 7
-6.908453 -0.89112192 0.85527909 12
-3.8549602 -0.4965677 -0.47724038 5
-11.136285 -1.4325187 1.7783473 34
-5.5668192 -0.7151016 -0.49103546 9
-11.305757 -1.4523131 2.2156742 5
-5.6518669 -0.72502261 -0.29862899 13
-11.31739 -1.4497923 2.634177 4
-5.5836401 -0.71429092 -0.09825705 1
-11.139327 -1.4230273 3.0090303 31
-1.7498727 -0.22106028 -0.47260359 3
-5.848618 -0.73885208 0.10289939 3
-2.0068862 -0.25317279 -0.46699843 5
-5.8080621 -0.7316705 0.30679342 22
-2.3842323 -0.29993036 -0.46710047 100
-5.4620447 -0.68614298 0.48162264 15
-2.9380634 -0.36855993 -0.46899059 7
-6.948945 -0.87169749 0.85991013 9
-3.8468215 -0.48187456 -0.47602168 5
-11.123575 -1.3914299 1.7755314 35
-5.5673041 -0.69541961 -0.49086115 9
-11.287625 -1.4079494 2.2110946 5
-5.6247568 -0.70060086 -0.29705891 13
-11.291686 -1.4044508 2.6269784 4
-5.5583181 -0.69133908 -0.097768381 1
-11.125056 -1.3817565 3.003854 32
-1.7467614 -0.2147851 -0.47156835 2
-5.8233743 -0.71502012 0.10241073 3
-2.0232317 -0.24806356 -0.47059759 5
-5.5804958 -0.68421119 0.29465145 35
-2.3735213 -0.2905913 -0.46481073 6
-5.5157089 -0.67431229 0.48615471 9
-2.9373085 -0.3585754 -0.4686777 7
-7.0366774 -0.85776269 0.87039089 10
-3.8445392 -0.46796387 -0.47553423 5
-11.092832 -1.3502384 1.7698997 32
-5.5695796 -0.67695373 -0.49086115 9
-11.272743 -1.3681448 2.2072787 4
-5.6230841 -0.6814639 -0.29684958 13
-11.273066 -1.3641913 2.6215794 6
-5.5605798 -0.67290437 -0.097768381 3
-11.106562 -1.3420753 2.9976423 31
-1.7244818 -0.20593709 -0.46535668 1
-5.8098283 -0.69380796 0.10213149 3
-2.0279136 -0.24181435 -0.47149745 4
-5.7018456 -0.67889559 0.30093178 11
-2.3803699 -0.28299907 -0.46595559 6
-5.5833187 -0.66280669 0.49190697 9
-2.926712 -0.34743568 -0.46680051 8
-11.104287 -1.3162464 1.3729801 21
-3.8539553 -0.4561455 -0.47650915 5
-11.079823 -1.3094249 1.7670839 33
-5.554101 -0.65540659 -0.48929232 9
-11.261621 -1.3289171 2.2042258 5
-5.6312637 -0.66351432 -0.29716361 14
-11.262045 -1.3249791 2.6179802 4
-5.5470066 -0.65162361 -0.097489148 1
-11.084317 -1.3001471 2.9903955 31
-1.7251552 -0.20021772 -0.46535668 2
-5.8122149 -0.67352486 0.10213149 3
-2.0229378 -0.23406212 -0.47014773 3
-5.7696548 -0.66655076 0.30438596 31
-2.3773949 -0.27465323 -0.46519238 6
-5.4706893 -0.631046 0.48179695 9
-2.9082832 -0.33495721 -0.46367183 8
-7.4880471 -0.86109877 0.9254759 6
-3.8417189 -0.44110563 -0.474803 5
-11.062737 -1.2682658 1.7636423 33
-5.5661407 -0.63811928 -0.49016386 9
-11.225229 -1.2849069 2.1962116 5
-5.6236234 -0.64271933 -0.29664022 13
-11.262729 -1.2852197 2.6170807 4
-5.5293794 -0.62999308 -0.097140096 1
-11.065754 -1.258827 2.9841838 32
-1.7296829 -0.19462654 -0.46639192 2
-5.806582 -0.65233922 0.10199186 13
-2.0218058 -0.22678204 -0.4696978 4
-5.6012487 -0.62729138 0.29538417 30
-2.3939476 -0.26810142 -0.46824533 6
-5.4847393 -0.6132741 0.48284283 13
-2.893729 -0.32304996 -0.46116886 11
-11.081639 -1.2351706 1.3690803 5
-3.8530998 -0.42879054 -0.47602168 5
-11.065134 -1.2294209 1.7633295 29
-5.5604134 -0.61780441 -0.48946664 9
-11.214036 -1.2439837 2.1931586 5
-5.6020107 -0.62044811 -0.29538417 12
-11.232282 -1.2420392 2.6089823 6
-5.5434704 -0.61200458 -0.097349517 1
-11.062399 -1.2193483 2.9821131 31
-1.726511 -0.18816899 -0.46535668 2
-5.7889438 -0.62990314 0.10164282 3
-2.0148358 -0.21888135 -0.46789822 5
-5.5954618 -0.60687399 0.29496548 28
-2.3831577 -0.25847313 -0.46595559 6
-5.7681217 -0.62458187 0.50759506 9
-2.8850193 -0.31188464 -0.45960453 12
-6.5544271 -0.70740986 0.80945623 4
-3.8348365 -0.41321132 -0.47358429 5
-11.049718 -1.1886758 1.7602009 30
-5.5882888 -0.60116136 -0.49173269 9
-11.194885 -1.2023185 2.1885793 5
-5.5922279 -0.599612 -0.29475614 14
-11.224923 -1.2015789 2.6062829 6
-5.5256886 -0.5905267 -0.097000472 1
-11.051221 -1.1790833 2.977972 31
-1.7348419 -0.18295155 -0.46742722 2
-5.7990618 -0.61053085 0.10178243 3
-2.0136495 -0.21164314 -0.46744829 5
-5.5955601 -0.58712995 0.29486081 26
-2.3801405 -0.24974298 -0.46519238 7
-5.7544141 -0.60278422 0.50620055 15
-2.8880548 -0.30201823 -0.45991737 10
-6.5252666 -0.68122816 0.80555642 10
-3.8382304 -0.40002748 -0.47382805 6
-11.026294 -1.1472383 1.7558208 28
-5.5784626 -0.58041501 -0.4906868 7
-11.191204 -1.1624222 2.187053 5
-5.6062059 -0.58132225 -0.29538417 15
-11.201912 -1.1595824 2.5999844 4
-5.5436296 -0.57287914 -0.097279713 1
-11.036054 -1.1385175 2.9727957 31
-1.7316262 -0.17650327 -0.46639192 2
-5.7932005 -0.58947337 0.10164282 3
-2.0279472 -0.20599139 -0.47059759 4
-5.5359759 -0.56134915 0.29161596 20
-2.3809979 -0.24143372 -0.46519238 7
-5.6930509 -0.57627153 0.50062257 11
-2.8655071 -0.28955194 -0.45616296 11
-6.3913255 -0.6447013 0.78873843 10
-3.8435531 -0.38702568 -0.47431552 6
-11.006644 -1.1063712 1.7520663 30
-5.562614 -0.55914545 -0.48911804 7
-11.191285 -1.1229582 2.1862895 5
-5.6201248 -0.56294501 -0.29601219 14
-11.198134 -1.1196975 2.5981846 6
-5.515748 -0.55054414 -0.096756138 1
-11.009203 -1.0969254 2.9645135 32
-1.739922 -0.1712144 -0.4684625 1
-5.7832823 -0.56807464 0.10143339 3
-2.0170174 -0.19777073 -0.46789822 4
-5.6273518 -0.55077499 0.29632622 10
-2.38378 -0.23331161 -0.46557397 6
-5.4610405 -0.53353512 0.48005384 9
-2.8468401 -0.2776303 -0.45303425 9
-6.3303132 -0.61623114 0.78093886 14
-3.8508081 -0.37418267 -0.47504675 6
-11.000609 -1.0669903 1.7505019 32
-5.584362 -0.54164821 -0.49086115 9
-11.158009 -1.0802914 2.1790388 4
-5.6021757 -0.54140228 -0.29496548 14
-11.190336 -1.0794789 2.5954852 6
-5.5295796 -0.5324384 -0.096965574 1
-10.991811 -1.056456 2.9588194 33
-1.7597413 -0.16696417 -0.47363886 1
-5.7812476 -0.54750788 0.10136358 3
-2.0157552 -0.19054535 -0.46744829 3
-5.7962675 -0.54688776 0.30511865 31
-2.3943527 -0.22591124 -0.46748206 6
-5.4251804 -0.51091981 0.47674191 12
-2.8517253 -0.26806161 -0.45366001 8
-6.4312458 -0.60340202 0.79312575 10
-3.8520911 -0.36073846 -0.47504675 5
-10.982632 -1.0265619 1.7470603 34
-5.5782838 -0.52140993 -0.49016386 10
-11.149984 -1.0402416 2.1767492 4
-5.5761905 -0.51925105 -0.29350007 15
-11.170753 -1.0382464 2.5900865 6
-5.5234394 -0.51239431 -0.09682595 1
-10.987738 -1.0173682 2.956749 33
-1.7487704 -0.15976633 -0.47053304 2
-5.7592273 -0.52514511 0.10094472 3
-2.0183489 -0.18368399 -0.46789822 3
-5.593267 -0.50804251 0.29433745 26
-2.3912163 -0.21719678 -0.46671882 6
-5.8793402 -0.53299373 0.51648492 12
-2.905762 -0.26291093 -0.46210748 6
-6.3285298 -0.57148665 0.78020763 11
-3.8493724 -0.34693441 -0.47455928 6
-10.970408 -0.98680294 1.7445574 34
-5.5741167 -0.50139928 -0.48964092 9
-11.139859 -1.0000855 2.174078 5
-5.5660329 -0.49871504 -0.29287204 15
-11.147135 -0.99681646 2.5837879 6
-5.4893427 -0.4899109 -0.096197665 1
-10.975828 -0.97763616 2.9526079 33
-1.7493173 -0.15366095 -0.47053304 2
-5.7331362 -0.5025934 0.10045605 3
-2.0228605 -0.17697714 -0.46879801 3
-5.5392947 -0.48365217 0.29140663 12
-2.3763132 -0.2074829 -0.46366587 7
-5.3829632 -0.46905574 0.47273275 9
-2.9440529 -0.2560178 -0.46805197 6
-6.3878379 -0.55437112 0.78727603 14
-3.848582 -0.33332315 -0.47431552 6
-10.938361 -0.94544089 1.7389257 30
-5.5738482 -0.48176721 -0.48946664 9
-11.133502 -0.96035278 2.1721697 5
-5.57371 -0.47979531 -0.29318607 16
-11.107831 -0.95422989 2.57389 6
-5.4910192 -0.47074771 -0.096197665 1
-10.956077 -0.93734103 2.9463961 33
-1.7344428 -0.14625511 -0.46639192 2
-5.6212745 -0.4730188 0.098466478 29
-2.0312333 -0.17056765 -0.47059759 3
-5.7081332 -0.47832271 0.30019906 27
-2.3770232 -0.19918668 -0.46366587 6
-5.412364 -0.45258576 0.47517309 11
-2.9488657 -0.24606872 -0.4686777 6
-6.3917127 -0.53223461 0.78751975 18
-3.847744 -0.31972256 -0.47407177 5
-5.5635824 -0.46132126 -0.48842075 9
-5.5653987 -0.45951468 -0.29266271 15
-5.4687133 -0.44960994 -0.095778808 1
-10.932326 -0.89687967 2.9391494 33
-1.7272404 -0.13957782 -0.46432137 2
-5.6149182 -0.45275232 0.098326862 32
-2.0337589 -0.16363253 -0.47104752 3
-6.3269329 -0.50794059 0.33264738 8
-2.3933597 -0.19214436 -0.46671882 6
-5.352344 -0.42875952 0.46976945 11
-2.9398613 -0.23498674 -0.46711335 5
-6.3757219 -0.50849795 0.78532612 16
-3.8686249 -0.30786505 -0.47650915 5
-6.7523136 -0.53616303 1.0728277 17
-5.5393386 -0.43984756 -0.48615471 7
-11.022509 -0.87329668 2.1492727 51
-5.5550222 -0.43914175 -0.29203469 14
-5.4901853 -0.43208662 -0.09612786 1
-10.916131 -0.85720325 2.9339728 32
-1.7469783 -0.13503616 -0.46949777 1
-5.6344085 -0.43453357 0.098641008 37
-2.0129447 -0.15488775 -0.46609858 3
-5.3210196 -0.40849626 0.27968338 20
-2.3979306 -0.18408987 -0.46748206 6
-5.3776469 -0.41189954 0.47186115 22
-2.938694 -0.22457267 -0.46680051 4
-6.3695407 -0.48563716 0.78435117 14
-3.8498821 -0.29285339 -0.47407177 6
-6.7305074 -0.51079416 1.0690732 14
-5.5428271 -0.42065829 -0.48632905 7
-5.5286388 -0.41764203 -0.29056925 14
-11.049202 -0.83273196 2.5581434 1
-5.4717188 -0.41142145 -0.095778808 1
-10.907497 -0.81822628 2.930867 32
-1.7435858 -0.12865287 -0.4684625 1
-5.6139536 -0.41324815 0.09825705 37
-2.0154166 -0.148003 -0.4665485 3
-5.6928372 -0.41805595 0.29915234 21
-2.396601 -0.1755749 -0.46710047 6
-5.313478 -0.38833296 0.46610889 17
-2.9473405 -0.21488783 -0.46805197 4
-6.3137813 -0.45922413 0.77728271 11
-3.8508322 -0.28008497 -0.47407177 6
-6.8129425 -0.49433464 1.081901 15
-5.5522103 -0.40188414 -0.48702627 9
-11.028337 -0.79632634 2.1492727 1
-5.5240874 -0.3979103 -0.29025525 16
-11.024691 -0.79412907 2.5518448 4
-5.4531078 -0.3918409 -0.095429763 1
-10.902444 -0.78149831 2.9287965 31
-1.7517112 -0.12341322 -0.47053304 1
-5.5993352 -0.39350763 0.09797781 21
-2.0217283 -0.14172806 -0.46789822 3
-5.8615513 -0.41090894 0.3079448 12
-2.3795435 -0.16639388 -0.46366587 6
-5.3226871 -0.37126505 0.46680617 12
-2.951978 -0.2053877 -0.4686777 4
-6.4459705 -0.44735488 0.79336947 9
-3.8438187 -0.26676372 -0.47309685 6
-6.842133 -0.47364902 1.0862811 15
-5.5435743 -0.38278368 -0.48615471 9
-11.028957 -0.7596153 2.148891 18
-5.5233836 -0.37945247 -0.29015055 16
-11.005877 -0.75609583 2.5468957 14
-5.450387 -0.37348196 -0.095359951 1
-10.885701 -0.74402243 2.92362 31
-1.7405457 -0.11682734 -0.46742722 2
-5.5726762 -0.3730672 0.097489148 17
-2.0319092 -0.13567205 -0.47014773 5
-5.5660157 -0.37066987 0.29234868 6
-2.387918 -0.15902385 -0.46519238 6
-5.5067854 -0.36576012 0.48284283 15
-2.9506719 -0.1954668 -0.46836486 5
-6.544477 -0.43238911 0.80531269 7
-3.8546305 -0.25399715 -0.47431552 6
-6.7392755 -0.44289845 1.069699 14
-5.5269208 -0.3632237 -0.48458594 9
-11.011826 -0.72175336 2.1450748 14
-5.5365696 -0.36191565 -0.29077861 14
-11.057064 -0.72084528 2.5581434 30
-5.4516573 -0.35445413 -0.095359951 1
-10.853532 -0.70376927 2.9143026 33
-1.7332312 -0.11026035 -0.46535668 3
-5.5060911 -0.34930918 0.096302375 32
-2.0323706 -0.12857848 -0.47014773 7
-5.3958521 -0.34042332 0.28334689 10
-2.3923771 -0.15093464 -0.46595559 6
-5.3588943 -0.337154 0.46976945 8
-2.9513364 -0.18516506 -0.46836486 5
-6.5162287 -0.40768254 0.80165666 9
-3.8653996 -0.24115928 -0.47553423 5
-6.7388091 -0.41924682 1.0693861 14
-5.514235 -0.34306145 -0.48336574 9
-11.039751 -0.68489051 2.1500359 6
-5.5218515 -0.34160182 -0.28994122 14
-5.4448776 -0.33493087 -0.095220335 1
-10.846281 -0.66529006 2.9117146 34
-1.7451756 -0.10490544 -0.4684625 4
-2.0269711 -0.1211341 -0.46879801 8
-5.3531461 -0.31897384 0.28104413 7
-2.3987689 -0.14293361 -0.46710047 6
-5.373961 -0.31927291 0.47098961 9
-2.9421051 -0.17427772 -0.46680051 6
-6.0142751 -0.35520807 0.73974699 18
-3.8602729 -0.22731484 -0.474803 6
-6.787559 -0.39849982 1.076895 9
-5.523355 -0.324278 -0.484063 11
-10.95976 -0.64153445 2.1340079 1
-5.5050654 -0.32127613 -0.28899917 19
-10.869227 -0.63242579 2.5136032 5
-5.4579921 -0.31661868 -0.095429763 1
-10.836966 -0.62675327 2.9086087 34
-1.7455312 -0.098812953 -0.4684625 3
-5.6860857 -0.32088864 0.099408902 3
-2.0254357 -0.11394888 -0.46834809 6
-5.3402681 -0.29950288 0.28031141 15
-2.3953326 -0.13433951 -0.46633717 6
-5.3650961 -0.2999548 0.47011805 17
-2.9525571 -0.16455702 -0.46836486 6
-5.9996223 -0.33333105 0.73779708 18
-3.8550968 -0.21350826 -0.47407177 6
-5.6567664 -0.3123019 0.89730817 3
-5.5164957 -0.30455777 -0.48336574 11
-10.924686 -0.60122377 2.1267571 3
-5.4981766 -0.30162016 -0.28858051 16
-10.857749 -0.59373873 2.5104539 3
-5.4430895 -0.29669392 -0.095150515 1
-10.835229 -0.58871144 2.9075732 39
-1.7477945 -0.09282171 -0.4689801 3
-5.67519 -0.30040422 0.099199481 3
-2.0199831 -0.10657003 -0.46699843 3
-2.3840239 -0.12535883 -0.46404752 6
-5.5292621 -0.28977686 0.4844116 17
-2.9531136 -0.15424959 -0.46836486 6
-6.0086789 -0.31279907 0.73877203 15
-3.8518536 -0.19984527 -0.47358429 6
-5.6085033 -0.2900039 0.88948649 4
-5.5016069 -0.28447649 -0.48197123 11
-10.914954 -0.56247669 2.1244676 8
-5.5051799 -0.2827346 -0.2888945 20
-10.848079 -0.55523652 2.5077543 1
-5.4361038 -0.27728325 -0.095010899 1
-10.815996 -0.54980677 2.9018793 38
-1.7403902 -0.086337291 -0.46690959 3
-5.6762042 -0.28059211 0.099199481 3
-2.0300746 -0.09999764 -0.46924794 3
-5.5018172 -0.27004662 0.28868517 6
-2.3981731 -0.11770993 -0.46671882 7
-5.4605899 -0.26706776 0.4783107 11
-2.9575799 -0.14413258 -0.46899059 5
-5.7737861 -0.28036553 0.7097671 18
-3.8584759 -0.18668626 -0.47431552 6
-5.6035624 -0.27013928 0.8885479 1
-5.482666 -0.26431105 -0.48022813 10
-10.889397 -0.52305651 2.1191249 14
-5.5021429 -0.26332507 -0.28868517 14
-10.834378 -0.51662344 2.5041552 3
-5.3930945 -0.25621817 -0.09424299 1
-10.790834 -0.51077211 2.8946323 34
-1.7484 -0.08061754 -0.4689801 3
-5.6371961 -0.25894141 0.098501377 3
-2.0226247 -0.09255486 -0.46744829 3
-5.440876 -0.24802046 0.28544036 10
-2.386802 -0.10880154 -0.46442911 7
-5.8197494 -0.26427346 0.50968677 44
-2.9462249 -0.13327216 -0.46711335 5
-5.719203 -0.25770736 0.70294243 15
-3.8650537 -0.17348346 -0.47504675 6
-5.6024981 -0.25048783 0.88823503 6
-5.4616604 -0.24419098 -0.4783107 13
-10.861736 -0.48373172 2.1134005 32
-5.479085 -0.24305509 -0.28742909 12
-10.828327 -0.47845426 2.5023556 3
-5.4458981 -0.23967834 -0.095150515 1
-10.77904 -0.47250938 2.8910089 30
-1.7390202 -0.074102722 -0.46639192 3
-5.6220832 -0.23858528 0.098222144 3
-2.0132003 -0.085082062 -0.46519879 3
-5.5454741 -0.23339377 0.29088327 31
-2.3930521 -0.10071699 -0.46557397 7
-5.9440565 -0.24913126 0.52049404 9
-2.9427247 -0.12282227 -0.46648762 6
-5.7656856 -0.23963788 0.70854843 15
-3.857702 -0.15966329 -0.47407177 5
-5.6132064 -0.2313378 0.88979936 29
-5.4385915 -0.22414137 -0.47621897 15
-10.851589 -0.44533095 2.1111107 56
-5.4419842 -0.22237982 -0.28544036 14
-10.841615 -0.44113109 2.505055 1
-5.4027448 -0.21888614 -0.094382621 1
-10.770973 -0.43448845 2.8884208 30
-1.7508506 -0.068485364 -0.46949777 4
-5.6388664 -0.2195814 0.098501377 3
-2.0095906 -0.077903129 -0.46429899 3
-5.5302887 -0.21342006 0.29004589 18
-2.3914273 -0.092287868 -0.46519238 100
-5.7119522 -0.21943097 0.50009966 15
-2.9451096 -0.1126249 -0.46680051 6
-5.7446666 -0.21868101 0.70586729 17
-3.8522851 -0.14596993 -0.47334057 5
-5.6021357 -0.2112958 0.88792211 15
-5.4473042 -0.20545602 -0.47691619 15
-10.845231 -0.4071568 2.1095843 77
-5.4307518 -0.20293346 -0.2848123 14
-10.796351 -0.40154549 2.4942572 1
-5.4034762 -0.20002554 -0.094382621 1
-10.778215 -0.39710373 2.8899736 13
-1.7530097 -0.062442061 -0.47001541 4
-5.6356025 -0.19975358 0.098431572 3
-2.023483 -0.071369126 -0.46744829 3
-5.5609398 -0.19516507 0.29161596 17
-2.3838863 -0.083664156 -0.46366587 6
-5.7166657 -0.1996301 0.50044823 22
-2.9454849 -0.10234448 -0.46680051 6
-5.7414274 -0.19848973 0.70537978 25
-3.8567388 -0.13265842 -0.47382805 4
-5.5732265 -0.19072717 0.88322914 19
-5.4320588 -0.18589613 -0.47552174 18
-10.830889 -0.36876008 2.1065314 39
-5.4394116 -0.18424565 -0.28523099 14
-10.879488 -0.36661294 2.5131533 1
-5.3561749 -0.17955457 -0.0935449 3
-10.775675 -0.35934925 2.8889384 9
-1.753217 -0.056322489 -0.47001541 5
-5.6202755 -0.17957075 0.098152332 3
-2.029563 -0.064491041 -0.46879801 3
-2.3802392 -0.075217672 -0.46290264 6
-5.8388038 -0.18349275 0.51108128 24
-2.9477985 -0.092123821 -0.46711335 6
-5.8154984 -0.18072711 0.71439815 10
-3.8532102 -0.11907235 -0.47334057 4
-5.5797815 -0.17145367 0.88416773 16
-5.4167714 -0.16549723 -0.4741272 24
-7.0899301 -0.21661681 1.3787858 21
-5.4440145 -0.16537859 -0.28544036 13
-5.3647647 -0.16109687 -0.093684517 3
-10.767208 -0.32144436 2.8863502 8
-1.7456872 -0.049676407 -0.46794486 7
-5.6208682 -0.15995108 0.098152332 3
-2.0336716 -0.057516277 -0.4696978 4
-5.4184213 -0.15229733 0.28407961 8
-2.3922744 -0.066822596 -0.46519238 7
-5.6084085 -0.15567826 0.49086115 16
-2.9382429 -0.081045888 -0.46554902 7
-5.7744222 -0.15927655 0.7092796 10
-3.8615396 -0.10583977 -0.47431552 4
-5.5665236 -0.15159762 0.88197768 14
-5.4272752 -0.14685749 -0.4749988 24
-7.0435753 -0.18936472 1.3696271 21
-5.4286118 -0.14499745 -0.28460297 14
-7.1220875 -0.18898609 1.6448421 22
-5.3732905 -0.14258139 -0.093824141 1
-10.789508 -0.2844201 2.8920441 4
-1.7574375 -0.043871734 -0.47105068 7
-5.5314589 -0.13711843 0.096581623 13
-2.0260763 -0.049870268 -0.46789822 3
-5.4748259 -0.13475852 0.2870104 20
-2.3964181 -0.058567453 -0.46595559 7
-5.6766396 -0.13774206 0.49678773 11
-2.9365335 -0.070742063 -0.46523616 7
-5.2768521 -0.12619965 0.64810121 10
-3.8579166 -0.092264809 -0.47382805 4
-5.5828171 -0.13254081 0.8844806 9
-5.395885 -0.12716195 -0.47220981 19
-7.0167155 -0.16413394 1.3642844 21
-5.4191008 -0.12581523 -0.28407961 14
-7.0700727 -0.16414583 1.6326947 26
-5.3497653 -0.12327258 -0.093405277 1
-1.7633675 -0.038168974 -0.47260359 7
-5.5218863 -0.11856117 0.096407093 16
-2.0223339 -0.043068215 -0.46699843 3
-5.5091887 -0.11732531 0.28878984 31
-2.3946364 -0.050578773 -0.46557397 7
-2.9446516 -0.061167758 -0.46648762 6
-5.2990727 -0.10914975 0.65078235 10
-3.8522472 -0.079348192 -0.47309685 4
-5.5852008 -0.11406692 0.8847934 5
-5.4381084 -0.11011468 -0.47587034 24
-7.0074067 -0.14066748 1.3623763 25
-5.403513 -0.10752604 -0.28324223 15
-7.0413527 -0.14011788 1.6259462 26
-5.3981276 -0.1064777 -0.09424299 1
-7.0808153 -0.13843235 1.8976613 16
-1.7712107 -0.032462761 -0.47467417 7
-5.5122523 -0.10006759 0.096232571 26
-2.0224655 -0.036361601 -0.46699843 4
-5.4216995 -0.096529402 0.28418428 16
-2.3771245 -0.042322967 -0.46213943 7
-5.8905807 -0.10385054 0.51543909 17
-2.9507635 -0.05150592 -0.46742624 6
-5.4343719 -0.093908884 0.66735661 11
-3.8445613 -0.065764941 -0.47212186 4
-5.4304914 -0.090997785 -0.47517309 22
-6.9842787 -0.11703432 1.3577969 25
-5.4078345 -0.089672782 -0.28345159 15
-7.0301085 -0.1153478 1.6232469 29
-5.3824711 -0.087374255 -0.093963757 1
-7.0677342 -0.11349585 1.8940378 16
-1.7520012 -0.025687905 -0.46949777 8
-5.5105686 -0.08079616 0.096197665 8
-2.0342715 -0.029470975 -0.4696978 4
-5.1663799 -0.073945977 0.27078626 27
-2.3576329 -0.033332504 -0.45832324 12
-5.2255287 -0.072967008 0.45721903 5
-2.9489572 -0.040663201 -0.46711335 6
-5.5835342 -0.076991409 0.685637 8
-3.8427827 -0.052317392 -0.47187814 4
-6.626791 -0.089063413 1.0496755 10
-5.4108539 -0.071776845 -0.47342998 30
-6.9748454 -0.091306262 1.3558888 31
-5.4141178 -0.069930054 -0.28376558 15
-7.0071011 -0.089282319 1.617848 26
-5.3667469 -0.068381436 -0.093684517 1
-7.0255895 -0.088291571 1.8826498 14
-1.7501484 -0.019550079 -0.4689801 8
-5.5828123 -0.061389837 0.097454235 3
-2.0207255 -0.021867638 -0.4665485 5
-5.1785898 -0.056041028 0.27141431 23
-2.3675506 -0.025207067 -0.46023133 14
-5.2556353 -0.055038877 0.45983368 13
-2.9372294 -0.030247744 -0.46523616 7
-5.2681651 -0.05333107 0.64688253 11
-3.8469188 -0.038271967 -0.47236562 4
-6.4966931 -0.064633861 1.029026 11
-5.4170485 -0.052947275 -0.47395292 24
-6.9594164 -0.066807993 1.3528358 30
-5.4063401 -0.050955381 -0.28334689 16
-7.013216 -0.064876303 1.6191977 32
-5.3309603 -0.049314465 -0.093056232 1
-7.0142651 -0.063661762 1.879544 15
-1.750206 -0.013440752 -0.4689801 8
-5.5669885 -0.04275183 0.097175002 3
-2.0168893 -0.015137222 -0.46564871 5
-5.2486558 -0.03847507 0.27507779 22
-2.3656609 -0.016928503 -0.45984969 12
-5.1541858 -0.035984658 0.4509438 19
-2.9392889 -0.020521048 -0.46554902 6
-5.2464776 -0.035712082 0.6442014 12
-3.8529797 -0.025554262 -0.47309685 4
-6.7358942 -0.043500718 1.0668832 38
-5.4092307 -0.033987701 -0.47325566 27
-6.9576364 -0.043716766 1.3524542 27
-5.3984904 -0.032978024 -0.2829282 15
-7.0172896 -0.041643817 1.6200974 35
-5.3151026 -0.030613355 -0.092776999 1
-7.0125117 -0.039166033 1.8790263 17
-1.7521728 -0.0076451488 -0.46949777 7
-5.4611211 -0.022876371 0.095325045 13
-2.0208275 -0.0081124622 -0.4665485 7
-5.5223804 -0.021204079 0.28941786 36
-2.3519614 -0.0090307388 -0.45717838 7
-5.2459264 -0.019228294 0.45896214 8
-2.9373674 -0.010253213 -0.46523616 4
-5.2703915 -0.017477086 0.64712632 13
-3.8351793 -0.012049378 -0.47090316 4
-6.5641479 -0.019476093 1.0396636 16
-5.4093165 -0.015105606 -0.47325566 25
-6.9695263 -0.019462518 1.354744 33
-5.392581 -0.014119025 -0.28261417 17
-6.9959564 -0.017094405 1.6151485 42
-5.3111773 -0.012050775 -0.092707187 1
-7.0145388 -0.014693082 1.879544 22
-1.7560527 -0.0012261475 -0.47053304 7
-5.4431696 -0.0038006427 0.095010899 26
-2.0461771 -0.0010711325 -0.47239724 7
-5.4625034 -0.0019074833 0.28627771 18
-2.3500154 -0.00041048517 -0.45679674 7
-5.3077254 4.640161e-07 0.46436578 16
-2.9452868 0.00051357382 -0.46648762 4
-5.2049122 0.00090758788 0.63908291 8
-3.8332131 0.0013373845 -0.47065943 4
-6.8940644 0.0036101092 1.0919127 28
-5.399374 0.0037684322 -0.4723841 33
-6.9813304 0.0060926042 1.3570337 27
-5.4065771 0.0056618871 -0.28334689 19
-6.9959722 0.008545625 1.6151485 29
-5.2991886 0.0064729932 -0.092497751 1
-7.0184107 0.0097995782 1.8805792 20
-1.7599102 0.0049140472 -0.47156835 9
-5.4231505 0.016090363 0.094661854 50
-2.0286286 0.0063729384 -0.46834809 7
-5.2507687 0.016495293 0.27518249 15
-2.3617823 0.0078322925 -0.45908648 6
-5.5188856 0.019263944 0.48284283 28
-2.9432919 0.010787384 -0.46617478 4
-5.2068586 0.019993491 0.63932663 7
-3.8411226 0.015418744 -0.47163439 4
-6.9493198 0.027895434 1.100673 29
-5.3754201 0.02251575 -0.47029239 31
-6.9714499 0.030419318 1.3551255 21
-5.3965383 0.024487877 -0.28282353 17
-6.997848 0.03297545 1.6155984 32
-5.2871361 0.024914185 -0.092288323 1
-7.000947 0.034213573 1.8759204 18
-1.742496 0.010948476 -0.46690959 6
-5.3910728 0.033873267 0.094103374 24
-2.0285962 0.013100156 -0.46834809 6
-5.4444084 0.03610881 0.28533566 21
-2.3695931 0.016129358 -0.46061292 7
-5.586524 0.039001398 0.48876941 12
-2.9313877 0.020465001 -0.46429756 4
-5.1988239 0.03720209 0.63835168 7
-3.8430357 0.028170981 -0.47187814 4
-6.8326364 0.051278453 1.0822138 31
-5.3673391 0.041219559 -0.46959516 29
-6.5374441 0.050205618 1.270788 20
-5.3824472 0.042273715 -0.28209084 16
-7.0054951 0.056243818 1.6173981 32
-5.2990146 0.04346941 -0.092497751 1
-7.0065799 0.058698308 1.8774734 22
-1.7521088 0.016819529 -0.46949777 4
-2.024641 0.020142484 -0.46744829 6
-5.2844768 0.053495865 0.27696192 19
-2.3577478 0.023867974 -0.45832324 8
-5.1062241 0.05258261 0.44676036 19
-2.9332736 0.030718094 -0.4646104 5
-5.1530075 0.054863214 0.63274568 12
-3.8448987 0.041607093 -0.47212186 4
-6.9647579 0.076583914 1.103176 22
-5.3711467 0.059998192 -0.46994376 29
-6.5195613 0.072826512 1.2673534 20
-5.3543072 0.060744658 -0.28062543 15
-7.0149994 0.080809645 1.6196476 52
-5.3008304 0.061988432 -0.092532657 1
-7.0121274 0.083224453 1.8790263 18
-1.7404451 0.023087498 -0.46639192 3
-5.5306711 0.073365912 0.09654671 3
-2.0304041 0.027287815 -0.46879801 7
-5.3022313 0.072186649 0.27790397 30
-2.2987523 0.031697374 -0.44687468 100
-5.1478329 0.071881771 0.45042086 12
-2.9331412 0.041468926 -0.4646104 5
-5.1289659 0.072513618 0.62982082 11
-3.8367906 0.054914512 -0.47114691 4
-6.8419876 0.099121071 1.0837781 30
-5.3768816 0.078834414 -0.4704667 31
-6.5506592 0.097187519 1.2734593 28
-5.3520513 0.08033888 -0.28052074 15
-7.0068622 0.10640213 1.617848 42
-5.3125787 0.080673724 -0.092742085 1
-7.0311103 0.10799773 1.8842027 19
-1.7480804 0.029291747 -0.4684625 4
-5.4803801 0.092790134 0.095674098 22
-2.0322387 0.03476328 -0.46924794 6
-5.2699957 0.090148039 0.2762292 8
-2.2731094 0.039279874 -0.44191366 8
-5.1953602 0.090685293 0.45460433 9
-2.9408791 0.051846612 -0.46586189 5
-5.1187425 0.091133922 0.62860215 5
-3.8226821 0.068058908 -0.46944076 4
-6.6361938 0.1193107 1.0512397 18
-5.354661 0.09720511 -0.46854928 24
-6.5679464 0.12037695 1.2768939 19
-5.3497415 0.098983727 -0.28041607 16
-7.0298519 0.13007002 1.6232469 32
-5.2882729 0.09876965 -0.092323236 1
-7.040349 0.13272418 1.886791 22
-1.7402477 0.034933407 -0.46639192 3
-5.5100317 0.11156935 0.096197665 6
-2.0418541 0.041701276 -0.47149745 5
-5.918642 0.12087784 0.3102476 20
-2.2435238 0.046211198 -0.43618938 12
-5.169136 0.10737552 0.45233828 17
-2.9446406 0.061681479 -0.46648762 5
-5.1640592 0.10907211 0.63420814 1
-3.8343432 0.080986664 -0.47090316 4
-6.6713104 0.14207377 1.0568714 17
-5.3403659 0.1146621 -0.46732911 21
-6.6244321 0.14338714 1.2879608 12
-5.3433933 0.11659307 -0.28010207 15
-7.0605536 0.15406159 1.6304452 42
-5.2799187 0.11612995 -0.092183605 1
-7.0553207 0.15640952 1.890932 16
-1.7323971 0.040523443 -0.46432137 3
-5.4836421 0.12922841 0.095743902 24
-2.0319636 0.048240893 -0.46924794 6
-6.1078691 0.14607218 0.32019141 11
-2.2394328 0.053556949 -0.43542615 11
-5.1647677 0.12441941 0.45198968 16
-2.9325712 0.071158521 -0.4646104 5
-5.1835136 0.12668134 0.63664556 1
-3.8380063 0.094468325 -0.47139066 4
-6.6766977 0.16550715 1.0578099 14
-5.3259902 0.13295358 -0.46610889 22
-6.992897 0.17456485 1.359705 23
-5.338984 0.13421157 -0.27989271 15
-7.0969872 0.17964369 1.6389934 29
-5.287478 0.1347623 -0.092323236 1
-7.0779066 0.18163282 1.8971437 13
-1.7476861 0.047291212 -0.4684625 3
-5.4951515 0.14869511 0.09595333 6
-2.0239909 0.055120841 -0.46744829 6
-5.5962162 0.1533833 0.2933954 8
-2.2274466 0.061440304 -0.43313646 14
-5.1622849 0.14329319 0.45181534 12
-2.9243925 0.081685185 -0.46335894 6
-6.2406812 0.17431697 0.76655823 14
-3.8376532 0.10786592 -0.47139066 4
-6.6918759 0.18925753 1.060313 17
-5.3334603 0.1517708 -0.46680617 29
-6.5663586 0.18800305 1.2768939 16
-5.3164954 0.15314525 -0.27874133 13
-7.1566672 0.20740269 1.6529404 22
-5.2709842 0.15275495 -0.092043988 1
-7.1255045 0.20774589 1.9100846 14
-1.7475104 0.053391125 -0.4684625 1
-5.4965682 0.16889507 0.095988236 3
-2.0296185 0.062719382 -0.46879801 5
-5.5018196 0.17001751 0.28847581 13
-2.2075953 0.068604872 -0.42932025 15
-5.2473845 0.16398831 0.45931077 9
-2.9359357 0.092265792 -0.46523616 7
-6.7300735 0.21267587 0.82676172 7
-3.8173912 0.12129959 -0.46895328 4
-10.495807 0.33350971 1.6632115 22
-5.3348894 0.17045216 -0.46698046 24
-10.58826 0.34014702 2.0592108 14
-5.3079438 0.17144461 -0.27832264 15
-13.090582 0.42511103 3.023792 4
-5.2464352 0.17037572 -0.091625139 1
-10.617595 0.34665677 2.8464918 70
-1.7550362 0.059753738 -0.47053304 1
-5.4999747 0.18725771 0.096058048 3
-2.0371897 0.06971617 -0.47059759 7
-5.2676516 0.18118858 0.2762292 12
-2.19557 0.075903475 -0.42703056 16
-5.3124895 0.18458736 0.46506307 8
-2.9454849 0.10234359 -0.46680051 7
-6.2452645 0.21808876 0.76728946 1
-3.8268871 0.13430612 -0.47017199 4
-10.464965 0.36910069 1.6585183 31
-5.3262978 0.18879122 -0.46628323 25
-10.569414 0.37463409 2.0557761 63
-5.3073459 0.18904562 -0.27832264 15
-13.079363 0.46817058 3.0215428 3
-5.2538023 0.18897584 -0.091764756 1
-10.604736 0.3832961 2.8433859 86
-1.7355235 0.064852014 -0.46535668 2
-5.4813032 0.20578003 0.095743902 4
-2.0427761 0.077046782 -0.47194731 7
-5.2989554 0.19985913 0.27790397 12
-2.1854973 0.082812235 -0.42512247 18
-2.9431355 0.11254922 -0.46648762 7
-6.1849561 0.23760153 0.75997728 10
-3.8283787 0.14774027 -0.47041571 4
-6.4645472 0.24947219 1.0246458 9
-5.3057332 0.20568122 -0.46454012 27
-10.536654 0.41030145 2.0496705 43
-5.2986708 0.20725848 -0.27790397 14
-10.663074 0.41895443 2.4636641 3
-5.2331648 0.20561215 -0.091415711 1
-10.578313 0.41747063 2.836657 78
-1.7372167 0.07098864 -0.46587428 3
-5.4666042 0.22338423 0.095499568 3
-2.0425093 0.083820522 -0.47194731 6
-5.4937906 0.22641595 0.28816178 21
-2.1695023 0.089791112 -0.42206952 18
-5.836647 0.24258548 0.51108128 11
-2.9269567 0.12165155 -0.46398467 7
-6.1821504 0.25802773 0.75973356 9
-3.8338177 0.16068436 -0.47114691 4
-6.441927 0.27112108 1.0212044 23
-5.3029919 0.22411518 -0.46436578 25
-10.496006 0.44358248 2.042038 41
-5.2959585 0.22474389 -0.27779928 15
-10.657733 0.45414662 2.4627643 1
-5.2364111 0.22404791 -0.091485515 1
-10.565211 0.45389611 2.8335512 78
-1.7465947 0.077785172 -0.4684625 3
-5.4617114 0.24419421 0.095429763 3
-2.0304916 0.091138281 -0.46924794 5
-5.5448003 0.24887745 0.29088327 21
-2.1711195 0.097830534 -0.42245111 17
-5.4157538 0.24498068 0.47430155 23
-2.9225214 0.13271014 -0.46335894 7
-6.1771483 0.28158277 0.75924611 4
-3.8351555 0.17549472 -0.47139066 4
-10.436846 0.47758463 1.6547639 20
-5.3061152 0.2437318 -0.46471441 26
-10.455002 0.48207235 2.0344057 34
-5.2890716 0.24480018 -0.27748525 15
-10.63255 0.4939782 2.4573653 1
-5.24754 0.24379572 -0.091694944 1
-10.559617 0.49243668 2.8325157 77
-1.7521013 0.084159553 -0.47001541 3
-5.4768505 0.26307231 0.095708996 3
-2.0379643 0.098246567 -0.47104752 8
-5.5399079 0.26803803 0.29067394 13
-2.1844916 0.10607518 -0.42512247 11
-5.420836 0.26417351 0.47482449 26
-2.9378495 0.14317018 -0.46586189 7
-6.9097877 0.33794501 0.84942937 18
-3.8127427 0.18714124 -0.46870953 3
-6.9547706 0.34257841 1.1028631 7
-5.3012524 0.26205677 -0.46436578 26
-10.433737 0.51577085 2.0305893 34
-5.2882304 0.26233825 -0.27748525 14
-10.619177 0.52865338 2.4546659 3
-5.2306795 0.26131353 -0.091415711 1
-10.550117 0.528907 2.8304453 78
-1.7518127 0.089969344 -0.47001541 3
-5.4758992 0.28218731 0.095708996 3
-2.0298243 0.10495732 -0.46924794 8
-5.6985044 0.29565448 0.29904768 10
-2.2135372 0.11484455 -0.43084675 100
-5.4637032 0.28442711 0.4786593 19
-2.9452229 0.15383655 -0.46711335 7
-6.9700198 0.36528346 0.85698533 13
-3.8199956 0.20086612 -0.46968448 3
-6.8371472 0.36071134 1.0844039 7
-5.2863779 0.27982295 -0.46314558 27
-10.408346 0.5509432 2.02601 34
-5.3012443 0.28153765 -0.27821797 17
-10.617267 0.56571829 2.4546659 3
-5.2057734 0.27828959 -0.090996847 1
-10.544346 0.56552386 2.8294098 78
-1.7379684 0.095645964 -0.46639192 3
-5.4589076 0.30042115 0.095429763 3
-2.0430663 0.11279412 -0.47239724 7
-5.763247 0.3191877 0.30250186 42
-2.3248346 0.12916403 -0.45259899 100
-5.470582 0.30489561 0.47935659 20
-2.9406943 0.1644105 -0.46648762 7
-6.8438358 0.3826302 0.84162974 5
-3.8153074 0.21397604 -0.46919701 3
-10.391828 0.58463258 1.6485065 16
-5.2694559 0.29737625 -0.46175113 30
-10.398417 0.58864188 2.0244837 39
-5.2981825 0.30085263 -0.27811331 15
-10.607338 0.60418558 2.4528663 3
-5.2247343 0.29759672 -0.091345899 1
-10.523022 0.60122293 2.8242335 78
-1.7414812 0.10193786 -0.46742722 3
-5.4457917 0.31972519 0.095220335 3
-2.0368028 0.11993794 -0.47104752 7
-6.0172429 0.35538149 0.31589985 22
-2.377285 0.14040369 -0.46290264 100
-5.4714732 0.32410759 0.4795309 20
-2.9302433 0.17408808 -0.46492329 7
-6.7829399 0.40416783 0.83431756 10
-3.8224237 0.22843306 -0.47017199 3
-6.7811513 0.40643662 1.0759563 11
-5.2604299 0.31529033 -0.46105388 27
-10.380621 0.6239959 2.0214307 36
-5.2691889 0.31766239 -0.2766479 13
-10.612947 0.64167666 2.4546659 1
-5.2276011 0.3169865 -0.091415711 1
-10.513034 0.63932133 2.8221629 78
-1.7468991 0.10837546 -0.4689801 3
-5.4326673 0.33798644 0.095010899 3
-2.018867 0.12595493 -0.46699843 7
-5.9242706 0.37064821 0.31108496 17
-2.3748212 0.14857917 -0.46252102 100
-5.5359278 0.34732041 0.48528317 9
-2.923703 0.18394344 -0.46398467 7
-6.7913942 0.42846906 0.8355363 10
-3.8216028 0.24177361 -0.47017199 3
-6.7816629 0.43023002 1.0762693 9
-5.2553205 0.33339858 -0.46070525 27
-10.358787 0.65898108 2.0176144 39
-5.2521029 0.33503509 -0.27581054 13
-5.2104974 0.33420843 -0.091136463 1
-10.499171 0.67526859 2.819057 78
-1.7465101 0.11447224 -0.4689801 3
-5.4314547 0.35694808 0.095010899 3
-2.0145261 0.13274466 -0.46609858 7
-5.7755322 0.3805714 0.30333924 15
-2.3703699 0.15660858 -0.46175778 100
-5.5028729 0.3645353 0.48249418 16
-2.9348695 0.19493423 -0.46586189 7
-5.3875179 0.35878244 0.66296923 2
-3.8147938 0.25471538 -0.46944076 3
-6.7585182 0.45126912 1.0728277 11
-5.2581005 0.35200861 -0.46105388 27
-10.352507 0.69487089 2.0168512 39
-5.2389445 0.3525618 -0.27518249 12
-10.404054 0.70198119 2.4074261 64
-5.1894093 0.35013926 -0.090787418 1
-10.390865 0.7029106 2.7905872 42
-1.7422454 0.1203019 -0.46794486 3
-5.4222612 0.37440673 0.094871283 3
-2.0218513 0.13996272 -0.46789822 7
-5.8518739 0.40612376 0.30742142 11
-2.3619747 0.16433676 -0.46023133 100
-5.6327462 0.39289176 0.49399874 11
-2.9302659 0.20439005 -0.46523616 7
-5.4061007 0.37803102 0.66540664 2
-3.8119478 0.26722562 -0.46919701 4
-10.351125 0.72745115 1.6435007 6
-5.2588277 0.37049961 -0.46122819 25
-10.344269 0.72878361 2.0157063 42
-5.2437239 0.37035522 -0.27549651 11
-10.345296 0.73248744 2.3943789 58
-5.1721983 0.36711785 -0.090508185 1
-10.34788 0.73629808 2.7797167 39
-1.732203 0.12538147 -0.46535668 3
-5.432888 0.39420009 0.095080711 3
-2.0213504 0.14701951 -0.46789822 7
-5.926116 0.43206716 0.31139898 18
-2.3614168 0.17216852 -0.46023133 80
-5.6850634 0.41548973 0.49870515 12
-2.9315045 0.21476175 -0.46554902 8
-5.4166265 0.39777198 0.6668691 2
-3.816931 0.28096747 -0.46992823 5
-6.747323 0.49785998 1.0715762 10
-5.2377 0.3864705 -0.45948508 26
-10.329914 0.76401883 2.0134165 42
-5.2423992 0.38865709 -0.27549651 10
-10.340734 0.76844823 2.393929 60
-5.1549315 0.38398173 -0.090228938 1
