# .PCD v0.7 - Point Cloud Data file format
VERSION 0.7
FIELDS x y z intensity
SIZE 4 4 4 4
TYPE F F F F
COUNT 1 1 1 1
WIDTH 1335
HEIGHT 1
VIEWPOINT 0 0 0 1 0 0 0
POINTS 1335
DATA ascii
-9.8053474 -3.9855289 -0.18475117 2
-12.533893 -5.0920348 3.6250196 64
-9.8950119 -4.0038733 0.1863219 5
-1.8896884 -0.76425135 -0.47059759 2
-27.492126 -11.113126 1.554064 9
-2.2407868 -0.90533632 -0.46977177 100
-27.634033 -11.159267 2.6073513 44
-2.7713115 -1.1191204 -0.47337076 4
-25.138035 -10.146223 3.328496 65
-3.6229596 -1.4615642 -0.47967777 4
-20.14526 -8.1228619 3.4403071 68
-5.2666922 -2.1225369 -0.49678773 5
-15.10651 -6.0880957 3.1659031 47
-9.170414 -3.6939211 -0.51812601 3
-12.504074 -5.0342155 3.1119728 78
-6.2703376 -2.5232022 -0.11797827 1
-12.522915 -5.0367179 3.6167376 57
-9.9571924 -3.9886425 0.18722942 1
-1.9031994 -0.76199633 -0.47329703 1
-10.018769 -4.0092483 0.5655424 2
-2.2419538 -0.89717102 -0.46939012 100
-27.580238 -11.031312 2.5988097 38
-2.767864 -1.1065066 -0.47211927 4
-25.097721 -10.028208 3.3185024 65
-3.6280391 -1.4489095 -0.47967777 4
-20.107447 -8.0261297 3.429044 73
-5.2666664 -2.1011863 -0.4960905 5
-15.089377 -6.0200491 3.1578891 50
-9.173975 -3.658191 -0.51760262 4
-12.474504 -4.9717784 3.1002755 48
-6.2159448 -2.4761381 -0.11679151 1
-12.490163 -4.9729676 3.6022434 55
-9.9970789 -3.96418 0.18771808 1
-1.913094 -0.75822079 -0.47509661 1
-27.396351 -10.852516 1.5443295 39
-2.2470524 -0.88967109 -0.46977177 100
-27.533417 -10.895687 2.5906172 16
-2.7865963 -1.1021668 -0.47462222 4
-25.069807 -9.91572 3.3102152 65
-3.6459973 -1.441345 -0.48138395 4
-20.07288 -7.9312062 3.4184062 71
-5.2628498 -2.0783997 -0.49504462 5
-15.060206 -5.9445243 3.1472039 52
-9.1836071 -3.6230738 -0.51739335 4
-12.501707 -4.9295974 3.102525 28
-6.1947851 -2.4426899 -0.11623303 1
-12.457121 -4.9095044 3.5877497 53
-10.048773 -3.9421182 0.18841618 1
-1.9140463 -0.75049204 -0.47464675 2
-27.36342 -10.723616 1.5402474 78
-2.2574556 -0.8846879 -0.47129822 100
-27.354227 -10.714499 2.5702229 21
-2.7849083 -1.0902725 -0.47368363 4
-25.01725 -9.7890472 3.298516 59
-3.654953 -1.429418 -0.48187143 4
-20.048456 -7.83673 3.409333 67
-5.2778559 -2.061995 -0.49574184 5
-15.026006 -5.8704805 3.1357551 50
-9.1961975 -3.5909967 -0.51739335 4
-12.536992 -4.8930125 3.107024 25
-6.2036972 -2.4199672 -0.11623303 1
-12.435434 -4.8483753 3.5763617 60
-27.298046 -10.599177 0.51114607 63
-1.905754 -0.73957592 -0.47194731 2
-27.315031 -10.594802 1.5354325 74
-2.2570221 -0.87498808 -0.47053501 100
-27.320858 -10.586093 2.5634246 64
-2.7888858 -1.0800581 -0.47368363 4
-24.969818 -9.6701174 3.2877913 66
-3.6617715 -1.4173677 -0.48211515 4
-20.014893 -7.7431793 3.3990085 63
-5.2831626 -2.0428421 -0.49556756 6
-15.007133 -5.7998023 3.1273596 37
-9.1962557 -3.5522292 -0.51666063 4
-12.54757 -4.8442221 3.1052244 25
-6.1934509 -2.3910964 -0.11588398 1
-12.419841 -4.7924194 3.5670443 63
-27.260284 -10.48609 0.50981969 78
-1.8989733 -0.73008847 -0.4696978 3
-27.258692 -10.474549 1.5304081 87
-2.2596083 -0.86828738 -0.47053501 5
-27.270311 -10.473559 2.5557549 68
-2.7957664 -1.073194 -0.47430936 4
-24.912966 -9.5582027 3.2763357 63
-3.6495247 -1.3994608 -0.47992152 3
-19.970873 -7.6541057 3.3874323 67
-5.2892008 -2.0271573 -0.49556756 6
-15.020609 -5.7538438 3.1265965 19
-9.2067547 -3.5249274 -0.51666063 4
-12.545508 -4.8007026 3.1011751 27
-6.200932 -2.3716271 -0.11588398 1
-12.409573 -4.7437196 3.5597973 59
-27.208887 -10.357426 0.50817919 56
-1.9197239 -0.73038495 -0.47419682 3
-27.203611 -10.344555 1.5252793 74
-2.2589552 -0.85899943 -0.46977177 100
-27.211723 -10.342196 2.5468652 52
-2.8068821 -1.0662344 -0.47556084 5
-24.88308 -9.4472313 3.2680488 63
-3.6618114 -1.3895292 -0.48089647 4
-19.929131 -7.5584278 3.3758564 69
-5.3036966 -2.011508 -0.49626479 6
-15.036928 -5.6999879 3.125833 14
-9.22087 -3.4934754 -0.5167653 2
-12.569479 -4.7596412 3.1029749 25
-6.1717682 -2.3358123 -0.11518589 1
-12.389917 -4.6867037 3.5494444 57
-27.156923 -10.229257 0.50653869 71
-1.9240854 -0.72436649 -0.47464675 2
-27.153568 -10.217178 1.5204644 78
-2.2601023 -0.85041749 -0.46939012 100
-27.146955 -10.209275 2.5374522 68
-2.8105867 -1.0564306 -0.47556084 4
-24.849007 -9.3351774 3.259274 66
-3.6666396 -1.3767385 -0.48089647 4
-19.89621 -7.4666114 3.3658442 67
-5.2920313 -1.9859834 -0.49452168 6
-15.053058 -5.6460814 3.1250699 14
-6.2762771 -2.3528485 -0.35127899 13
-12.582367 -4.7143722 3.1020751 25
-6.1798844 -2.3142531 -0.11518589 1
-12.355543 -4.6244645 3.5349507 53
-27.085655 -10.094598 0.50454909 66
-1.9284283 -0.71832585 -0.47509661 3
-27.112328 -10.093755 1.5161728 76
-2.2612176 -0.84183758 -0.46900854 100
-27.096527 -10.082496 2.529434 63
-2.7975938 -1.0404162 -0.472745 5
-24.803293 -9.2193327 3.249037 60
-3.6732838 -1.3646232 -0.4811402 4
-19.870298 -7.3778615 3.357084 69
-5.3026676 -1.9688855 -0.49487031 6
-15.067156 -5.5914531 3.1239252 14
-6.2488718 -2.3177304 -0.34929019 14
-12.606056 -4.6731286 3.1038747 27
-6.1279211 -2.2704349 -0.11406893 1
-12.331752 -4.5665507 3.5235624 60
-27.043802 -9.9716253 0.50311798 76
-1.9144673 -0.70552528 -0.47104752 2
-27.06118 -9.9673052 1.5113579 85
-2.2678266 -0.83529687 -0.46977177 100
-27.05303 -9.9589415 2.5221128 61
-2.8012087 -1.0306438 -0.472745 5
-24.753342 -9.1025553 3.2383125 64
-3.6742985 -1.3504231 -0.48065275 4
-19.847725 -7.2907419 3.3489494 65
-5.3132486 -1.9517362 -0.4952189 6
-15.090267 -5.5401816 3.1246884 14
-6.2269239 -2.2848954 -0.34761545 13
-12.622292 -4.6290965 3.1038747 25
-6.158339 -2.2572904 -0.11448779 1
-12.314967 -4.5115161 3.5142453 62
-26.993906 -9.8463268 0.50154728 66
-1.9187493 -0.69950575 -0.47149745 3
-26.998228 -9.8372269 1.505915 68
-2.2744179 -0.82871974 -0.47053501 100
-27.02585 -9.8419495 2.5163605 56
-2.810358 -1.0228869 -0.47368363 4
-24.714079 -8.9903069 3.2290504 60
-3.6827211 -1.3389456 -0.4811402 4
-19.798788 -7.1944337 3.3364346 68
-5.3275189 -1.9359004 -0.49591616 7
-15.115048 -5.4894824 3.125833 14
-6.2160883 -2.2563293 -0.34656873 14
-12.609062 -4.5743775 3.0966763 15
-6.1210623 -2.2194204 -0.11365007 1
-12.305213 -4.4592829 3.5069981 63
-27.088305 -9.7737589 0.50266421 56
-1.9285121 -0.69544798 -0.47329703 3
-27.101923 -9.7679815 1.5097878 72
-2.2700517 -0.8177166 -0.46900854 100
-27.125647 -9.771183 2.5224614 25
-2.8176284 -1.0144088 -0.47430936 4
-24.674332 -8.8784437 3.2197883 60
-3.6780324 -1.3227234 -0.47992152 4
-19.764294 -7.1038976 3.3264229 63
-5.3345785 -1.9163611 -0.49591616 7
-15.135067 -5.4340458 3.125833 13
-6.2130365 -2.2294848 -0.34594071 14
-14.822351 -5.3188491 3.635659 52
-6.0948915 -2.185889 -0.11302178 1
-12.28797 -4.404572 3.4976809 60
-27.236954 -9.714715 0.50475848 56
-1.9420617 -0.69230151 -0.47599643 3
-27.257954 -9.711482 1.5164869 59
-2.2656355 -0.80675662 -0.46748206 100
-6.625617 -2.3592763 0.61531955 7
-2.8213274 -1.0040748 -0.47430936 4
-24.641247 -8.7646637 3.2112575 70
-3.6865966 -1.3105636 -0.480409 4
-19.726912 -7.008924 3.3157854 65
-5.3321791 -1.8934625 -0.49504462 7
-17.265945 -6.1277623 3.5612595 26
-6.2155194 -2.2046931 -0.34562668 14
-14.803178 -5.2508025 3.6262109 71
-6.1028619 -2.1635351 -0.11302178 1
-12.260328 -4.3440199 3.4852574 69
-27.379877 -9.6527195 0.50674808 61
-1.94091 -0.68388301 -0.47509661 3
-2.2758448 -0.8014521 -0.46900854 100
-6.6229439 -2.3310075 0.61427367 9
-2.8138082 -0.98979443 -0.47243217 5
-24.600166 -8.6486187 3.2017517 58
-3.6930215 -1.2983463 -0.48065275 4
-19.702803 -6.9229951 3.3076508 70
-5.3443956 -1.8768184 -0.49556756 9
-17.235365 -6.0492468 3.5505741 53
-6.2137537 -2.1796794 -0.34510332 15
-14.803025 -5.1926503 3.621712 82
-6.1028285 -2.1395726 -0.11288217 1
-12.233485 -4.2865009 3.4733517 65
-27.526907 -9.6020527 0.50887728 56
-1.9339666 -0.67423534 -0.4728471 2
-6.4895024 -2.2624235 0.36017609 11
-2.2859058 -0.79648447 -0.47053501 5
-6.6212292 -2.3057559 0.61340207 15
-2.8152092 -0.97980863 -0.47211927 6
-24.549967 -8.5396013 3.1915147 71
-3.6991813 -1.2867446 -0.48089647 4
-19.68087 -6.842052 3.3001418 65
-5.344944 -1.8571236 -0.49504462 9
-17.195978 -5.971457 3.5383623 45
-6.1850977 -2.1466193 -0.34311455 16
-14.768616 -5.1256418 3.6091146 84
-6.1136684 -2.1206334 -0.11295197 1
-12.21295 -4.233892 3.4635167 71
-27.673904 -9.5505095 0.51100647 47
-1.9269806 -0.66464126 -0.47059759 3
-6.3444138 -2.1870353 0.35169765 11
-2.2885346 -0.78889966 -0.47053501 100
-6.4913263 -2.2364116 0.60067737 18
-2.8203111 -0.97111076 -0.47243217 6
-24.506821 -8.4335966 3.1822526 71
-3.6848791 -1.2673678 -0.47845906 4
-19.644855 -6.7527623 3.2901301 66
-5.3341155 -1.8335596 -0.49347579 6
-17.174837 -5.9003663 3.5299664 52
-6.1714029 -2.1189623 -0.34196317 16
-14.734808 -5.0563478 3.5965176 82
-6.0680699 -2.0811167 -0.11197464 1
-12.192933 -4.1793299 3.4536815 67
-1.938511 -0.66105604 -0.4728471 3
-6.4143949 -2.1861379 0.35515183 8
-2.276408 -0.77583969 -0.46748206 100
-6.4293132 -2.1899681 0.59422785 11
-2.8292933 -0.96317047 -0.47337076 6
-24.472216 -8.3262596 3.1739655 61
-3.6874015 -1.2538575 -0.47821537 4
-19.597233 -6.6599979 3.2782412 68
-5.2744579 -1.7924918 -0.48737493 7
-17.150715 -5.8252249 3.520808 51
-6.1693058 -2.094197 -0.34143981 15
-14.706232 -4.9892306 3.5852699 73
-6.0449972 -2.0496485 -0.11141616 1
-12.178174 -4.1268229 3.4453993 64
-6.3589568 -2.1449692 0.11714055 3
-1.9408067 -0.65428531 -0.4728471 2
-6.531765 -2.200721 0.3612228 16
-2.2902653 -0.77164978 -0.46977177 100
-6.5653162 -2.2107494 0.60608101 7
-2.830766 -0.9526583 -0.4730579 6
-24.442804 -8.2211609 3.1664095 78
-3.7068088 -1.2460392 -0.48016527 4
-19.567932 -6.5739365 3.2694807 66
-5.3470998 -1.7953427 -0.49347579 6
-17.129999 -5.7515702 3.5124121 47
-6.1652174 -2.0688367 -0.34081176 14
-14.695843 -4.9285746 3.5785215 76
-6.0407391 -2.0247204 -0.11120673 1
-12.159534 -4.0732427 3.4360819 67
-6.3436413 -2.1151688 0.11672169 3
-1.950474 -0.64997101 -0.47464675 3
-6.3916025 -2.1286819 0.3530584 19
-2.2874899 -0.76139033 -0.46862692 100
-28.261541 -9.4013662 2.6057823 11
-2.8342385 -0.9422766 -0.4730579 6
-24.392235 -8.1094913 3.1561725 65
-3.7224383 -1.2368479 -0.48162767 4
-19.542017 -6.4894042 3.2613461 62
-5.3590069 -1.7785494 -0.49399874 7
-17.080153 -5.6652637 3.4979107 46
-6.1575923 -2.0411985 -0.3399744 14
-14.680512 -4.8636432 3.5704231 81
-6.0401769 -2.001106 -0.11106712 1
-12.135162 -4.0180235 3.4252112 69
-6.2070022 -2.0443623 0.11406893 13
-1.9324818 -0.63611531 -0.4696978 3
-6.5317926 -2.1500711 0.36038542 9
-2.2994583 -0.75646836 -0.47053501 100
-28.421 -9.3443441 2.6174612 33
-2.8337572 -0.93114424 -0.47243217 6
-24.365215 -8.0014544 3.1488605 28
-3.7231748 -1.2219572 -0.4811402 4
-19.512001 -6.4038973 3.2525859 68
-5.3727546 -1.7623171 -0.49469596 7
-17.064379 -5.5939884 3.49066 55
-6.1324143 -2.0091207 -0.338195 15
-14.649248 -4.7966056 3.5587256 81
-6.0547266 -1.9825002 -0.11120673 1
-12.112394 -3.9636226 3.4148586 69
-6.2422681 -2.0330567 0.11459251 4
-1.945699 -0.63332248 -0.47239724 3
-6.1594 -2.0036876 0.33945104 8
-2.2946165 -0.74600959 -0.46900854 100
-28.565241 -9.2814112 2.6277456 22
-2.8405867 -0.92296273 -0.4730579 6
-6.9951959 -2.2715275 0.90305191 8
-3.7215414 -1.2077672 -0.480409 5
-19.477861 -6.3174686 3.2431996 70
-5.3883505 -1.7466236 -0.49556756 7
-17.028675 -5.5198135 3.4795928 51
-6.1181431 -1.9820032 -0.33704361 16
-14.620577 -4.7335939 3.5479279 78
-6.0235586 -1.9490408 -0.11050864 1
-12.100422 -3.9129934 3.4076116 69
-6.3235655 -2.0351455 0.1159538 3
-1.9460427 -0.62593007 -0.47194731 3
-6.0845942 -1.9558942 0.33495015 10
-2.2896016 -0.73599291 -0.46748206 100
-6.7472954 -2.1676188 0.62002593 9
-2.8475528 -0.9142493 -0.47368363 6
-24.277349 -7.789938 3.1305799 25
-3.7257349 -1.1947683 -0.480409 5
-19.439598 -6.2301474 3.2331879 61
-5.3884206 -1.7269212 -0.49504462 7
-17.010447 -5.4483614 3.4719608 48
-6.1250238 -1.9606359 -0.33704361 14
-14.596178 -4.6694665 3.5380301 76
-5.9998498 -1.9182589 -0.10995016 1
-12.084563 -3.861326 3.3993294 69
-6.296329 -2.002152 0.1153255 3
-1.9537872 -0.62090433 -0.47329703 3
-6.2779331 -1.9938912 0.34520799 10
-2.2902856 -0.72740191 -0.46710047 100
-6.5288377 -2.0723233 0.59928286 26
-2.8507268 -0.90430444 -0.47368363 4
-7.0014224 -2.2196369 0.90183324 7
-3.7336676 -1.1829548 -0.48089647 4
-19.412266 -6.1467481 3.2250533 65
-5.371623 -1.7008841 -0.49295285 7
-16.988182 -5.3759184 3.4635649 51
-6.1165957 -1.9344255 -0.33620623 15
-14.578942 -4.6079159 3.5299318 81
-5.9988818 -1.8948945 -0.10981054 1
-12.057439 -3.8063245 3.3879414 69
-6.2880173 -1.9753683 0.11504627 3
-1.9466463 -0.61116189 -0.47104752 3
-6.265799 -1.9659842 0.34416127 8
-2.302177 -0.722341 -0.46900854 100
-6.4847016 -2.0334249 0.59457648 10
-2.8406711 -0.89021295 -0.47149354 5
-7.0072331 -2.1945903 0.90158945 9
-3.7472465 -1.1728795 -0.48211515 4
-19.380814 -6.0624413 3.2162931 65
-5.3756256 -1.6815298 -0.49277857 7
-16.946884 -5.2978411 3.4513533 52
-6.1080599 -1.908298 -0.33536884 15
-14.555875 -4.5448008 3.520484 82
-5.9901891 -1.8691776 -0.10953131 2
-12.037457 -3.753861 3.378624 74
-6.2643161 -1.9439241 0.11448779 3
-1.9506294 -0.6049403 -0.47149745 4
-6.2344689 -1.9322749 0.34206784 12
-2.3140607 -0.71720648 -0.47091663 5
-6.4384708 -1.9942721 0.58969575 8
-2.8418744 -0.8797068 -0.47118065 6
-7.0110583 -2.1689439 0.90110201 11
-3.7437315 -1.1574473 -0.4811402 4
-19.356562 -5.980752 3.2087841 65
-5.3966913 -1.6674589 -0.49417305 7
-16.920252 -5.224751 3.4421945 52
-6.0860567 -1.8781323 -0.33379877 16
-14.530684 -4.4813285 3.5105863 84
-6.0004988 -1.8494341 -0.10960111 1
-12.020946 -3.7027225 3.3703418 74
-6.1582613 -1.8874722 0.1124284 16
-1.9601823 -0.60041004 -0.47329703 4
-6.1873717 -1.8952115 0.33913705 11
-2.3146727 -0.70855039 -0.47053501 5
-29.399599 -8.9939756 2.6898005 36
-2.850595 -0.87151402 -0.47211927 6
-6.699646 -2.0470099 0.86015391 7
-3.7458503 -1.1437924 -0.48089647 5
-19.327168 -5.901535 3.2006495 63
-5.4062905 -1.6497737 -0.49452168 6
-16.900826 -5.1542053 3.434562 48
-6.0830235 -1.8539636 -0.33327541 16
-14.503361 -4.4175196 3.5002384 76
-5.995121 -1.8260294 -0.10939168 1
-12.007284 -3.654963 3.3630948 77
-1.7139409 -0.5191018 -0.47985053 1
-6.1147265 -1.8519691 0.11152088 16
-1.9509715 -0.59051919 -0.47059759 3
-6.1595373 -1.8631942 0.33725294 11
-2.3039773 -0.69648957 -0.46786368 100
-6.7573972 -2.0414646 0.6175856 7
-2.8591423 -0.86377007 -0.4730579 6
-6.8451238 -2.0666656 0.87794685 9
-3.7458215 -1.1302174 -0.480409 5
-19.28713 -5.8157806 3.1906378 65
-5.4120159 -1.6308932 -0.49452168 6
-16.876472 -5.0856695 3.4261665 53
-6.0719256 -1.8285991 -0.33233336 16
-14.471279 -4.3553596 3.488991 82
-5.9631591 -1.7935734 -0.10869358 3
-11.986668 -3.6030176 3.3537772 74
-1.7156528 -0.51341528 -0.47985053 1
-6.0847521 -1.8197284 0.11085769 13
-1.9642236 -0.58705401 -0.47329703 4
-6.2096958 -1.8559124 0.33966038 16
-2.3025119 -0.68772167 -0.46710047 6
-6.0233779 -1.797937 0.54995275 13
-2.8583541 -0.85265577 -0.47243217 6
-6.2492485 -1.8629826 0.80068165 10
-3.7630618 -1.1211017 -0.48211515 5
-19.255198 -5.7365613 3.1821902 61
-5.4078465 -1.6100944 -0.49365011 7
-16.850843 -5.0138507 3.4173894 56
-6.0687003 -1.804545 -0.33181 16
-14.456505 -4.2959399 3.4817924 84
-5.965241 -1.7726495 -0.10862378 1
-11.959661 -3.5516984 3.342907 65
-1.6729701 -0.49428657 -0.46742722 1
-6.2441721 -1.8448689 0.11365007 3
-1.9698975 -0.58164078 -0.47419682 4
-6.2276297 -1.8376166 0.34028843 18
-2.3199632 -0.6841225 -0.47015342 100
-6.0047727 -1.7695787 0.5476867 10
-2.8535864 -0.84093875 -0.47118065 7
-6.1925526 -1.8237422 0.79263824 15
-3.7686627 -1.1091779 -0.4823589 4
-19.227724 -5.6553817 3.1743686 57
-5.4306374 -1.5962644 -0.4952189 9
-16.810869 -4.9413333 3.4059408 56
-6.05932 -1.7799084 -0.33097261 15
-14.435143 -4.2375474 3.4732442 86
-5.9637165 -1.7495643 -0.10848416 1
-11.947886 -3.5028613 3.3361776 71
-1.6821893 -0.49031344 -0.46949777 1
-6.2204924 -1.8119303 0.1130916 3
-1.9571474 -0.56971586 -0.47059759 4
-6.1387525 -1.7857963 0.33505484 11
-2.3186846 -0.67451793 -0.46939012 100
-5.921298 -1.721417 0.53949404 8
-2.8548975 -0.8294245 -0.47086781 6
-6.1842585 -1.795523 0.7906884 14
-3.7633617 -1.0919334 -0.4811402 4
-19.211351 -5.570508 3.1681111 57
-5.4383655 -1.5769042 -0.49539325 9
-16.782578 -4.8630881 3.3964005 53
-6.0354147 -1.7477406 -0.32929787 14
-14.415742 -4.1717963 3.4646962 84
-5.9319711 -1.7155415 -0.10778606 1
-11.927842 -3.4473071 3.3268602 77
-1.6950299 -0.48764309 -0.47260359 1
-6.2229352 -1.7891018 0.11302178 3
-1.9591244 -0.5628801 -0.47059759 4
-6.1084738 -1.7538844 0.33306605 23
-2.3172512 -0.66533649 -0.46862692 100
-5.9904699 -1.7188727 0.54524636 10
-2.8558767 -0.81890947 -0.47055492 7
-6.188581 -1.7733783 0.79044467 11
-3.7652414 -1.0782444 -0.48089647 4
-19.173706 -5.4871092 3.1587253 61
-5.4342594 -1.5551701 -0.49452168 9
-16.769249 -4.7958384 3.3902946 53
-6.0280361 -1.7228204 -0.32856518 14
-14.387119 -4.1091409 3.4543483 81
-5.9417691 -1.695922 -0.10785587 1
-11.917509 -3.399291 3.3206487 77
-1.6818545 -0.47750273 -0.4684625 1
-6.2252951 -1.7662755 0.11295197 3
-1.976076 -0.56029069 -0.47419682 4
-5.9355559 -1.6829499 0.32333156 18
-2.3120039 -0.65510339 -0.46710047 100
-5.9830141 -1.69415 0.54402614 6
-2.8701222 -0.81216264 -0.47243217 7
-6.1584392 -1.7415032 0.78581363 7
-3.7613416 -1.0629344 -0.47992152 5
-19.142372 -5.4095287 3.1505907 63
-5.4339027 -1.534567 -0.49399874 7
-16.748096 -4.7266121 3.3826621 55
-6.0263243 -1.6995994 -0.32814649 15
-14.361986 -4.0477939 3.4449005 84
-5.9050164 -1.6642747 -0.10708796 1
-11.893386 -3.3498039 3.3108134 82
-1.6946725 -0.47475585 -0.47156835 2
-6.2041597 -1.7380712 0.11246331 3
-1.9704169 -0.55163324 -0.47239724 3
-5.9837084 -1.6740601 0.32563433 21
-2.3142765 -0.64702892 -0.46710047 100
-5.9505134 -1.6625322 0.54053992 6
-2.8670921 -0.80104572 -0.47149354 7
-5.9806318 -1.6698236 0.76241469 10
-3.7705822 -1.052056 -0.48065275 4
-19.105957 -5.3272901 3.1415172 63
-5.4257913 -1.5118475 -0.49277857 6
-16.720181 -4.6589265 3.3738849 56
-6.0223069 -1.676927 -0.32762313 12
-14.347169 -3.9923081 3.4381518 89
-5.8953767 -1.6393675 -0.10680873 1
-11.864057 -3.296885 3.2994251 82
-1.6869277 -0.46655855 -0.4689801 3
-6.1716409 -1.7057481 0.11176521 3
-1.9704518 -0.54423338 -0.47194731 3
-6.0049181 -1.6574141 0.32647175 25
-2.3183017 -0.63987315 -0.46748206 100
-5.9444695 -1.6396117 0.53949404 2
-2.8660619 -0.78998357 -0.47086781 7
-5.9309235 -1.6336495 0.7553463 12
-3.7799733 -1.040468 -0.48138395 4
-19.086344 -5.2500916 3.1352601 61
-5.4387197 -1.4950107 -0.49347579 6
-16.683338 -4.5859632 3.3631997 56
-5.9973087 -1.6474302 -0.32594836 12
-14.323432 -3.9318891 3.4291539 91
-5.9010639 -1.6187773 -0.10680873 1
-11.847547 -3.2477903 3.2916608 77
-1.6811712 -0.45833999 -0.46690959 3
-6.1736984 -1.6831439 0.1116954 3
-1.9666989 -0.53581506 -0.47059759 4
-6.0318651 -1.6422139 0.32762313 20
-2.3319979 -0.63446426 -0.46977177 100
-6.1907644 -1.6831545 0.56128299 30
-2.8594072 -0.7768833 -0.46930346 7
-5.9365902 -1.6129351 0.7553463 15
-3.7663403 -1.0225867 -0.47919029 4
-19.056892 -5.1705036 3.1274381 64
-5.4554434 -1.4791439 -0.49452168 6
-16.652658 -4.5119486 3.3536589 52
-5.9840279 -1.6202193 -0.32490164 12
-14.307651 -3.8712175 3.4219556 89
-5.9182611 -1.6013024 -0.10701816 1
-11.836432 -3.2003667 3.285449 71
-1.6958199 -0.45598012 -0.47053304 2
-6.0948539 -1.6376728 0.11015959 13
-1.9630033 -0.52708703 -0.46924794 5
-6.1400819 -1.6475279 0.33317071 8
-2.3323021 -0.62581134 -0.46939012 100
-6.3236132 -1.6955906 0.57278752 10
-2.8773658 -0.77098811 -0.47180638 7
-5.9443784 -1.5916803 0.75559002 14
-3.7700627 -1.0087755 -0.47919029 4
-19.026098 -5.0873547 3.1193035 60
-5.4567232 -1.4590635 -0.49417305 6
-16.639856 -4.4461904 3.347935 56
-5.9799995 -1.5967436 -0.32437828 13
-14.274005 -3.8086903 3.410708 84
-5.8931746 -1.5713583 -0.10645968 1
-11.825684 -3.1509907 3.2792375 77
-1.6974013 -0.4500578 -0.47053304 2
-6.100533 -1.6163876 0.11015959 26
-1.9704827 -0.52172804 -0.47059759 5
-6.4238338 -1.6996496 0.34824347 21
-2.3154931 -0.61264455 -0.46557397 100
-6.5355959 -1.7279998 0.59143883 11
-2.8857691 -0.76245332 -0.472745 6
-5.9786887 -1.578522 0.75924611 7
-3.7754805 -0.99611562 -0.47943404 4
-18.986439 -5.0058017 3.1099176 58
-5.4733424 -1.4430546 -0.4952189 6
-16.624901 -4.3800759 3.3418288 58
-5.9662228 -1.5707747 -0.32333156 14
-14.249519 -3.7489283 3.4017098 84
-5.8870201 -1.5477266 -0.10625025 1
-11.793634 -3.0984018 3.2673318 65
-1.6914856 -0.44217604 -0.4684625 3
-6.1100078 -1.5960938 0.1102294 32
-1.9798343 -0.51681536 -0.47239724 4
-6.2287369 -1.6247883 0.33735761 13
-2.3195169 -0.60505426 -0.46595559 100
-5.9497027 -1.5508907 0.53792524 15
-2.8845897 -0.75137949 -0.47211927 6
-5.9841623 -1.5576425 0.75924611 9
-3.7808559 -0.98343021 -0.47967777 4
-18.959826 -4.9280667 3.1027217 56
-5.4629202 -1.4199306 -0.49382445 6
-16.590685 -4.3091807 3.3319068 60
-5.9697351 -1.5494384 -0.3232269 12
-14.237997 -3.6928046 3.3958611 86
-5.8730297 -1.5221491 -0.1059012 1
-11.31814 -2.9312871 3.132746 25
-1.6799238 -0.43289405 -0.46483904 3
-6.1174784 -1.5752546 0.11026431 29
-1.9816262 -0.5099017 -0.47239724 3
-6.4394116 -1.655756 0.34845284 11
-2.3406291 -0.60184234 -0.46977177 100
-5.9859557 -1.538046 0.5407142 23
-2.8795414 -0.73934138 -0.47086781 7
-6.3222098 -1.6220915 0.80141288 12
-3.7804198 -0.96924055 -0.47919029 4
-18.932896 -4.8505821 3.0955255 60
-5.4601231 -1.3988761 -0.4931272 6
-16.563782 -4.2405338 3.3235114 60
-5.9615631 -1.5251255 -0.32249418 13
-14.222481 -3.6358387 3.3891127 92
-5.8550572 -1.4957012 -0.10548234 1
-11.313328 -2.8879383 3.1286047 27
-1.6907867 -0.429405 -0.46742722 3
-6.1190629 -1.5529083 0.11019449 27
-1.9626155 -0.49771205 -0.46744829 3
-6.0905824 -1.5445492 0.32929787 26
-2.3408124 -0.59318602 -0.46939012 100
-5.9758363 -1.5132302 0.53931969 10
-2.8763599 -0.72783089 -0.46992919 7
-6.3278332 -1.6000129 0.80141288 15
-3.7914786 -0.95798445 -0.48016527 4
-18.914406 -4.7790604 3.0898938 60
-5.4649734 -1.3798066 -0.4931272 6
-16.532797 -4.1711626 3.3143525 56
-5.9455471 -1.498937 -0.3213428 12
-14.199181 -3.5771284 3.3805645 86
-5.8754978 -1.4801848 -0.10576159 1
-11.337831 -2.8541789 3.132746 28
-1.7091417 -0.42772174 -0.47208595 3
-1.9680362 -0.49214646 -0.46834809 3
-6.0726852 -1.5174677 0.32804179 12
-2.3314402 -0.58215827 -0.46710047 100
-5.9791489 -1.4918789 0.53914541 13
-2.8902574 -0.72115844 -0.47180638 7
-6.3215475 -1.5761385 0.79995042 16
-3.7850032 -0.94300652 -0.47894657 4
-11.681383 -2.9081681 1.9066235 28
-5.4852238 -1.3645695 -0.49452168 6
-11.661642 -2.901089 2.3358839 28
-5.9291649 -1.4739109 -0.32019141 14
-11.680452 -2.9014397 2.7785954 33
-5.8573389 -1.4538853 -0.10534272 1
-11.351475 -2.8155148 3.1337812 27
-1.699297 -0.4192749 -0.4689801 3
-6.1314335 -1.5117 0.1102294 3
-1.9735265 -0.48620555 -0.46924794 3
-6.1070352 -1.5034237 0.3296119 22
-2.3276389 -0.57301569 -0.46595559 100
-6.1001463 -1.5005985 0.54960412 20
-2.8965936 -0.71200752 -0.47243217 7
-6.3250833 -1.5535905 0.7997067 19
-3.7863441 -0.92931533 -0.47870281 4
-11.660768 -2.859843 1.9016175 31
-5.4858484 -1.345423 -0.49417305 7
-11.673605 -2.8608317 2.3362653 43
-5.9148741 -1.4484559 -0.3191447 14
-11.664008 -2.8541644 2.7722967 30
-5.8351836 -1.4267811 -0.10485406 1
-11.364986 -2.776793 3.1348164 28
-1.7045047 -0.41425312 -0.47001541 3
-6.1288996 -1.4884001 0.11008978 3
-1.9827868 -0.48115233 -0.47104752 3
-6.3645768 -1.5432819 0.34321922 16
-2.3296249 -0.56488717 -0.46595559 100
-6.1285834 -1.4849259 0.55169582 7
-2.8971412 -0.70142716 -0.47211927 7
-6.2957377 -1.5231001 0.79531944 7
-3.7992127 -0.91842407 -0.47992152 5
-11.639957 -2.8117006 1.8966117 26
-5.475018 -1.3225231 -0.49277857 6
-11.641533 -2.8099339 2.3278699 36
-5.9257183 -1.4292035 -0.31945869 17
-11.654956 -2.8088663 2.7677979 30
-5.8206873 -1.4017233 -0.10450501 1
-11.352071 -2.731678 3.1286047 25
-1.7078191 -0.40875039 -0.47053304 3
-6.0834923 -1.454904 0.10918226 3
-1.9863497 -0.47468111 -0.47149745 4
-6.1989732 -1.4802346 0.33400813 10
-2.3315825 -0.55675173 -0.46595559 100
-6.3391562 -1.5125376 0.57017285 10
-2.8880429 -0.68856186 -0.47024205 7
-6.1716356 -1.4702917 0.7789889 10
-3.8004644 -0.90469694 -0.47967777 5
-11.620874 -2.7641981 1.8919187 23
-5.4931693 -1.3066322 -0.49399874 7
-11.6188 -2.7615623 2.3213823 34
-5.9228983 -1.406664 -0.31904003 15
-11.645728 -2.7636683 2.7632987 38
-5.8255453 -1.3813951 -0.10450501 1
-11.359657 -2.6915898 3.128087 26
-1.701714 -0.40101442 -0.4684625 2
-6.0885339 -1.4336596 0.10918226 3
-1.9728191 -0.46417391 -0.46789822 4
-6.2177119 -1.4617882 0.33474082 16
-2.3488007 -0.55220461 -0.46900854 100
-6.2920284 -1.4780997 0.56546646 11
-2.896198 -0.67983067 -0.47118065 7
-6.0897617 -1.4283398 0.76802069 16
-3.7900703 -0.88825542 -0.47797161 6
-11.609295 -2.7186618 1.8884771 25
-5.4996362 -1.2879035 -0.49417305 7
-11.592049 -2.7124863 2.3141315 36
-5.9083242 -1.3814348 -0.31799328 14
-11.630634 -2.7172365 2.7574499 39
-5.8147531 -1.3574148 -0.10422577 1
-11.389678 -2.6567504 3.1337812 28
-1.7181586 -0.39856377 -0.47260359 3
-6.0740199 -1.4078823 0.1088332 3
-1.978224 -0.45816448 -0.46879801 5
-6.181664 -1.4316977 0.33254269 15
-2.3430634 -0.54223126 -0.46748206 100
-6.3282084 -1.4633092 0.56825542 18
-2.8985534 -0.66971755 -0.47118065 7
-6.1295261 -1.415113 0.77240795 12
-3.7602646 -0.8674345 -0.47382805 7
-11.58745 -2.6730442 1.8834713 29
-5.5196304 -1.2722783 -0.49556756 7
-11.586142 -2.6684835 2.3110785 36
-5.8936462 -1.356323 -0.31694657 14
-11.596369 -2.6665742 2.7471023 39
-5.8114266 -1.3363321 -0.10408615 1
-11.402191 -2.6198308 3.1348164 28
-1.7195394 -0.39256379 -0.47260359 2
-6.0825548 -1.3886223 0.10890301 3
-1.9816325 -0.45203522 -0.46924794 5
-6.1690989 -1.4061147 0.33160067 8
-2.3411133 -0.53317714 -0.46671882 100
-6.3138504 -1.4367895 0.56651235 10
-2.9084632 -0.66185439 -0.47243217 6
-6.1728988 -1.4035814 0.77728271 7
-3.7340839 -0.84836316 -0.47017199 7
-11.558184 -2.6238339 1.8772138 29
-5.5240378 -1.2530032 -0.49556756 7
-11.575781 -2.6257045 2.3072627 36
-5.886425 -1.3341224 -0.31631854 15
-11.58044 -2.6225116 2.7412536 37
-5.7731471 -1.3063303 -0.10331824 3
-11.411266 -2.5800138 3.1348164 28
-1.6982139 -0.38177469 -0.46639192 2
-6.0717559 -1.3638769 0.10862378 3
-2.0022128 -0.4493829 -0.47374693 5
-6.3123379 -1.4156021 0.33903235 7
-2.3409526 -0.52498102 -0.46633717 6
-6.3205242 -1.4162796 0.56668663 11
-2.9069004 -0.65083534 -0.47180638 6
-6.1816349 -1.3828919 0.77777022 7
-3.7389598 -0.83575654 -0.47041571 7
-11.555705 -2.5808885 1.8753366 33
-5.5164962 -1.2320721 -0.49452168 9
-11.561882 -2.5801499 2.3026831 36
-5.8832483 -1.311828 -0.31589985 15
-11.576208 -2.5791054 2.7381043 38
-5.78548 -1.2879083 -0.10345787 1
-11.412662 -2.5384872 3.132746 29
-1.7051951 -0.3770963 -0.46794486 3
-6.0452385 -1.335771 0.1080653 3
-1.9961575 -0.4407101 -0.47194731 6
-6.2275243 -1.3737681 0.33421743 17
-2.3523571 -0.51892102 -0.46824533 100
-6.3954744 -1.4096483 0.57296187 20
-2.903367 -0.63940907 -0.47086781 6
-6.2155051 -1.3677045 0.78142631 16
-3.7728748 -0.82952118 -0.47431552 5
-11.529913 -2.5329061 1.869705 31
-5.512979 -1.2110983 -0.49382445 9
-11.532466 -2.5313573 2.2950509 36
-5.8682823 -1.2870063 -0.31485313 16
-11.560394 -2.5332582 2.7322555 35
-5.8211951 -1.2745485 -0.10401635 1
-11.442211 -2.5031753 3.1384399 46
-1.6970624 -0.36908895 -0.46535668 2
-6.0576806 -1.3163593 0.10820492 3
-1.9881619 -0.43167207 -0.4696978 5
-6.2635112 -1.3587978 0.3358922 5
-2.3579912 -0.51153952 -0.46900854 100
-6.363359 -1.3792961 0.56964993 16
-2.8997896 -0.62801611 -0.46992919 6
-6.20472 -1.3426427 0.7794764 9
-3.7912698 -0.81970131 -0.47626543 4
-11.5271 -2.4901409 1.8678278 30
-5.5290661 -1.1934075 -0.49487031 9
-11.512444 -2.484875 2.2893264 35
-5.8532162 -1.2623023 -0.31380641 12
-11.538686 -2.4863212 2.7250571 37
-5.7904201 -1.2466463 -0.10338806 1
-11.509427 -2.4758132 3.1544867 68
-1.7210745 -0.36770958 -0.47156835 2
-6.0387721 -1.2901908 0.10778606 3
-1.9877506 -0.42432302 -0.46924794 5
-6.647161 -1.4177495 0.35619855 15
-2.3560102 -0.50207466 -0.46824533 100
-6.7347288 -1.433969 0.60242045 18
-2.9155967 -0.62026155 -0.47211927 5
-6.2928591 -1.3387375 0.78995717 9
-3.7552738 -0.79820776 -0.47139066 4
-11.504806 -2.443325 1.8628219 32
-5.5215044 -1.1716187 -0.49382445 7
-11.502271 -2.4385884 2.2855103 35
-5.8382635 -1.236703 -0.3127597 14
-11.522937 -2.4387674 2.7192082 39
-5.8025618 -1.2280809 -0.10352767 1
-11.514219 -2.434823 3.1534514 31
-1.7242382 -0.36209705 -0.47208595 3
-6.0434604 -1.2680502 0.10778606 3
-1.9892926 -0.41703418 -0.46924794 5
-6.0854101 -1.2746347 0.32584369 6
-2.3481402 -0.49183559 -0.46633717 100
-6.2970114 -1.317809 0.56285179 11
-2.9293458 -0.61250544 -0.47399649 5
-6.2472019 -1.3051093 0.78361994 6
-3.6279786 -0.7572639 -0.45506018 7
-11.478876 -2.3938797 1.8571903 30
-5.5316129 -1.1525927 -0.49434736 9
-11.493415 -2.3948214 2.2820759 33
-5.84059 -1.215909 -0.31265503 14
-11.500854 -2.3921804 2.7120099 39
-5.7639518 -1.1978554 -0.10275977 1
-11.49091 -2.3859308 3.1446514 32
-1.7047409 -0.35148376 -0.46639192 3
-6.0439329 -1.246139 0.10771625 3
-2.004097 -0.41284043 -0.47239724 5
-6.0937347 -1.25419 0.32605305 7
-2.3422353 -0.48164415 -0.46481073 100
-6.268621 -1.2879039 0.55988848 8
-2.9199605 -0.59938216 -0.47211927 6
-6.370337 -1.3076432 0.79848802 12
-3.6617141 -0.75097549 -0.45896 7
-11.46781 -2.3498333 1.8540615 28
-5.5258427 -1.1312785 -0.49347579 9
-11.47134 -2.3463819 2.2759697 34
-5.8371797 -1.1928942 -0.31223634 15
-11.492358 -2.3465052 2.7079606 39
-5.7563415 -1.1753275 -0.10255034 1
-11.468884 -2.3396242 3.1363695 31
-1.7115166 -0.34727883 -0.46794486 3
-6.0049157 -1.2173488 0.10694835 3
-1.9997251 -0.40503171 -0.47104752 5
-6.1448417 -1.2434826 0.32856518 10
-2.353358 -0.47623029 -0.46671882 100
-2.9160204 -0.58903229 -0.47118065 6
-6.382422 -1.2880816 0.79946297 6
-3.8334799 -0.77296543 -0.48016527 4
-11.448428 -2.3063297 1.8496813 27
-5.52351 -1.1127323 -0.49295285 9
-11.451709 -2.3049111 2.2706273 34
-5.8311086 -1.1725814 -0.31171298 13
-11.474837 -2.3053989 2.7021122 41
-5.7680497 -1.1578064 -0.10268996 1
-11.459532 -2.2981601 3.1317105 29
-1.7070346 -0.34016973 -0.46639192 2
-5.9934387 -1.1932579 0.10666911 3
-1.9915704 -0.39614794 -0.46879801 5
-6.2431741 -1.2407118 0.3335894 10
-2.355006 -0.46801257 -0.46671882 100
-6.5076251 -1.2920876 0.58045721 10
-2.9083705 -0.57692802 -0.46961632 7
-11.436018 -2.2664673 1.4314774 7
-3.8244708 -0.75726581 -0.47870281 4
-11.444782 -2.2640529 1.8478041 27
-5.5429969 -1.0965379 -0.49434736 9
-11.428869 -2.2588322 2.2645214 35
-5.807734 -1.146803 -0.3102476 18
-11.459871 -2.2608037 2.6967132 37
-5.7485127 -1.1330245 -0.1022711 1
-11.444737 -2.2536681 3.1254988 29
-1.7252747 -0.33754775 -0.47105068 3
-6.0054178 -1.1738625 0.10680873 3
-1.9967662 -0.38994059 -0.4696978 5
-6.1827774 -1.2062917 0.33013523 8
-2.3546984 -0.45941374 -0.46633717 100
-6.6020527 -1.2868968 0.58847558 10
-2.9142447 -0.56752753 -0.47024205 7
-6.3737216 -1.240082 0.79726928 10
-3.8153992 -0.74163854 -0.47724038 4
-11.431286 -2.2199469 1.8443626 24
-5.5467911 -1.0771824 -0.49434736 9
-11.421266 -2.2159352 2.2614682 33
-5.8156233 -1.1272832 -0.31045693 18
-11.431343 -2.2137477 2.6881652 39
-5.7759929 -1.1175082 -0.10268996 1
-11.427876 -2.2089384 3.1187694 27
-1.7264425 -0.3315233 -0.47105068 3
-6.0094786 -1.1528924 0.10680873 3
-2.0019429 -0.38370228 -0.47059759 6
-6.2340298 -1.1937157 0.33264738 37
-2.3505034 -0.45008329 -0.46519238 100
-6.4616938 -1.2361405 0.57557648 18
-2.9278493 -0.55957705 -0.47211927 6
-6.3819118 -1.218569 0.79775679 7
-3.8179646 -0.72831565 -0.47724038 4
-11.402096 -2.1730063 1.8384181 30
-5.5505171 -1.0578151 -0.49434736 9
-11.413503 -2.1731136 2.2584155 35
-5.7842054 -1.1002579 -0.30857283 12
-11.408368 -2.1680124 2.6809666 37
-5.7562823 -1.0928646 -0.1022711 1
-11.416538 -2.1654339 3.1135933 30
-1.7161986 -0.32334828 -0.46794486 3
-6.0056057 -1.13043 0.10666911 3
-2.0090156 -0.37779224 -0.47194731 5
-6.222455 -1.1689972 0.33181 11
-2.3482008 -0.44115067 -0.46442911 100
-6.579545 -1.2348956 0.58568656 18
-2.9297848 -0.54935342 -0.47211927 6
-11.400592 -2.1356218 1.4241652 18
-3.8165812 -0.7142545 -0.47675291 4
-11.382428 -2.1281071 1.8340379 22
-5.5424252 -1.0362353 -0.49330151 9
-11.390141 -2.127492 2.2523096 34
-5.7899737 -1.080428 -0.30867749 15
-11.398625 -2.1249595 2.6769176 39
-5.7404037 -1.0691034 -0.10192205 1
-11.386043 -2.1185043 3.1032405 33
-1.7116176 -0.31630287 -0.46639192 3
-5.9741182 -1.1029246 0.10604082 3
-2.0045729 -0.36971626 -0.47059759 5
-6.1302519 -1.1295371 0.32668105 13
-2.361311 -0.43508625 -0.46671882 100
-6.8424654 -1.2595321 0.60869569 13
-2.9180851 -0.53662157 -0.46992919 6
-11.384548 -2.0915115 1.4212404 23
-3.8327186 -0.7034362 -0.47845906 4
-11.380073 -2.0865805 1.8324735 12
-5.5460086 -1.0168822 -0.49330151 9
-11.366599 -2.0820625 2.2462037 33
-5.7760282 -1.0569749 -0.30773544 12
-11.394472 -2.083055 2.6742182 39
-5.7441001 -1.0490603 -0.10192205 1
-11.364861 -2.0735426 3.0954759 28
-1.7165133 -0.3110151 -0.46742722 3
-5.9582548 -1.0785024 0.10569178 3
-1.9962629 -0.36098331 -0.46834809 6
-6.1498814 -1.1109719 0.32751846 11
-2.3705435 -0.42823711 -0.46824533 100
-6.7879987 -1.2250241 0.60346633 13
-2.9102204 -0.5246805 -0.46836486 5
-7.380919 -1.329368 0.92084479 5
-3.8273363 -0.68864614 -0.47748414 4
-7.5299568 -1.3534975 1.2117414 9
-5.5534458 -0.99822289 -0.49365011 9
-11.350609 -2.0382087 2.2416241 34
-5.7600245 -1.0332782 -0.30668873 12
-11.380574 -2.0394864 2.6692691 39
-5.7477274 -1.0290031 -0.10192205 1
-11.351111 -2.0301178 3.089782 30
-1.7328053 -0.3077237 -0.47156835 2
-5.9462318 -1.0549031 0.10541254 3
-1.9917543 -0.35299262 -0.46699843 5
-6.4231563 -1.1372005 0.34185851 10
-2.3604245 -0.41790605 -0.46595559 100
-6.5646486 -1.1610696 0.58324623 31
-2.9275961 -0.51726824 -0.47086781 5
-7.3131838 -1.2908286 0.91182649 8
-3.8199415 -0.67355925 -0.47626543 4
-7.3576016 -1.2960205 1.1832705 6
-5.5568962 -0.97883147 -0.49365011 9
-11.342186 -1.9958531 2.2385712 34
-5.7576947 -1.0121282 -0.3063747 12
-11.347317 -1.9926728 2.6598213 41
-5.7118921 -1.0020216 -0.10122395 1
-11.360031 -1.9908155 3.0902996 30
-1.7338687 -0.30167359 -0.47156835 1
-5.9498782 -1.0341402 0.10541254 3
-1.9948945 -0.34637126 -0.46744829 5
-6.8265653 -1.1840615 0.36310691 16
-2.3463938 -0.40697989 -0.46290264 100
-2.9410625 -0.50906718 -0.472745 5
-7.3411188 -1.2693497 0.91475141 7
-3.8183575 -0.65954518 -0.47577798 3
-7.3212023 -1.2632761 1.1767002 6
-5.562243 -0.95976704 -0.49382445 9
-11.337477 -1.9542453 2.2362814 35
-5.7356048 -0.98761916 -0.30501398 11
-11.331157 -1.9490865 2.6544223 41
-5.6680555 -0.97394949 -0.10038625 1
-11.340255 -1.9465764 3.0830526 25
-1.7158672 -0.29237393 -0.46639192 2
-5.9376802 -1.0106804 0.1051333 3
-2.0153029 -0.34267277 -0.47194731 5
-6.7853689 -1.1525326 0.36069945 24
-2.3594136 -0.40075949 -0.46519238 100
-6.1875887 -1.0498853 0.54908115 15
-2.9311357 -0.49681783 -0.47086781 5
-11.328479 -1.9181031 1.4107596 6
-3.8167214 -0.64555037 -0.47529048 4
-7.3956876 -1.249558 1.1879635 10
-5.5419846 -0.93636066 -0.49173269 9
-11.320998 -1.9107398 2.2317021 39
-5.7350783 -0.96692795 -0.30480465 11
-11.318675 -1.9062821 2.6499236 44
-5.6793084 -0.9554866 -0.10052586 1
-11.303162 -1.899615 3.0711467 22
-1.7168772 -0.28638262 -0.46639192 2
-5.9175024 -0.98600519 0.10471445 3
-2.01072 -0.33467552 -0.47059759 4
-6.6295714 -1.1034631 0.35222104 24
-2.3530512 -0.39123306 -0.46366587 100
-6.3111095 -1.0481943 0.5597142 7
-2.927006 -0.48561254 -0.46992919 5
-7.4163861 -1.2291048 0.92303848 9
-3.838536 -0.63546658 -0.47772786 4
-11.299442 -1.8706137 1.8140143 13
-5.5373564 -0.91571075 -0.49103546 9
-11.277238 -1.8628911 2.2217801 35
-5.7246242 -0.94462645 -0.30407193 12
-11.309877 -1.8642277 2.6463244 34
-5.6508765 -0.93144429 -0.099967383 1
-11.290339 -1.8589832 3.0659707 25
-1.7331194 -0.28287777 -0.47053304 2
-5.924686 -0.96702051 0.10478425 3
-2.0002787 -0.32612482 -0.46789822 4
-6.3140335 -1.0283054 0.33526415 10
-2.3640916 -0.38459373 -0.46557397 100
-6.1121702 -0.99324155 0.54176009 30
-2.9188514 -0.47431993 -0.46836486 5
-7.2205577 -1.1720617 0.89817715 9
-3.8367031 -0.62209845 -0.47724038 4
-11.286403 -1.8279984 1.8108855 18
-5.5346189 -0.89542145 -0.49051252 9
-11.262034 -1.8220347 2.2175822 33
-5.7158957 -0.92372572 -0.30344391 12
-11.292912 -1.8229854 2.6409254 30
-5.6264553 -0.90725654 -0.099478714 1
-11.277685 -1.8164886 3.0607941 31
-1.734048 -0.27712893 -0.47053304 2
-5.9122286 -0.94381166 0.10450501 3
-1.997556 -0.31852627 -0.46699843 4
-6.0296154 -0.96039283 0.31998208 10
-2.3731093 -0.37798718 -0.46710047 100
-6.050498 -0.96263629 0.53600776 20
-2.9321945 -0.46598777 -0.47024205 5
-7.2206841 -1.1462276 0.89768964 7
-3.8251274 -0.60652584 -0.47553423 5
-11.273206 -1.7855002 1.8077569 30
-5.5572367 -0.8801797 -0.49225563 9
-11.27996 -1.7845521 2.219872 21
-5.7111936 -0.90252209 -0.30302522 12
-11.306906 -1.7847697 2.642725 15
-5.6295877 -0.88761085 -0.099478714 1
-11.268691 -1.7747066 3.056653 31
-1.7235527 -0.26928496 -0.46742722 3
-5.9075842 -0.92193484 0.10436539 3
-2.0140595 -0.31395316 -0.47059759 4
-5.9974079 -0.93380845 0.31809795 2
-2.3608351 -0.36758676 -0.46442911 6
-6.0538216 -0.94150865 0.53600776 25
-2.9455152 -0.45756891 -0.47211927 5
-11.25969 -1.7471188 1.3990601 7
-3.8174129 -0.5916487 -0.47431552 4
-7.5234833 -1.1646963 1.205797 7
-5.5504303 -0.85925168 -0.49138409 9
-11.346266 -1.7544694 2.2317021 59
-5.7143097 -0.88257927 -0.30302522 12
-11.3304 -1.747964 2.6467741 46
-5.6247458 -0.86673748 -0.099339098 1
-11.244267 -1.7306583 3.0483708 29
-1.7149335 -0.2618092 -0.46483904 3
-5.8475075 -0.89166164 0.10324844 3
-2.0228493 -0.30809453 -0.47239724 4
-5.9808855 -0.90986389 0.31705123 10
-2.3737493 -0.36111522 -0.46671882 6
-6.0452533 -0.91857523 0.53496194 26
-2.9392822 -0.44609934 -0.47086781 5
-11.246093 -1.704829 1.3966229 16
-3.8273056 -0.57950848 -0.47529048 4
-7.4806275 -1.1313398 1.1982881 17
-5.5533957 -0.83987308 -0.49138409 11
-11.35038 -1.7145565 2.2313204 68
-5.7213049 -0.86322302 -0.30323455 13
-11.380753 -1.7150844 2.6571219 56
-5.592144 -0.84173906 -0.098710813 1
-11.225405 -1.6876638 3.0416417 30
-1.7196584 -0.25639153 -0.46587428 3
-5.8584957 -0.87242258 0.10338806 3
-2.0181298 -0.30017143 -0.47104752 3
-6.1519494 -0.91392618 0.32594836 10
-2.3749955 -0.35282645 -0.46671882 6
-5.9873271 -0.88840365 0.5295583 30
-2.9369135 -0.43525738 -0.47024205 5
-7.0359216 -1.0414833 0.87331581 5
-3.839124 -0.56759769 -0.47650915 4
-7.4688973 -1.1029118 1.1957852 18
-5.5543222 -0.82019174 -0.49120975 13
-11.397084 -1.6809412 2.2393346 24
-5.7203317 -0.84266573 -0.30302522 14
-5.5910912 -0.82163209 -0.098641008 1
-11.204469 -1.6445444 3.0343947 30
-1.7473069 -0.25428167 -0.47312123 3
-5.7902646 -0.84161234 0.10213149 27
-2.0133798 -0.29228553 -0.4696978 4
-5.9653492 -0.8649348 0.31589985 10
-2.3800983 -0.34509796 -0.46748206 6
-5.9923635 -0.8677839 0.52973258 10
-2.9305947 -0.42387253 -0.46899059 6
-7.0139728 -1.0132289 0.87014717 9
-3.8371522 -0.55362612 -0.47602168 4
-7.5020294 -1.081058 1.2004782 12
-5.5630679 -0.80164957 -0.49173269 10
-13.655087 -1.965297 2.6816299 51
-5.6916075 -0.81814593 -0.30135047 10
-12.821812 -1.8407975 2.9904993 19
-5.6018424 -0.80324703 -0.098780625 1
-11.204403 -1.6046015 3.0328417 27
-1.7328824 -0.24600857 -0.4689801 3
-5.8070264 -0.82336181 0.10237581 8
-2.0085993 -0.28443551 -0.46834809 3
-5.8931842 -0.83347815 0.31192234 17
-2.3793447 -0.33651277 -0.46710047 100
-6.2971954 -0.88949692 0.55640227 10
-2.9340127 -0.4139154 -0.46930346 6
-7.0017419 -0.98652351 0.86819732 22
-3.8311987 -0.53912205 -0.47504675 4
-11.183325 -1.5717148 1.788672 18
-5.5678048 -0.78250438 -0.49190697 9
-13.745463 -1.9293538 2.6980393 41
-5.6647592 -0.79411423 -0.29978037 11
-12.822369 -1.7952218 2.9891498 16
-5.5966907 -0.78258026 -0.098641008 1
-11.20611 -1.5649437 3.0318065 26
-1.7375579 -0.24048826 -0.47001541 3
-5.8712721 -0.81157446 0.10345787 3
-2.0173018 -0.2784884 -0.47014773 3
-6.0187273 -0.82981461 0.31841198 21
-2.3649459 -0.32606009 -0.46404752 100
-6.4147406 -0.88327295 0.56651235 25
-2.9413104 -0.40447852 -0.47024205 6
-7.0051432 -0.96207672 0.86819732 22
-3.8212571 -0.52412677 -0.47358429 5
-11.1633 -1.5291824 1.7846047 32
-5.5705023 -0.76306415 -0.49190697 9
-11.312915 -1.5476657 2.2194905 71
-5.6655183 -0.7740652 -0.2996757 12
-5.5954256 -0.76249915 -0.098571189 1
-11.188534 -1.5226938 3.0255947 27
-1.7230705 -0.23235616 -0.46587428 3
-5.8621783 -0.78947204 0.10324844 3
-2.0279183 -0.27274373 -0.47239724 5
-5.8533311 -0.78620183 0.30951488 25
-2.3680153 -0.31806469 -0.46442911 100
-6.3743415 -0.85504842 0.56267744 16
-2.9446623 -0.3944712 -0.47055492 6
-6.9828796 -0.93419778 0.86502868 7
-3.8427396 -0.51341355 -0.47602168 5
-11.143116 -1.4868093 1.7805374 33
-5.557333 -0.74150664 -0.49051252 9
-11.298787 -1.5055733 2.2156742 15
-5.6721454 -0.75481093 -0.29988506 12
-11.333613 -1.506188 2.6395755 15
-5.574265 -0.73980564 -0.098152332 4
-11.155479 -1.4785523 3.0152421 31
-1.7257864 -0.22659153 -0.46639192 4
-5.8411055 -0.7658844 0.10282958 3
-2.0249934 -0.2651577 -0.47149745 5
-5.8520789 -0.76524568 0.30930555 20
-2.3807912 -0.31132358 -0.46671882 6
-5.8715296 -0.76674682 0.51805371 9
-2.9323099 -0.38240251 -0.46836486 7
-6.9231071 -0.90161192 0.85722905 15
-3.8464768 -0.50025272 -0.47626543 5
-11.134526 -1.4461249 1.7783473 34
-5.5638394 -0.72261781 -0.49086115 9
-11.307867 -1.4666287 2.2164373 5
-5.6628613 -0.7334674 -0.29925704 12
-11.331072 -1.4656197 2.6377761 4
-5.5768137 -0.72034317 -0.098152332 3
-11.129917 -1.4356489 3.0069599 31
-1.7399811 -0.22227918 -0.47001541 4
-5.8278742 -0.74346739 0.10255034 3
-2.014308 -0.25660989 -0.46879801 5
-5.9200974 -0.75313103 0.3127597 15
-2.3818636 -0.30301112 -0.46671882 100
-5.8089452 -0.73796189 0.51230145 12
-2.9395058 -0.37291023 -0.46930346 7
-6.9084883 -0.87519467 0.85503536 8
-3.8541079 -0.48757121 -0.47699666 5
-11.133626 -1.4065037 1.7774086 35
-5.5564446 -0.70194203 -0.48998958 9
-11.291492 -1.4244448 2.2122397 5
-5.6316996 -0.70945328 -0.2974776 13
-11.301315 -1.4216768 2.6296778 4
-5.5792942 -0.70087188 -0.098152332 1
-11.119525 -1.3948681 3.0028186 32
-1.7503318 -0.21739508 -0.47260359 2
-5.8264656 -0.72262734 0.10248053 3
-2.0113237 -0.24909751 -0.46789822 4
-5.5857224 -0.6907897 0.29496548 30
-2.3809581 -0.29445451 -0.46633717 6
-5.4852204 -0.67738861 0.48354006 19
-2.9368684 -0.36216283 -0.4686777 7
-7.0119815 -0.8634488 0.86746609 12
-3.8400242 -0.47217664 -0.47504675 6
-11.105136 -1.3635386 1.7720897 32
-5.5667706 -0.68351316 -0.4906868 9
-11.278857 -1.3828735 2.2088051 4
-5.6242294 -0.68857694 -0.29695424 14
-11.282998 -1.3793811 2.624279 6
-5.5797215 -0.68115109 -0.098117426 1
-11.120491 -1.3555748 3.0017834 32
-1.7549158 -0.21174674 -0.47363886 2
-5.8249817 -0.70180625 0.10241073 3
-2.0199199 -0.24300665 -0.4696978 3
-5.669404 -0.68105435 0.29925704 15
-2.3780732 -0.28567326 -0.46557397 6
-5.4796386 -0.65728682 0.48284283 20
-2.9322307 -0.35120493 -0.46773914 8
-11.09896 -1.3274019 1.3724926 23
-3.8495333 -0.45971009 -0.47602168 5
-11.082368 -1.321494 1.7677096 33
-5.5711017 -0.66431445 -0.49086115 9
-11.277767 -1.3427979 2.2076602 6
-5.628582 -0.66917473 -0.29705891 13
-11.256782 -1.3363144 2.6170807 4
-5.5383778 -0.65649146 -0.097349517 1
-11.098297 -1.3135695 2.9945364 32
-1.7249446 -0.20202407 -0.46535668 2
-5.8154788 -0.68007523 0.1022013 3
-2.0226915 -0.23618029 -0.47014773 3
-5.8483062 -0.68184501 0.30857283 21
-2.379056 -0.27737045 -0.46557397 6
-5.3750319 -0.62571585 0.47342998 9
-2.9295144 -0.34051114 -0.46711335 8
-11.105498 -1.2888798 1.3727365 5
-3.8451986 -0.44558522 -0.47529048 5
-11.073176 -1.2812116 1.7655195 32
-5.561511 -0.64348948 -0.48981526 9
-11.253132 -1.3000402 2.201936 5
-5.6249313 -0.64883792 -0.29674488 14
-11.249762 -1.2956747 2.6143811 4
-5.5366631 -0.63669658 -0.097279713 1
-11.075946 -1.2717385 2.9872897 31
-1.7256392 -0.19600202 -0.46535668 2
-5.7999344 -0.6577431 0.10188715 4
-2.0273762 -0.22955678 -0.47104752 3
-5.646235 -0.63831669 0.2977916 27
-2.3780589 -0.26884371 -0.46519238 6
-5.4722147 -0.6176762 0.48179695 13
-2.9012408 -0.32696477 -0.46242031 10
-11.068504 -1.2454448 1.3676178 7
-3.8487034 -0.43238178 -0.47553423 5
-11.059915 -1.2405692 1.7627038 31
-5.5657034 -0.62429416 -0.48998958 9
-11.214678 -1.2559469 2.1935403 4
-5.615253 -0.62786746 -0.29611689 12
-11.250343 -1.2559651 2.6134815 4
-5.5587254 -0.6195811 -0.097628765 1
-11.057277 -1.2305042 2.9810779 31
-1.7109507 -0.1882862 -0.46121556 2
-5.7902684 -0.63618302 0.10167772 4
-2.0184796 -0.22141647 -0.46879801 5
-5.6107068 -0.61447239 0.29580286 37
-2.3828859 -0.26096848 -0.46595559 6
-5.4149203 -0.59207392 0.4765676 11
-2.8827274 -0.3146925 -0.45929164 11
-3.8462424 -0.41851509 -0.47504675 6
-11.056322 -1.2011017 1.7614522 29
-5.573791 -0.60550785 -0.49051252 9
-11.207282 -1.2155222 2.1912506 6
-5.5915971 -0.6054675 -0.29475614 14
-11.223659 -1.2133322 2.6062829 4
-5.5568776 -0.59974581 -0.097558953 1
-11.048059 -1.1904505 2.9774544 30
-1.7461754 -0.18599576 -0.47053304 1
-5.7944427 -0.61618 0.10171262 3
-2.0114887 -0.21354586 -0.46699843 4
-5.6048727 -0.59404141 0.29538417 30
-2.387687 -0.25306284 -0.46671882 6
-5.3139248 -0.56226832 0.4675034 9
-2.8759506 -0.30379719 -0.45804018 11
-6.5403433 -0.68972617 0.80750632 6
-3.8358347 -0.40384039 -0.47358429 5
-11.040802 -1.1604354 1.7583237 30
-5.5818152 -0.58667254 -0.49103546 7
-11.199741 -1.1751646 2.1889608 5
-5.5897031 -0.58553046 -0.29454678 16
-11.216196 -1.1729332 2.6035836 6
-5.5430264 -0.57868373 -0.097279713 1
-11.040619 -1.1506739 2.9743485 30
-1.7391273 -0.17910807 -0.4684625 2
-5.7886009 -0.59513164 0.10157301 3
-2.0160992 -0.20692104 -0.46789822 5
-5.5691624 -0.57060659 0.2933954 21
-2.3807437 -0.24392682 -0.46519238 7
-5.3356757 -0.54574168 0.46924651 8
-2.8730631 -0.29335496 -0.45741442 10
-6.4419928 -0.65662724 0.79507565 10
-3.8352463 -0.39024639 -0.47334057 6
-11.013341 -1.1186944 1.7533176 31
-5.5798645 -0.566782 -0.4906868 7
-11.192057 -1.1348771 2.1866713 5
-5.6115842 -0.56802517 -0.2955935 15
-11.193079 -1.131031 2.5972848 6
-5.5330753 -0.55812848 -0.097070284 1
-11.027269 -1.1103883 2.9696898 31
-1.7358972 -0.17265384 -0.46742722 1
-5.7787042 -0.57373506 0.10136358 3
-2.0245659 -0.20065147 -0.4696978 3
-5.5949707 -0.55352247 0.29465145 11
-2.385488 -0.23600146 -0.46595559 7
-5.7222004 -0.56509984 0.50306296 16
-2.8583431 -0.28177461 -0.4549115 10
-6.3158355 -0.62150025 0.77923268 13
-3.8444872 -0.37763259 -0.47431552 6
-10.985723 -1.077162 1.7483118 32
-5.5798259 -0.54710793 -0.49051252 9
-11.174458 -1.093696 2.1824734 5
-5.6095572 -0.54804498 -0.29538417 14
-11.193079 -1.0915744 2.596385 6
-5.5190678 -0.53725958 -0.096791051 1
-11.008005 -1.0696468 2.9634783 32
-1.732643 -0.16622435 -0.46639192 2
-5.7766905 -0.5531801 0.10129377 3
-2.0291338 -0.19395399 -0.47059759 3
-5.8155742 -0.5548538 0.30616537 26
-2.3882515 -0.22785893 -0.46633717 6
-5.8014917 -0.55248994 0.50986111 5
-2.8475099 -0.27067375 -0.45303425 9
-6.4385157 -0.6108861 0.7941007 10
-3.851711 -0.36477283 -0.47504675 6
-10.985484 -1.0384361 1.7476861 34
-5.5817018 -0.52762723 -0.49051252 12
-11.152797 -1.0522854 2.1775124 4
-5.5895629 -0.52640063 -0.29423279 14
-11.18906 -1.0517694 2.5945854 6
-5.5129447 -0.5172438 -0.096651427 1
-10.984744 -1.0286931 2.9562314 32
-1.7332127 -0.16017522 -0.46639192 2
-5.7666383 -0.53191018 0.10108434 3
-2.0162148 -0.18561919 -0.46744829 3
-5.6782537 -0.52175885 0.29883832 23
-2.3909874 -0.21970114 -0.46671882 6
-5.3331618 -0.48911071 0.46854928 11
-2.8877804 -0.26433364 -0.45929164 7
-6.3516498 -0.58028191 0.78313243 11
-3.8628452 -0.35222682 -0.47626543 6
-10.977239 -0.99900615 1.7458088 31
-5.5656519 -0.5065136 -0.4889437 9
-11.146626 -1.0124602 2.1756043 5
-5.5754538 -0.50544482 -0.2933954 14
-11.157729 -1.0095421 2.5864871 6
-5.4987841 -0.49655795 -0.096372187 1
-10.976723 -0.98930484 2.9531255 32
-1.7414585 -0.1548084 -0.4684625 2
-5.7724442 -0.51213092 0.10115415 3
-2.0149093 -0.17840821 -0.46699843 3
-5.769568 -0.50984609 0.30354857 21
-2.3897841 -0.21118081 -0.46633717 6
-5.2792654 -0.46559039 0.46366853 11
-2.9359121 -0.25840771 -0.46680051 6
