# .PCD v0.7 - Point Cloud Data file format
VERSION 0.7
FIELDS x y z intensity
SIZE 4 4 4 4
TYPE F F F F
COUNT 1 1 1 1
WIDTH 1341
HEIGHT 1
VIEWPOINT 0 0 0 1 0 0 0
POINTS 1341
DATA ascii
-23.309298 -11.127954 2.259774 33
-2.7062867 -1.2914131 -0.47493511 6
-23.399799 -11.161133 3.1832275 58
-3.5529711 -1.6946803 -0.48333386 3
-18.191128 -8.6728268 3.1918893 54
-5.1206155 -2.4402163 -0.49626479 4
-15.604623 -7.4329967 3.3597651 45
-9.0074663 -4.2886252 -0.52283627 5
-12.92345 -6.1530991 3.3045309 61
-9.2304649 -4.3928204 -0.17843342 4
-12.827535 -6.1019411 3.8061929 22
-1.8773268 -0.88941389 -0.47959566 0
-2.1931064 -1.0385504 -0.47167987 61
-23.418104 -11.084691 2.2667465 34
-2.7051973 -1.2798971 -0.47399649 6
-23.348751 -11.041889 3.1712844 55
-3.5570703 -1.6814194 -0.48309013 3
-18.165924 -8.5831194 3.1821902 56
-5.1200953 -2.4180717 -0.49539325 4
-15.568827 -7.3527026 3.3467901 45
-9.0180254 -4.2570257 -0.52262688 5
-12.902551 -6.0879951 3.2937334 63
-9.2782965 -4.3759294 -0.17906168 3
-12.845263 -6.0554795 3.8051577 23
-1.873364 -0.87954247 -0.47779605 0
-2.1915658 -1.0280044 -0.47053501 90
-23.548771 -11.04108 2.2754622 34
-2.7062931 -1.2682962 -0.47337076 6
-23.300871 -10.919884 3.1595848 61
-3.5575247 -1.6664672 -0.4823589 3
-18.13316 -8.4903336 3.1712399 50
-5.1375275 -2.404407 -0.49626479 4
-15.531651 -7.2656469 3.3330517 46
-9.0227137 -4.2188692 -0.52199888 5
-12.875346 -6.0175576 3.281136 57
-9.2681522 -4.3316612 -0.17857303 1
-12.862821 -6.0089717 3.8041224 60
-1.8624389 -0.86609656 -0.47419682 0
-23.686256 -11.014904 1.369004 7
-2.2058227 -1.0253134 -0.47282472 93
-23.677515 -11.000781 2.2841778 34
-2.7196617 -1.2630024 -0.47493511 6
-23.257912 -10.795968 3.1483729 53
-3.5618083 -1.6525807 -0.48211515 4
-18.09997 -8.3978863 3.1602895 52
-5.1567335 -2.3914897 -0.49731067 4
-15.510607 -7.1899195 3.3231297 45
-9.0265112 -4.1823096 -0.52137089 4
-12.839685 -5.9463739 3.2667391 57
-9.315877 -4.3144116 -0.17920132 0
-12.845149 -5.946178 3.7927344 57
-1.8688402 -0.86154729 -0.47509661 0
-23.78442 -10.959738 1.3724582 36
-2.1897731 -1.0085728 -0.46862692 88
-23.800831 -10.95723 2.2923703 34
-2.7328067 -1.2581069 -0.47649944 5
-23.207026 -10.67895 3.1366735 56
-3.5636623 -1.639101 -0.48162767 4
-18.059175 -8.3024778 3.1480875 57
-5.1668606 -2.3743064 -0.49748495 5
-15.487984 -7.1171303 3.3132074 45
-9.0439606 -4.1540208 -0.52158022 4
-12.816833 -5.8842459 3.2559416 63
-9.3090715 -4.2718582 -0.17878245 0
-12.827196 -5.883584 3.7813463 57
-1.8860168 -0.86149597 -0.47869584 0
-23.909742 -10.916465 1.3774825 32
-2.2002492 -1.0045673 -0.47015342 90
-23.902285 -10.908019 2.2986455 35
-2.7335873 -1.2469202 -0.47587368 5
-23.171911 -10.564936 3.1269238 53
-3.5838122 -1.633238 -0.48357758 4
-18.01614 -8.2066336 3.1355727 54
-5.1602001 -2.3505521 -0.4960905 5
-15.462704 -7.0402446 3.3025222 42
-9.0547705 -4.1207714 -0.52137089 4
-12.794721 -5.8201079 3.2451439 69
-9.3166456 -4.2360239 -0.17864282 0
-12.791376 -5.8131952 3.764782 57
-24.049639 -10.889163 0.46081334 39
-1.8925636 -0.85651433 -0.47959566 0
-24.036871 -10.873273 1.3826114 30
-2.2001648 -0.99526238 -0.46939012 89
-24.021912 -10.861457 2.3064895 35
-2.7235227 -1.2308625 -0.47337076 6
-23.134478 -10.45048 3.1169307 56
-3.5894916 -1.620718 -0.48357758 4
-17.987062 -8.1176929 3.125561 57
-5.1810865 -2.3382623 -0.49731067 6
-15.42634 -6.958776 3.2895474 47
-9.0690994 -4.0891414 -0.52137089 4
-12.774096 -5.7569947 3.2347963 63
-9.4170685 -4.2420788 -0.18028337 2
-12.765788 -5.7478909 3.7513232 53
-24.158659 -10.837066 0.46217462 67
-1.8777595 -0.84193027 -0.47509661 0
-24.163984 -10.829324 1.3877404 30
-2.2394569 -1.0036343 -0.4770225 97
-24.15605 -10.820706 2.3157282 35
-2.7259991 -1.2205414 -0.4730579 4
-23.078407 -10.328306 3.1044998 56
-3.5806308 -1.6016937 -0.48162767 4
-17.953978 -8.0274372 3.1149235 52
-5.1983113 -2.3242271 -0.49818221 5
-15.389593 -6.8776526 3.2765722 43
-9.0705519 -4.0517569 -0.52063817 4
-12.74607 -5.6909151 3.2226486 61
-9.4026003 -4.1961441 -0.17972489 4
-12.75049 -5.6875553 3.7409706 56
-24.285881 -10.792467 0.46388498 72
-1.8735635 -0.83220583 -0.47329703 0
-24.274656 -10.777328 1.3919272 30
-2.2214143 -0.98625129 -0.4724431 100
-24.297476 -10.782391 2.3256638 30
-2.7446892 -1.2174253 -0.47556084 5
-23.032656 -10.211478 3.0935316 57
-3.5753105 -1.5843607 -0.48016527 4
-17.93854 -7.9455218 3.1074145 34
-5.1918192 -2.299614 -0.49678773 5
-15.37042 -6.8048162 3.2674134 47
-9.0700274 -4.0136061 -0.51980078 4
-12.721302 -5.6266842 3.2114012 70
-9.4373083 -4.1721916 -0.18010885 0
-12.734927 -5.6273932 3.7306178 59
-24.425898 -10.752746 0.46583962 72
-1.8871593 -0.83036989 -0.47599643 1
-24.40354 -10.732737 1.3971608 30
-2.2068722 -0.97058785 -0.46862692 100
-24.407923 -10.729581 2.3326364 31
-2.7507305 -1.2086316 -0.47587368 5
-23.002726 -10.102286 3.0847569 57
-3.5844548 -1.5734656 -0.48065275 4
-17.931795 -7.8677754 3.10147 16
-5.1961651 -2.2798755 -0.4964391 5
-15.34374 -6.729044 3.2567282 47
-9.091301 -3.9851263 -0.52021945 3
-12.692673 -5.5611291 3.199254 69
-9.4628057 -4.1440368 -0.18031827 1
-12.708478 -5.562767 3.7171593 59
-24.518272 -10.69139 0.46688676 27
-1.8900462 -0.82377779 -0.47599643 1
-24.526917 -10.684978 1.4020804 7
-2.221046 -0.96758306 -0.47091663 100
-24.53474 -10.683286 2.3411775 31
-2.7494991 -1.1966581 -0.47493511 5
-22.965038 -9.9902544 3.0750074 54
-3.600848 -1.5656933 -0.48211515 4
-17.960962 -7.8059211 3.101783 13
-5.2004375 -2.2601352 -0.4960905 5
-15.313113 -6.6519804 3.2452796 43
-9.114316 -3.9573443 -0.52074283 4
-12.676255 -5.5012727 3.1902559 64
-9.5139046 -4.1268954 -0.18101637 1
-12.681735 -5.4983921 3.7037005 54
-9.9022169 -4.2768683 0.18827656 2
-1.8821753 -0.81254089 -0.47329703 1
-9.9319887 -4.2856112 0.56690317 3
-2.2190022 -0.95749015 -0.46977177 100
-24.657867 -10.634662 2.3493702 31
-2.7464032 -1.1839252 -0.47368363 4
-22.926851 -9.8786039 3.0652578 45
-3.6062915 -1.5531143 -0.48211515 3
-17.993544 -7.7455258 3.1027217 13
-5.2082949 -2.2419698 -0.4960905 5
-15.289352 -6.5783091 3.2353575 47
-9.1317434 -3.927083 -0.52095217 4
-12.668523 -5.4454498 3.1835072 61
-9.5484619 -4.1023426 -0.1814003 2
-12.651148 -5.4327464 3.6892068 56
-9.8876696 -4.2296929 0.18771808 2
-1.8903756 -0.80826432 -0.47464675 2
-9.9413776 -4.2485604 0.56658912 2
-2.2313578 -0.95359612 -0.47167987 91
-24.788282 -10.588446 2.3582599 31
-2.763236 -1.1797607 -0.47587368 4
-22.899118 -9.7720242 3.0569708 24
-3.6171684 -1.5428537 -0.48284638 3
-18.02774 -7.6857629 3.1039729 13
-5.2234211 -2.2268999 -0.49678773 5
-15.254425 -6.5002699 3.2231457 49
-9.1233454 -3.8857937 -0.51969612 4
-12.639044 -5.3805823 3.17136 61
-9.5940046 -4.0822973 -0.18199369 1
-12.636256 -5.3741903 3.6793716 61
-9.8581829 -4.1764312 0.18688037 2
-1.8770353 -0.79482138 -0.47059759 1
-9.9340744 -4.2044935 0.56533301 2
-2.2346728 -0.94580191 -0.47167987 100
-24.929684 -10.5461 2.3681958 32
-2.750963 -1.1631836 -0.4730579 4
-22.942228 -9.695899 3.0581896 15
-3.6170461 -1.5279006 -0.48211515 3
-18.041719 -7.6174083 3.101783 13
-5.2458458 -2.2148526 -0.49818221 4
-15.226376 -6.4256129 3.2124603 45
-9.1239719 -3.8484898 -0.5189634 4
-12.609265 -5.3159904 3.1592126 72
-9.6561069 -4.068975 -0.18290122 1
-12.624674 -5.3172979 3.670572 64
-9.8690128 -4.1404495 0.18681055 2
-1.8797982 -0.78826487 -0.47059759 1
-9.915535 -4.1558952 0.56344897 2
-2.2234755 -0.93192446 -0.46862692 100
-25.067415 -10.501361 2.3777831 32
-2.769583 -1.159678 -0.47556084 4
-22.986923 -9.6203547 3.0596519 12
-3.6186953 -1.5137324 -0.48162767 3
-20.278883 -8.4786854 3.4812932 17
-5.2388396 -2.1903806 -0.49678773 5
-15.20886 -6.3557696 3.2040651 46
-9.1465664 -3.8204646 -0.51948678 4
-12.582786 -5.2531767 3.147965 69
-9.6702518 -4.0352435 -0.18290122 2
-12.598583 -5.2546053 3.6576309 58
-9.8575535 -4.0952315 0.1863219 2
-1.8933369 -0.78618228 -0.47329703 1
-9.9255724 -4.1214581 0.56323957 2
-2.2375946 -0.92867273 -0.47091663 100
-25.184893 -10.447378 2.3854525 32
-2.7717893 -1.1492466 -0.47524795 4
-25.287006 -10.479393 3.360913 15
-3.6273623 -1.5032446 -0.48211515 4
-20.243013 -8.3849325 3.4703426 42
-5.2354083 -2.1675072 -0.49574184 5
-15.183788 -6.283124 3.1941428 47
-9.1598454 -3.7885156 -0.51948678 4
-12.567723 -5.1980152 3.1398668 64
-9.7501078 -4.0306559 -0.18415779 1
-12.571303 -5.1943545 3.64469 56
-9.8488884 -4.0533891 0.18590303 2
-1.8995378 -0.78138196 -0.47419682 1
-9.9225616 -4.0816827 0.56229758 5
-2.2388461 -0.92050087 -0.47053501 100
-25.348402 -10.416816 2.3976545 38
-2.7755852 -1.1400486 -0.47524795 4
-25.224293 -10.355525 3.347995 32
-3.6323273 -1.4912076 -0.48211515 4
-20.21771 -8.29601 3.4612694 66
-5.2351937 -2.1471097 -0.49504462 5
-15.148229 -6.2096539 3.1823127 52
-9.1631174 -3.7543328 -0.5189634 4
-12.561449 -5.1467047 3.1340182 70
-9.7856274 -4.0073948 -0.18457665 1
-12.547336 -5.1358085 3.6327841 61
-9.8659782 -4.0222163 0.18597284 2
-1.8912908 -0.77066642 -0.47149745 1
-9.9607954 -4.0568151 0.5636583 2
-2.2437046 -0.91381204 -0.47091663 100
-25.456617 -10.362753 2.4046268 33
-2.7756913 -1.1293492 -0.47462222 4
-25.17207 -10.236673 3.3365393 54
-3.6375101 -1.47852 -0.48211515 4
-20.16968 -8.1941595 3.4481289 64
-5.2570519 -2.1357365 -0.4964391 5
-15.112348 -6.1364884 3.1704824 48
-9.1644125 -3.7194192 -0.51833534 3
-12.535998 -5.0852451 3.1232204 75
-9.8292074 -3.985234 -0.18513513 1
-12.527588 -5.0767422 3.6219139 66
-9.8929386 -3.9929919 0.18621717 4
-1.8885477 -0.76187259 -0.47014773 2
-10.030466 -4.0444298 0.56679851 1
-2.2505221 -0.90744328 -0.47167987 100
-27.625185 -11.133265 2.6057823 44
-2.7722874 -1.116701 -0.47337076 4
-25.115572 -10.11168 3.3243523 61
-3.6316001 -1.4613665 -0.48065275 4
-20.137682 -8.0993786 3.4378042 68
-5.257081 -2.114399 -0.49574184 5
-15.100885 -6.0705209 3.1636131 48
-9.1717806 -3.685173 -0.51802135 4
-12.495805 -5.0182152 3.1088235 72
-6.2428441 -2.5058129 -0.11741979 1
-12.51296 -5.0200338 3.6125965 57
-9.9532413 -3.9769816 0.1870898 1
-1.9074832 -0.7617808 -0.47419682 1
-27.429056 -10.948638 1.5477837 9
-2.244559 -0.89594275 -0.46977177 100
-27.575052 -11.001328 2.5974154 27
-2.7890122 -1.1121393 -0.47556084 4
-25.080643 -9.9960194 3.3150902 61
-3.6311464 -1.4464768 -0.47992152 4
-20.094254 -8.0005417 3.4256022 71
-5.2681317 -2.0975103 -0.4960905 5
-15.087328 -6.0039763 3.1563628 50
-9.1753092 -3.6494439 -0.51749802 3
-12.484271 -4.9630508 3.1016252 37
-6.1920862 -2.4603755 -0.11630284 1
-12.480135 -4.9563589 3.5981026 55
-10.01913 -3.96281 0.18806714 1
-1.9065062 -0.75368488 -0.47329703 1
-27.383524 -10.819792 1.5430734 61
-2.2440212 -0.88665885 -0.46900854 100
-27.531748 -10.872811 2.5897455 11
-2.7947147 -1.1031222 -0.47587368 4
-25.041521 -9.8792639 3.3053408 59
-3.6472535 -1.4381629 -0.48138395 4
-20.05406 -7.9035511 3.4140263 66
-5.2642994 -2.0747252 -0.49504462 5
-15.053394 -5.929688 3.1449139 54
-9.195426 -3.6203227 -0.51791668 4
-12.506959 -4.9215822 3.1029749 25
-6.1969147 -2.4372818 -0.11623303 2
-12.450613 -4.894392 3.5846438 55
-27.318615 -10.69505 0.51208848 26
-1.9145697 -0.74915564 -0.47464675 2
-27.357882 -10.699411 1.5395147 83
-2.254416 -0.88168103 -0.47053501 100
-27.332008 -10.683794 2.5674338 48
-2.7856691 -1.0883275 -0.47368363 4
-25.001888 -9.7629156 3.2955911 63
-3.6596484 -1.4283096 -0.4823589 4
-20.037361 -7.8162675 3.4065173 69
-5.2659416 -2.0541632 -0.49452168 6
-15.020954 -5.8564277 3.1338472 47
-9.193119 -3.5824006 -0.51707929 4
-12.53859 -4.8835497 3.1065741 25
-6.1979308 -2.4127357 -0.11609341 1
-12.428014 -4.8354902 3.573256 60
-27.286789 -10.572893 0.51079702 68
-1.8990009 -0.73543036 -0.47014773 2
-27.307518 -10.569963 1.534595 74
-2.2702961 -0.87876701 -0.47320631 5
-27.291092 -10.558128 2.5601127 64
-2.7857659 -1.0771729 -0.4730579 4
-24.948788 -9.6419506 3.2841353 63
-3.6664639 -1.4162416 -0.48260266 4
-20.001865 -7.7220907 3.3958797 65
-5.2767973 -2.0372052 -0.49487031 6
-15.00284 -5.7891164 3.125833 32
-9.188798 -3.5438185 -0.51613724 4
-12.553741 -4.8390541 3.1061242 25
-6.2025824 -2.389648 -0.1160236 1
-12.41958 -4.7823567 3.566009 59
-27.24511 -10.447515 0.50933105 78
-1.8997366 -0.72809964 -0.4696978 3
-27.23794 -10.433854 1.5286288 78
-2.2678497 -0.86872995 -0.47206149 100
-27.257076 -10.435731 2.553489 68
-2.7931991 -1.0688541 -0.47368363 5
-24.902567 -9.5243101 3.2736547 63
-3.6565514 -1.3977641 -0.48065275 3
-19.954887 -7.6240234 3.3833649 65
-5.2913208 -2.0216177 -0.49556756 6
-15.02846 -5.7388124 3.1269779 16
-9.1973791 -3.5102994 -0.51592791 4
-12.559632 -4.7910361 3.1034248 27
-6.1884642 -2.3594337 -0.11560474 1
-12.396481 -4.7238436 3.5546207 60
-27.19915 -10.321125 0.50779521 71
-1.9150213 -0.72630113 -0.4728471 2
-27.178944 -10.302612 1.5232905 78
-2.2525105 -0.85385007 -0.46824533 100
-27.190863 -10.301697 2.5439017 57
-2.8153865 -1.0660927 -0.4768123 4
-24.87068 -9.4127388 3.2651238 63
-3.6595511 -1.3842894 -0.480409 4
-19.924101 -7.5326657 3.3736663 67
-5.3113909 -2.0080671 -0.49678773 5
-15.039217 -5.6828475 3.1250699 14
-6.2518244 -2.3611212 -0.35023224 1
-12.574456 -4.7464771 3.1029749 27
-6.2004046 -2.3392274 -0.11567455 1
-12.391203 -4.6723638 3.5484095 62
-27.141411 -10.190973 0.50604999 76
-1.9175447 -0.71961248 -0.4728471 2
-27.141811 -10.180315 1.5192083 78
-2.2609918 -0.84804982 -0.46939012 100
-27.131512 -10.171051 2.5350118 68
-2.807992 -1.0521009 -0.47493511 5
-24.829025 -9.2980127 3.2553742 64
-3.6625021 -1.3708107 -0.48016527 4
-19.881813 -7.4374666 3.3620899 67
-5.3053045 -1.9846292 -0.49556756 6
-15.064481 -5.6323791 3.1262147 14
-6.2768669 -2.345576 -0.35117432 14
-12.594599 -4.7039213 3.1038747 25
-6.1673169 -2.3021858 -0.11490664 1
-12.353138 -4.6088228 3.5328801 63
-27.07559 -10.058569 0.50416511 71
-1.9328333 -0.71766287 -0.47599643 3
-27.092922 -10.05424 1.5144981 72
-2.2694602 -0.84220147 -0.47053501 100
-27.084654 -10.045802 2.5273421 52
-2.798682 -1.0374856 -0.472745 5
-24.790596 -9.1850786 3.2461121 60
-3.6821568 -1.3635335 -0.48211515 4
-19.852081 -7.3474469 3.3527038 61
-5.2935157 -1.9591813 -0.49382445 7
-15.078524 -5.5777154 3.1250699 14
-6.2475491 -2.3098009 -0.34908086 13
-12.618255 -4.6626282 3.1056743 27
-6.1490536 -2.2709446 -0.11441798 1
-12.329278 -4.5509596 3.5214922 63
-27.029829 -9.9343338 0.50266421 76
-1.9225221 -0.70620751 -0.4728471 2
-27.041605 -9.927949 1.5096831 85
-2.274229 -0.83495158 -0.47091663 5
-27.04287 -9.9230585 2.5201955 66
-2.7967227 -1.0256696 -0.47180638 4
-24.742359 -9.0691156 3.2356312 70
-3.683166 -1.3493063 -0.48162767 4
-19.836798 -7.2631621 3.3458207 65
-5.3152895 -1.9461714 -0.4952189 6
-15.09606 -5.5243773 3.1246884 15
-6.227438 -2.2776864 -0.34751078 13
-12.623471 -4.6145387 3.1029749 25
-6.1156206 -2.2343707 -0.11365007 1
-12.308797 -4.4946389 3.5111394 63
-26.992928 -9.8139563 0.50133783 66
-1.9213122 -0.69816166 -0.47194731 3
-27.004759 -9.8075867 1.5057056 59
-2.2752845 -0.8263377 -0.47053501 100
-27.028652 -9.8109188 2.5156634 41
-2.8077135 -1.0185962 -0.4730579 5
-24.697351 -8.9549494 3.2256379 60
-3.6673245 -1.3290007 -0.47894657 4
-19.795168 -7.169663 3.3345575 65
-5.3295431 -1.9303209 -0.49591616 6
-15.115252 -5.4716477 3.1246884 14
-6.2109356 -2.2471008 -0.34615004 14
-14.853294 -5.3709531 3.6464567 31
-6.1309061 -2.2157285 -0.11378969 1
-12.298975 -4.4424577 3.5038924 63
-27.141804 -9.7609529 0.50346702 61
-1.932907 -0.69474643 -0.47419682 3
-27.159128 -9.7564774 1.5124046 72
-2.2670693 -0.814408 -0.46824533 100
-6.6362948 -2.3826742 0.61688834 3
-2.8149707 -1.0101235 -0.47368363 4
-24.666798 -8.84657 3.2175946 67
-3.6794155 -1.3188713 -0.47992152 4
-19.760565 -7.0792007 3.3245456 63
-5.3249955 -1.9076738 -0.49487031 6
-15.147199 -5.4234805 3.1273596 10
-6.2093387 -2.2220421 -0.34562668 14
-14.818738 -5.3000441 3.6334093 61
-6.1047091 -2.1821964 -0.1131614 1
-12.285298 -4.3890996 3.4956102 64
-27.279337 -9.7030077 0.50538683 56
-1.9353204 -0.68799508 -0.47419682 3
-27.292765 -9.6970539 1.5179522 38
-2.2698984 -0.80648941 -0.46824533 100
-6.6295505 -2.3541605 0.61549383 9
-2.8222027 -1.0016124 -0.47430936 5
-24.630178 -8.736516 3.2088201 67
-3.6877387 -1.3073461 -0.480409 4
-19.723711 -6.9884095 3.3142209 68
-5.3334999 -1.8897398 -0.49504462 7
-17.257267 -6.1111164 3.558588 31
-6.2151737 -2.1996887 -0.34552202 16
-14.802241 -5.2359371 3.6248612 71
-6.0896659 -2.1528754 -0.11274255 1
-12.253185 -4.3294582 3.4821515 67
-27.424335 -9.6468744 0.50744617 61
-1.934033 -0.67994314 -0.47329703 3
-6.4571772 -2.2701335 0.35871068 2
-2.2764039 -0.79986256 -0.46900854 100
-6.6208096 -2.325063 0.61392504 15
-2.8126347 -0.98717499 -0.47211927 5
-24.583723 -8.6235523 3.1988268 58
-3.7035198 -1.298406 -0.48187143 4
-19.688988 -6.9027038 3.304522 70
-5.3419442 -1.8717681 -0.4952189 9
-17.222904 -6.0313768 3.5471392 58
-6.2058482 -2.1720421 -0.34457996 16
-14.78548 -5.1720061 3.616313 82
-6.0778956 -2.1260664 -0.11239351 1
-12.225533 -4.2741375 3.4702461 69
-27.567602 -9.5946598 0.50950557 57
-1.9325962 -0.67224538 -0.47239724 3
-6.4084673 -2.2279027 0.35557052 11
-2.2847457 -0.79384464 -0.47015342 100
-6.6138277 -2.296711 0.61253053 14
-2.8177586 -0.9784919 -0.47243217 6
-24.535294 -8.515296 3.1888335 68
-3.6965523 -1.282214 -0.480409 4
-19.664434 -6.8171158 3.2963874 66
-5.3390322 -1.8498498 -0.49434736 7
-17.185303 -5.9543056 3.5353093 50
-6.1847076 -2.1416476 -0.34300989 17
-14.758352 -5.1076508 3.6055152 84
-6.104178 -2.1113758 -0.11274255 1
-12.205687 -4.2194433 3.4604108 65
-27.70492 -9.5341663 0.51142532 26
-1.9330882 -0.66486138 -0.47194731 2
-6.3595419 -2.1860416 0.35243034 9
-2.2855089 -0.78562546 -0.46977177 100
-6.4499369 -2.2158573 0.59666818 20
-2.8211572 -0.96864939 -0.47243217 6
-24.48601 -8.4025373 3.1785965 65
-3.6972497 -1.2680157 -0.47992152 4
-19.63579 -6.7304926 3.287627 66
-5.2644081 -1.8034366 -0.48685199 6
-17.157694 -5.8777385 3.5253873 51
-6.1675811 -2.1116352 -0.34164914 15
-14.720777 -5.037179 3.5920184 78
-6.085021 -2.080996 -0.11225387 2
-12.194748 -4.1680641 3.4531639 64
-6.3798232 -2.1706276 0.11762922 3
-1.9390873 -0.65936381 -0.4728471 3
-6.2536712 -2.1252713 0.34615004 8
-2.2809374 -0.77471834 -0.46824533 100
-6.5032954 -2.2075713 0.60085171 26
-2.8303006 -0.96020663 -0.47337076 6
-24.464434 -8.2997942 3.1720157 61
-3.6941338 -1.2525524 -0.47894657 4
-19.588072 -6.6378183 3.275738 66
-5.3235097 -1.8029443 -0.49173269 6
-17.134489 -5.799705 3.5162284 51
-6.1677117 -2.0864556 -0.34123048 15
-14.700373 -4.9700837 3.5825706 74
-6.0619383 -2.049495 -0.1116954 1
-12.176279 -4.1143394 3.4438465 63
-6.3611999 -2.1383095 0.11714055 3
-1.94888 -0.65473515 -0.47464675 2
-6.6249485 -2.2243934 0.36624706 23
-2.2799053 -0.76550126 -0.46748206 100
-6.6450715 -2.2298596 0.61322778 5
-2.8317618 -0.94969368 -0.4730579 6
-24.432579 -8.1892529 3.1639721 68
-3.7175231 -1.2453088 -0.48138395 4
-19.559818 -6.5484247 3.2669778 66
-5.3524427 -1.7919424 -0.49382445 6
-17.117395 -5.7273998 3.5085959 47
-6.1635923 -2.0611131 -0.34060243 14
-14.689907 -4.9094768 3.5758219 76
-6.0694094 -2.0272632 -0.1116954 1
-12.152797 -4.0568376 3.432976 69
-6.323081 -2.1009586 0.11630284 3
-1.9437557 -0.64547157 -0.4728471 3
-6.071578 -2.0150378 0.33526415 16
-2.2881536 -0.75939339 -0.46862692 100
-6.5072017 -2.1583538 0.59980583 6
-2.8238096 -0.93607301 -0.47118065 6
-24.391294 -8.0808182 3.1549537 45
-3.7180779 -1.2310774 -0.48089647 4
-19.53005 -6.4627271 3.2582173 66
-5.3719058 -1.7776279 -0.49504462 9
-17.077637 -5.6478872 3.4963844 53
-6.1479921 -2.0320652 -0.33934638 14
-14.666247 -4.8447185 3.5659242 81
-6.0498643 -1.9972878 -0.11120673 1
-12.121018 -3.9992614 3.4200351 71
-6.189785 -2.0327044 0.11371988 16
-1.9367394 -0.63564372 -0.47059759 3
-6.6190619 -2.1723962 0.36509567 12
-2.2926557 -0.75201392 -0.46900854 100
-28.470793 -9.3332014 2.6212962 45
-2.8308146 -0.92744035 -0.47180638 6
-24.345776 -7.9715419 3.145448 18
-3.7204661 -1.217474 -0.48065275 5
-19.504436 -6.3825722 3.2503958 70
-5.379972 -1.7594848 -0.4952189 7
-17.041262 -5.5699463 3.4849355 50
-6.1284695 -2.0019085 -0.33788097 14
-14.642313 -4.7801886 3.5560262 78
-6.0450487 -1.973491 -0.1109973 1
-12.108501 -3.950655 3.4127882 74
-6.2953925 -2.0442827 0.11553493 3
-1.9443971 -0.63102323 -0.47194731 3
-6.1440477 -1.9927664 0.33850899 6
-2.2952669 -0.74400645 -0.46900854 100
-28.618822 -9.2712116 2.6319292 11
-2.8376331 -0.91926545 -0.47243217 6
-6.9877324 -2.2623653 0.90183324 9
-3.7188168 -1.2032963 -0.47992152 5
-19.464573 -6.2943878 3.2400711 63
-5.391768 -1.7425337 -0.49574184 7
-17.018541 -5.5001221 3.4765401 48
-6.1198697 -1.9766649 -0.33704361 15
-14.609867 -4.7160416 3.5443287 76
-6.0024195 -1.9364161 -0.11008978 1
-12.096478 -3.9000647 3.4055412 69
-6.3215303 -2.0284061 0.11588398 3
-1.9428768 -0.62304157 -0.47104752 3
-6.1966133 -1.9859368 0.34102112 10
-2.2883735 -0.73339498 -0.46710047 100
-6.5271845 -2.0906246 0.59963149 15
-2.8427057 -0.90995741 -0.472745 6
-24.267124 -7.7633004 3.1283865 21
-3.7267759 -1.1915166 -0.480409 5
-19.437502 -6.2107773 3.2319365 60
-5.3899255 -1.7222185 -0.49504462 7
-17.003973 -5.4299321 3.4696708 50
-6.1153159 -1.9516455 -0.33641556 15
-14.589108 -4.6531744 3.5353308 76
-6.0091419 -1.9154518 -0.11008978 1
-12.078726 -3.8478448 3.3967412 67
-6.2980738 -1.9966568 0.1153255 1
-1.9543285 -0.61919874 -0.47329703 3
-6.2796712 -1.9884107 0.34520799 12
-2.2965348 -0.72718054 -0.46824533 100
-6.5496387 -2.0726364 0.601026 21
-2.8458645 -0.90002888 -0.472745 5
-6.9976783 -2.2117321 0.90110201 9
-3.7365913 -1.1802944 -0.4811402 4
-19.398783 -6.1238594 3.2219245 65
-5.376905 -1.6973957 -0.49330151 7
-16.977888 -5.3563671 3.4605122 53
-6.1144714 -1.927886 -0.33599687 14
-14.56623 -4.5899215 3.5258827 82
-5.9929042 -1.8872565 -0.10967092 1
-12.053386 -3.7934821 3.3858709 71
-6.2897391 -1.9698789 0.11504627 3
-1.963917 -0.61470145 -0.47509661 3
-6.244638 -1.9533623 0.34290522 8
-2.2934377 -0.71740186 -0.46710047 100
-6.4750633 -2.0241985 0.5935306 13
-2.8452179 -0.88891131 -0.47211927 5
-7.0129356 -2.1896584 0.90207696 11
-3.7425838 -1.1678352 -0.48138395 4
-19.378553 -6.04317 3.2150414 63
-5.3846989 -1.6792096 -0.49347579 7
-16.940252 -5.2795453 3.4490635 55
-6.104002 -1.9011854 -0.33505484 16
-14.552393 -4.5297809 3.5186844 82
-5.995636 -1.8651376 -0.10960111 2
-12.029659 -3.7399139 3.3755181 74
-6.1895957 -1.9148158 0.1130916 6
-1.9511564 -0.60323793 -0.47149745 4
-6.2285199 -1.9244756 0.34164914 12
-2.3015554 -0.71113002 -0.46824533 100
-29.296001 -9.0462189 2.6824794 24
-2.8426406 -0.87722737 -0.47118065 6
-6.9048233 -2.1294787 0.88720888 8
-3.7561228 -1.1576874 -0.48260266 5
-19.344782 -5.9586296 3.2059684 65
-5.3981438 -1.6627501 -0.49417305 7
-16.90604 -5.2042079 3.4383781 51
-6.0838752 -1.8716446 -0.3335894 17
-14.521548 -4.4646382 3.507437 81
-5.9982877 -1.8430228 -0.10953131 1
-12.013092 -3.6888263 3.3672359 74
-1.712576 -0.52358681 -0.47985053 1
-6.1541686 -1.8803447 0.11232369 21
-1.9532503 -0.59642339 -0.47149745 4
-6.1721597 -1.883485 0.338195 18
-2.302146 -0.70251864 -0.46786368 100
-29.439837 -8.9781981 2.6927638 18
-2.8532441 -0.8696022 -0.47243217 6
-6.7394094 -2.0527291 0.86502868 3
-3.7449479 -1.1399453 -0.48065275 5
-19.318218 -5.8766894 3.1981466 61
-5.4077282 -1.6450554 -0.49452168 6
-16.890293 -5.1348834 3.4315093 50
-6.0731726 -1.8451725 -0.33264738 16
-14.490428 -4.3997664 3.4961894 74
-5.9740682 -1.8127831 -0.10897283 1
-11.996315 -3.637903 3.3589537 74
-1.6958991 -0.51202232 -0.47467417 1
-6.0936885 -1.8386334 0.11110201 13
-1.9627833 -0.59185147 -0.47329703 3
-6.1863451 -1.8642349 0.33861366 8
-2.2989445 -0.69277942 -0.46671882 100
-6.5664921 -1.9775409 0.59998012 12
-2.8562622 -0.85963714 -0.47243217 6
-6.2750926 -1.8873955 0.80458146 6
-3.7565086 -1.1291517 -0.48162767 5
-19.279966 -5.7916031 3.1884477 65
-5.4248862 -1.6296079 -0.49556756 6
-16.870506 -5.0646081 3.4238768 53
-6.0738378 -1.8222384 -0.33233336 16
-14.468365 -4.337965 3.4871912 82
-5.9726963 -1.7896239 -0.1088332 1
-11.983033 -3.5882444 3.3517067 71
-1.67546 -0.49947652 -0.4684625 1
-6.109653 -1.8202046 0.11127654 8
-1.9648372 -0.58499688 -0.47329703 3
-6.2406735 -1.8568689 0.34123048 15
-2.308876 -0.6869899 -0.46824533 6
-6.0233479 -1.7910594 0.5497784 15
-2.8668194 -0.85191298 -0.47368363 6
-6.2340698 -1.8513516 0.79848802 10
-3.7604275 -1.1160311 -0.48162767 4
-19.247038 -5.7085443 3.1796873 61
-5.4133501 -1.605564 -0.49399874 7
-16.841024 -4.9917393 3.4143364 56
-6.0744166 -1.7993239 -0.33201933 15
-14.447915 -4.2769279 3.4786432 86
-5.9520612 -1.7608224 -0.10834454 1
-11.949171 -3.5327008 3.3387659 65
-1.6920193 -0.49798846 -0.47260359 1
-6.2502589 -1.8383664 0.11371988 3
-1.9631281 -0.57703561 -0.47239724 3
-6.2298698 -1.830007 0.34028843 21
-2.3225617 -0.68224609 -0.47053501 5
-5.9167709 -1.7369136 0.53949404 6
-2.8527162 -0.836896 -0.47086781 7
-6.1623931 -1.8066801 0.78849471 16
-3.7662048 -1.1034569 -0.48187143 4
-19.219452 -5.6274476 3.1718657 59
-5.4227457 -1.5877777 -0.49434736 9
-16.803703 -4.9169292 3.4032693 52
-6.0576563 -1.7713836 -0.33076328 14
-14.434698 -4.2182693 3.4718947 84
-5.9389768 -1.7344279 -0.10799549 1
-11.944738 -3.4861004 3.3341072 69
-1.664065 -0.48345563 -0.46432137 1
-6.2220712 -1.8065014 0.1130916 3
-1.957644 -0.56800729 -0.47059759 4
-6.113452 -1.7726517 0.3335894 21
-2.3230436 -0.67358792 -0.47015342 100
-5.9648986 -1.728449 0.54332888 10
-2.8556201 -0.82693297 -0.47086781 6
-6.1820092 -1.7890223 0.79020089 14
-3.7643132 -1.0886492 -0.4811402 4
-19.201025 -5.5493546 3.1656082 57
-5.4397397 -1.572158 -0.49539325 9
-16.77927 -4.8462625 3.3948741 53
-6.0292621 -1.740258 -0.32887918 14
-14.411889 -4.1570516 3.4628966 84
-5.9565239 -1.7170094 -0.10820492 1
-11.915994 -3.4326191 3.3227189 77
-1.7028829 -0.48829383 -0.47467417 1
-6.2283392 -1.7847712 0.1130916 3
-1.9633617 -0.56224388 -0.47149745 4
-6.0197539 -1.7227262 0.32814649 27
-2.3253808 -0.66547477 -0.47015342 100
-5.9862204 -1.7119995 0.54472339 10
-2.862288 -0.81804556 -0.47149354 7
-6.1328626 -1.7516222 0.78313243 9
-3.7642727 -1.0744128 -0.48065275 4
-19.16519 -5.4665833 3.1565351 63
-5.4413624 -1.552067 -0.49504462 7
-16.762098 -4.7779741 3.3880045 55
-6.0237746 -1.7159179 -0.32825115 14
-14.375706 -4.0923133 3.4507492 78
-5.9240131 -1.6852649 -0.10750683 1
-11.91118 -3.3862486 3.3180604 79
-1.6859883 -0.47708654 -0.46949777 1
-6.2191367 -1.7586676 0.11281236 3
-1.9671878 -0.55591637 -0.47194731 3
-5.9507694 -1.6805333 0.32406428 13
-2.3125746 -0.65308511 -0.46710047 100
-6.0266747 -1.7008353 0.54786098 8
-2.8670273 -0.80858541 -0.47180638 7
-5.9249458 -1.6698915 0.75583369 7
-3.766089 -1.060729 -0.480409 4
-19.123306 -5.3825235 3.146523 61
-5.444829 -1.5325238 -0.49487031 6
-16.738985 -4.7082705 3.3799908 58
-6.0335736 -1.69596 -0.32846051 14
-14.358008 -4.0331516 3.4431009 82
-5.9106069 -1.6591712 -0.10715777 1
-11.889448 -3.3352551 3.3087428 82
-1.6802006 -0.46912077 -0.46742722 2
-6.1867156 -1.726198 0.11211426 3
-1.9709934 -0.54956961 -0.47239724 3
-5.9912305 -1.6694019 0.32594836 26
-2.3242962 -0.64764404 -0.46900854 100
-5.9423652 -1.654667 0.53966838 3
-2.8679295 -0.79804307 -0.47149354 7
-6.4509449 -1.7938579 0.82213068 9
-3.7716815 -1.048107 -0.48065275 4
-19.094397 -5.3025236 3.1387014 59
-5.4309483 -1.5081772 -0.4931272 6
-16.709915 -4.6372151 3.3708317 60
-6.0163612 -1.668485 -0.32720444 12
-14.343829 -3.9752009 3.4363523 86
-5.8778191 -1.6278563 -0.10645968 1
-11.863779 -3.2834296 3.2983899 79
-1.6818278 -0.46325287 -0.46742722 2
-6.1849918 -1.7024688 0.11197464 3
-1.9785365 -0.5442372 -0.47374693 3
-6.006362 -1.6521735 0.32647175 25
-2.3170776 -0.63692486 -0.46710047 100
-7.1527114 -1.9648134 0.64896166 12
-2.8630776 -0.78593624 -0.47024205 7
-6.7175221 -1.8427476 0.85527909 8
-3.7619159 -1.0312612 -0.47894657 4
-19.071869 -5.2282071 3.1321313 63
-5.4323363 -1.4881587 -0.49277857 6
-16.676767 -4.5653763 3.3609097 56
-6.0028839 -1.6422033 -0.32615772 12
-14.323783 -3.9158571 3.4282541 89
-5.8909006 -1.6104631 -0.1065993 1
-11.842922 -3.2354147 3.2895904 74
-1.7002132 -0.46193749 -0.47208595 3
-6.1790252 -1.6788032 0.11176521 3
-1.9596431 -0.53205633 -0.46879801 4
-6.0853405 -1.6510705 0.33044925 10
-2.3287611 -0.631401 -0.46900854 100
-6.1922302 -1.6777517 0.56128299 33
-2.8637617 -0.77592087 -0.46992919 7
-6.0088906 -1.6269511 0.7643646 5
-3.7729797 -1.0208542 -0.47992152 4
-19.049955 -5.1507792 3.125561 64
-5.4528847 -1.4733446 -0.49417305 6
-16.644434 -4.4972501 3.3513694 53
-5.9813023 -1.6149989 -0.32469231 13
-14.295298 -3.8571675 3.4183562 86
-5.8655944 -1.5815607 -0.10604082 1
-11.833625 -3.1885262 3.2838962 71
-1.6998698 -0.4557969 -0.47156835 3
-6.080543 -1.6292772 0.10988036 17
-1.9709005 -0.52773279 -0.47104752 5
-6.1894655 -1.6561477 0.33578753 8
-2.3289454 -0.62316811 -0.46862692 100
-6.523046 -1.7441858 0.59074163 8
-2.868361 -0.76642954 -0.47024205 7
-5.8956237 -1.574214 0.7492528 7
-3.7669306 -1.005119 -0.47870281 4
-19.010557 -5.0689826 3.1161747 60
-5.4558153 -1.4547406 -0.49399874 5
-16.631577 -4.4315362 3.345645 56
-5.9656725 -1.5884575 -0.3235409 13
-14.261593 -3.7947195 3.4071088 84
-5.8826752 -1.5641593 -0.10625025 1
-11.820412 -3.1407504 3.2771668 82
-1.6939796 -0.44788513 -0.46949777 3
-6.0977931 -1.6111069 0.11008978 29
-1.9783833 -0.52234221 -0.47239724 5
-2.3121235 -0.6100263 -0.46481073 100
-6.5290947 -1.7214051 0.59074163 10
-2.8843904 -0.75993532 -0.47243217 6
-6.0930505 -1.6041656 0.77362669 2
-3.768496 -0.99145949 -0.47845906 4
-18.982286 -4.9905367 3.1086662 58
-5.4589334 -1.4351807 -0.49382445 6
-16.605171 -4.3624792 3.3372498 62
-5.9711804 -1.5676249 -0.3235409 13
-14.242709 -3.7365041 3.3994603 86
-5.8726249 -1.5395584 -0.10597102 1
-11.73973 -3.0754836 3.2518024 46
-1.6805776 -0.43807098 -0.46535668 2
-6.1130557 -1.5923321 0.11026431 35
-1.9839662 -0.51641488 -0.47329703 4
-6.1950779 -1.6113882 0.33547351 10
-2.3199389 -0.60343426 -0.46595559 100
-5.9719954 -1.5522501 0.53984267 21
-2.8832018 -0.74886829 -0.47180638 7
-6.3368692 -1.6447277 0.80385023 10
-3.7757769 -0.97929549 -0.47894657 4
-18.944139 -4.9098687 3.0995929 58
-5.4523387 -1.4131161 -0.49277857 6
-16.582285 -4.2946486 3.329617 62
-5.9592147 -1.5422683 -0.32259887 13
-14.225479 -3.6789577 3.392262 91
-5.8663464 -1.516049 -0.10576159 1
-11.329535 -2.9258001 3.135334 28
-1.6914519 -0.43460575 -0.46794486 3
-6.1030817 -1.5670066 0.10998507 29
-1.9782066 -0.50754917 -0.47149745 4
-6.1658401 -1.580825 0.3335894 21
-2.3315401 -0.59777039 -0.46786368 100
-5.9754472 -1.5309013 0.53966838 21
-2.8781435 -0.73684043 -0.47055492 7
-6.3329558 -1.6201377 0.80263156 15
-3.788789 -0.96856701 -0.48016527 4
-18.92671 -4.8349152 3.0939612 61
-5.4572377 -1.3940763 -0.49277857 6
-16.551521 -4.2250853 3.3204582 60
-5.958756 -1.5199747 -0.32228485 14
-14.211797 -3.6225433 3.3859634 89
-5.8677268 -1.494575 -0.10569178 1
-11.319086 -2.8809903 3.1296401 26
-1.6910859 -0.42822498 -0.46742722 3
-6.1201458 -1.5486349 0.11019449 13
-1.9686304 -0.49777451 -0.46879801 3
-6.1035471 -1.5421696 0.32992589 33
-2.3336124 -0.58962864 -0.46786368 100
-6.000073 -1.5149096 0.54141146 8
-2.880698 -0.7267893 -0.47055492 7
-6.3135495 -1.5917145 0.79946297 10
-3.7921467 -0.95533651 -0.48016527 4
-18.901329 -4.7582092 3.0870781 56
-5.4620709 -1.3750185 -0.49277857 7
-16.52809 -4.1577044 3.3128262 46
-5.9310961 -1.4908894 -0.32050541 12
-14.207344 -3.5686398 3.3819141 26
-5.8573923 -1.4701877 -0.10541254 1
-11.349686 -2.8466337 3.135334 27
-1.700068 -0.42419004 -0.46949777 3
-6.1352158 -1.5296808 0.11036902 3
-1.9646831 -0.48948672 -0.46744829 3
-6.0778828 -1.5131345 0.32825115 13
-2.3356564 -0.58147913 -0.46786368 100
-5.9782557 -1.4872222 0.53897113 17
-2.8851345 -0.71720576 -0.47086781 7
-6.319068 -1.5696646 0.79946297 18
-3.7838984 -0.93922418 -0.47870281 4
-11.676248 -2.8960686 1.905372 33
-5.4900427 -1.3616993 -0.49487031 6
-11.662264 -2.8904397 2.3355021 33
-5.9207549 -1.4663358 -0.31966805 13
-11.673522 -2.8889053 2.776346 28
-5.854723 -1.4478135 -0.10527291 1
-11.352052 -2.8051448 3.1332636 27
-1.6996623 -0.41779152 -0.4689801 3
-6.1210985 -1.503487 0.11001997 3
-1.9777353 -0.48541275 -0.47014773 3
-6.1161046 -1.4999955 0.33003056 21
-2.3357651 -0.57285434 -0.46748206 100
-6.1227398 -1.5004901 0.55152148 18
-2.8972137 -0.70948029 -0.47243217 7
-6.3225799 -1.5471253 0.79921919 15
-3.7929385 -0.92742461 -0.47943404 4
-11.647906 -2.8459184 1.8991146 27
-5.488956 -1.3411098 -0.49434736 7
-11.655116 -2.8455219 2.3320675 35
-5.910315 -1.4418725 -0.3188307 14
-11.655135 -2.8412161 2.7695973 30
-5.8286557 -1.4197956 -0.10471445 1
-11.367405 -2.7668719 3.1348164 26
-1.6898447 -0.40912849 -0.46587428 3
-6.1224217 -1.4811707 0.10995016 3
-1.9851003 -0.47987941 -0.47149745 3
-6.3872776 -1.5428848 0.34437063 17
-2.330117 -0.56285357 -0.46595559 100
-6.2344618 -1.5048213 0.56110865 3
-2.8900712 -0.69704628 -0.47086781 7
-6.2584682 -1.5083026 0.79044467 6
-3.7980826 -0.91464466 -0.47967777 5
-11.632803 -2.7992315 1.8950473 26
-5.4858551 -1.3200755 -0.49365011 7
-11.638255 -2.7983947 2.326725 34
-5.940557 -1.4272997 -0.32019141 18
-11.642243 -2.7950554 2.7641985 30
-5.8257971 -1.3975749 -0.10457481 1
-11.365722 -2.7244761 3.1317105 26
-1.6969001 -0.4045718 -0.46742722 3
-6.0847597 -1.4495949 0.10918226 3
-1.9867634 -0.47294712 -0.47149745 4
-6.2274656 -1.4812955 0.33547351 8
-2.3397074 -0.55653423 -0.46748206 100
-6.3113976 -1.5000962 0.56755817 10
-2.8886428 -0.68604076 -0.47024205 7
-6.1207671 -1.45253 0.77240795 10
-3.8012524 -0.90138024 -0.47967777 5
-11.611749 -2.7513211 1.8900415 23
-5.4904299 -1.3009181 -0.49365011 7
-11.617385 -2.7505181 2.3206191 34
-5.9280109 -1.4024148 -0.31924936 14
-11.644343 -2.7526059 2.762399 38
-5.8384252 -1.3790708 -0.10471445 1
-11.384563 -2.6870012 3.1342988 28
-1.6945404 -0.39776301 -0.46639192 2
-6.081995 -1.4265182 0.10904264 3
-1.9732233 -0.46245223 -0.46789822 5
-6.2267637 -1.4581821 0.33515951 20
-2.345459 -0.54925901 -0.46824533 100
-6.304956 -1.4753308 0.56651235 13
-2.8929436 -0.6764037 -0.47055492 7
-6.1084027 -1.4270911 0.77021432 21
-3.7927771 -0.88539821 -0.47821537 6
-11.605892 -2.7071846 1.8875386 27
-5.4968777 -1.2821989 -0.49382445 7
-11.590587 -2.7014816 2.3133683 36
-5.9056373 -1.3753711 -0.31778398 14
-11.631104 -2.706645 2.7570002 39
-5.843204 -1.3586808 -0.10471445 1
-11.382585 -2.6446218 3.1311929 27
-1.7090944 -0.39489025 -0.47001541 3
-6.0869374 -1.4052806 0.10904264 3
-1.9786233 -0.45643759 -0.46879801 5
-6.1559129 -1.4189419 0.33107728 13
-2.3492751 -0.54150939 -0.46862692 100
-6.3255997 -1.4568921 0.5679068 16
-2.8991368 -0.66718727 -0.47118065 7
-6.1384974 -1.4115417 0.7733829 11
-3.7571509 -0.86326391 -0.47334057 6
-11.586391 -2.6600251 1.8828454 31
-5.5168548 -1.2665697 -0.4952189 7
-11.58464 -2.6574917 2.3103154 36
-5.8909349 -1.3502873 -0.31673726 14
-11.594891 -2.6555865 2.7462025 38
-5.785533 -1.3240008 -0.10359748 1
-11.406811 -2.6083205 3.135334 28
-1.7010436 -0.3867799 -0.46742722 2
-6.0801048 -1.3813661 0.1088332 3
-1.9859058 -0.45082232 -0.47014773 5
-6.2231579 -1.4115828 0.33442679 6
-2.3415778 -0.53113407 -0.46671882 6
-6.3014998 -1.4281968 0.56529218 7
-2.9053013 -0.65793592 -0.47180638 6
-6.1898541 -1.4006217 0.77923268 7
-3.7369063 -0.84489042 -0.47041571 7
-11.560925 -2.6117296 1.8772138 32
-5.519299 -1.2468654 -0.49504462 9
-11.576608 -2.6131492 2.3068807 37
-5.8878183 -1.3279579 -0.31631854 15
-11.577476 -2.6090956 2.7399037 39
-5.7979226 -1.3055558 -0.1037371 1
-11.415847 -2.5684869 3.135334 28
-1.7042686 -0.38126147 -0.46794486 3
-6.0653749 -1.3557719 0.10848416 3
-1.993173 -0.44516173 -0.47149745 6
-6.4266267 -1.4353436 0.34510332 8
-2.3472497 -0.52381229 -0.46748206 100
-6.3511734 -1.4161645 0.56930131 15
-2.9075804 -0.64779037 -0.47180638 6
-6.1753287 -1.3746927 0.77679521 7
-3.7456462 -0.83313394 -0.47114691 7
-11.53867 -2.566515 1.8722079 32
-5.5119481 -1.2249982 -0.49399874 9
-11.562661 -2.5676162 2.3023016 37
-5.8846192 -1.3056668 -0.31589985 14
-11.563682 -2.5636079 2.7345049 38
-5.8022203 -1.2863219 -0.1037371 1
-11.412984 -2.5281093 3.1322281 31
-1.7112492 -0.37655562 -0.46949777 2
-6.0581203 -1.3330724 0.10827474 3
-2.0022511 -0.44022393 -0.47329703 6
-6.1838531 -1.3584768 0.33181 25
-2.3452287 -0.51477385 -0.46671882 100
-6.3599701 -1.3948411 0.56964993 11
-2.907783 -0.63772237 -0.47149354 6
-6.2108788 -1.3610055 0.78069508 13
-3.7949283 -0.83089811 -0.47699666 5
-11.52826 -2.5219998 1.8690792 31
-5.5161905 -1.2057502 -0.49399874 9
-11.528915 -2.520035 2.2939057 36
-5.8655009 -1.2810314 -0.3146438 16
-11.554984 -2.5215075 2.7304559 37
-5.775414 -1.2592443 -0.10317863 1
-11.467042 -2.4981241 3.1446514 49
-1.7049363 -0.36924314 -0.46742722 2
-6.0431914 -1.3076894 0.10792568 3
-1.9828236 -0.42870155 -0.46834809 5
-6.732975 -1.4557204 0.36101347 6
-2.3565178 -0.50906664 -0.46862692 6
-6.4814124 -1.3989644 0.58010858 36
-2.9003365 -0.62548548 -0.46992919 6
-6.2912736 -1.3556247 0.79020089 11
-3.7997456 -0.81806481 -0.47724038 4
-11.513386 -2.47877 1.8653249 32
-5.5201588 -1.1874511 -0.49399874 7
-11.506932 -2.4731753 2.2878001 36
-5.8406458 -1.2542602 -0.31307372 12
-11.53704 -2.4754338 2.7241573 35
-5.7912889 -1.2426023 -0.10338806 1
-11.516819 -2.4689927 3.1560395 52
-1.7175516 -0.36570379 -0.47053304 2
-6.0553179 -1.2893078 0.1080653 3
-1.9823283 -0.42171884 -0.46789822 5
-6.638381 -1.4110309 0.35567519 15
-2.3486784 -0.49879894 -0.46671882 100
-6.8604641 -1.4557352 0.61357641 9
-2.915921 -0.61873496 -0.47211927 6
-6.2491283 -1.3248733 0.78435117 7
-3.7033956 -0.78447998 -0.46480972 4
-11.502643 -2.4344723 1.8621961 30
-5.5242701 -1.1681747 -0.49399874 9
-11.493941 -2.4305351 2.2836022 31
-5.8408642 -1.234059 -0.31286436 15
-11.512772 -2.4303191 2.7165089 39
-5.7603722 -1.2149509 -0.10275977 1
-11.506465 -2.4247956 3.1508632 32
-1.7244905 -0.36089328 -0.47208595 3
-6.0404296 -1.2630111 0.10771625 3
-1.9895831 -0.41564584 -0.46924794 5
-6.084343 -1.269978 0.32573903 8
-2.3446398 -0.48939401 -0.46557397 100
-6.2998805 -1.3138182 0.56302613 28
-2.9220369 -0.60884923 -0.472745 5
-6.21313 -1.2934654 0.77923268 6
-3.6071281 -0.75028348 -0.45237905 9
-11.476676 -2.3850648 1.8565645 30
-5.5322156 -1.1496964 -0.49434736 9
-11.491239 -2.3859992 2.2813125 32
-5.8414378 -1.21183 -0.31265503 14
-11.492978 -2.3821762 2.7097604 39
-5.7099581 -1.1824754 -0.10178243 1
-11.490682 -2.3775146 3.144134 32
-1.7011404 -0.34981298 -0.46535668 3
-6.0408835 -1.2411146 0.10764644 3
-1.9986578 -0.41026574 -0.47104752 5
-6.108305 -1.2527431 0.32678574 3
-2.3482571 -0.48160049 -0.46595559 100
-6.2556319 -1.2818221 0.55866832 6
-2.9183388 -0.59745705 -0.47180638 6
-6.3809729 -1.3051832 0.7997067 14
-3.7264187 -0.76153612 -0.46700338 5
-11.461706 -2.3402467 1.85281 29
-5.5244827 -1.1279866 -0.49330151 9
-11.470644 -2.3399832 2.2755883 34
-5.8417172 -1.1906357 -0.3124457 14
-11.489767 -2.3397102 2.7070611 39
-5.7414842 -1.1681179 -0.1022711 1
-11.466726 -2.3308475 3.135334 30
-1.7118191 -0.3457852 -0.46794486 3
-6.0059757 -1.2121084 0.10694835 3
-1.9981674 -0.40290135 -0.47059759 5
-6.138093 -1.2365423 0.32814649 7
-2.3537726 -0.47417653 -0.46671882 100
-6.3069453 -1.269413 0.56285179 17
-2.9068501 -0.58454037 -0.46961632 6
-11.45924 -2.3022652 1.4351336 7
-3.8185825 -0.76649463 -0.47821537 4
-11.44269 -2.2947826 1.8484299 26
-5.5205727 -1.1071272 -0.49260426 9
-11.447942 -2.2937603 2.2694824 34
-5.8321295 -1.1674926 -0.31171298 12
-11.471111 -2.2942355 2.7007623 42
-5.7612143 -1.1512039 -0.10255034 1
-11.45206 -2.2862711 3.1291223 29
-1.7149106 -0.34018362 -0.4684625 2
-6.0062466 -1.1903585 0.10687853 3
-1.9861802 -0.3932744 -0.46744829 5
-6.2383776 -1.2341008 0.33327541 8
-2.3573396 -0.4663384 -0.46710047 100
-6.5322056 -1.2910426 0.58254898 8
-2.9108109 -0.57477266 -0.46992919 7
-11.434096 -2.2557189 1.43099 5
-3.8368161 -0.75623149 -0.48016527 4
-11.44094 -2.2529202 1.8468655 28
-5.5322227 -1.089391 -0.49330151 9
-11.421205 -2.2469635 2.2626133 34
-5.8204908 -1.1440458 -0.31087559 19
-11.456103 -2.2496734 2.6953635 36
-5.7338014 -1.124928 -0.10199186 1
-11.442909 -2.2429347 3.1244636 27
-1.7122952 -0.33345678 -0.46742722 3
-5.9946623 -1.1663316 0.1065993 3
-1.9951925 -0.3878262 -0.46924794 5
-6.1877494 -1.2016561 0.33034459 10
-2.3550985 -0.45735827 -0.46633717 100
-6.5836139 -1.277342 0.58673245 11
-2.9147387 -0.56498432 -0.47024205 7
-6.37675 -1.2348957 0.79751301 10
-3.8179941 -0.73868507 -0.47748414 4
-11.423521 -2.2080963 1.8427982 25
-5.5477285 -1.0723418 -0.49434736 9
-11.421268 -2.2055931 2.2610867 34
-5.8087606 -1.1206931 -0.31003824 13
-11.421789 -2.2015588 2.6854658 37
-5.7337656 -1.1041499 -0.10192205 1
-11.426006 -2.1982329 3.1177344 28
-1.7286288 -0.33037937 -0.47156835 3
-6.0026259 -1.1461478 0.10666911 3
-1.9946201 -0.38049412 -0.46879801 6
-6.317471 -1.2039808 0.33704361 17
-2.3489666 -0.44766501 -0.46481073 100
-6.4510269 -1.2282656 0.57453066 25
-2.9205744 -0.55554473 -0.47086781 6
-11.410562 -2.1684294 1.4261152 7
-3.8185987 -0.72498381 -0.47724038 4
-11.402047 -2.1626852 1.8381052 30
-5.5533953 -1.0533412 -0.49452168 9
-11.413465 -2.1627903 2.2580338 35
-5.7851634 -1.0952101 -0.30857283 13
-11.410255 -2.1580539 2.6809666 37
-5.7297254 -1.082642 -0.10178243 1
-11.408932 -2.1536789 3.1110051 33
-1.71648 -0.32185102 -0.46794486 3
-5.9908657 -1.1222421 0.10638987 3
-1.9997671 -0.37424663 -0.4696978 5
-6.1900978 -1.1573269 0.33003056 16
-2.3524449 -0.43982306 -0.46519238 100
-6.6570024 -1.2434191 0.59248471 10
-2.9283214 -0.54643434 -0.47180638 6
-11.396596 -2.1245811 1.423434 24
-3.8250093 -0.71237677 -0.47772786 4
-11.382338 -2.1178153 1.833725 15
-5.5394096 -1.030671 -0.49295285 9
-11.393924 -2.1179106 2.252691 34
-5.7850242 -1.07428 -0.30836347 12
-11.400476 -2.1150122 2.6769176 39
-5.7413344 -1.0640938 -0.10192205 1
-11.385987 -2.1082134 3.1027229 33
-1.7042931 -0.31341118 -0.46432137 3
-5.9593449 -1.0948206 0.10576159 3
-2.0029778 -0.36761561 -0.47014773 5
-6.1017685 -1.1187829 0.325111 11
-2.3616898 -0.433025 -0.46671882 100
-6.8043661 -1.2463812 0.60520947 18
-2.9107797 -0.53265339 -0.4686777 6
-11.390273 -2.0822873 1.4217279 8
-3.8274724 -0.69902152 -0.47772786 4
-11.383832 -2.0770037 1.8327864 7
-5.5429735 -1.011327 -0.49295285 9
-11.360687 -2.0707324 2.2446773 32
-5.7730193 -1.0512173 -0.30752611 13
-11.392451 -2.0724137 2.6733184 39
-5.7450137 -1.0440462 -0.10192205 1
-11.362864 -2.0629344 3.0944405 30
-1.7243888 -0.31088817 -0.46949777 2
-5.9513216 -1.071885 0.10555216 3
-1.9984953 -0.35958588 -0.46879801 6
-6.3316979 -1.1381124 0.33714828 8
-2.3670514 -0.42547366 -0.46748206 100
-6.6498327 -1.1940987 0.59109026 12
-2.9106774 -0.52214009 -0.46836486 5
-7.3664451 -1.3201237 0.91889495 8
-3.8318434 -0.68600661 -0.47797161 4
-7.5330796 -1.3472723 1.2120544 11
-5.5464702 -0.99197215 -0.49295285 9
-11.346587 -2.0272648 2.2404792 33
-5.7609234 -1.0282531 -0.30668873 12
-11.378512 -2.0288706 2.6683693 39
-5.7328734 -1.0211804 -0.10164282 1
-11.35478 -2.02055 3.0902996 30
-1.7330731 -0.30621153 -0.47156835 2
-5.9471502 -1.049714 0.10541254 3
-1.9939808 -0.35159287 -0.46744829 5
-6.7132912 -1.1825272 0.35724527 19
-2.3723896 -0.41788965 -0.46824533 100
-6.5636973 -1.1549956 0.58307195 22
-2.9280465 -0.51471263 -0.47086781 6
-7.259563 -1.274833 0.90500182 7
-3.8244386 -0.67091072 -0.47675291 4
-7.3081417 -1.2807325 1.1751359 6
-5.5616736 -0.97466862 -0.49399874 9
-11.338123 -1.9849393 2.2374265 35
-5.7310319 -1.0022866 -0.30490932 12
-11.343292 -1.9817613 2.6584716 42
-5.6733651 -0.99016207 -0.10052586 1
-11.350346 -1.978911 3.0871937 30
-1.7189029 -0.29752415 -0.46742722 1
-5.9428964 -1.0275837 0.10527291 3
-2.0009568 -0.34562546 -0.46879801 5
-6.7587104 -1.1662179 0.3594434 23
-2.3486829 -0.40526611 -0.46328428 100
-2.9337187 -0.5051598 -0.47149354 5
-7.3265719 -1.2602528 0.91280144 6
-3.8306699 -0.65822905 -0.47724038 4
-7.359293 -1.2632366 1.1826447 12
-5.5532598 -0.95322758 -0.49295285 9
-11.325631 -1.9420315 2.2336102 35
-5.7325273 -0.98193806 -0.30480465 11
-11.329012 -1.9385406 2.6535227 39
-5.6846719 -0.97169852 -0.10066548 1
-11.341949 -1.9366772 3.0830526 24
-1.7161216 -0.29087692 -0.46639192 2
-5.9267306 -1.0034958 0.10492387 3
-2.0156012 -0.34091356 -0.47194731 5
-6.7981882 -1.1486058 0.36132747 16
-2.3636341 -0.39935404 -0.46595559 100
-6.2002907 -1.0464751 0.55012703 21
-2.9296205 -0.49393082 -0.47055492 4
-11.324276 -1.9072254 1.4100285 7
-3.8329442 -0.64485437 -0.47724038 4
-7.416255 -1.2463795 1.1910921 7
-5.5467296 -0.93218613 -0.49208131 9
-11.316853 -1.8998824 2.2305572 41
-5.7378893 -0.96225327 -0.30490932 12
-11.320334 -1.8964072 2.6499236 45
-5.6722512 -0.94920892 -0.10038625 1
-11.301004 -1.8891141 3.0701115 21
-1.7209382 -0.28551671 -0.46742722 2
-5.9144154 -0.98018575 0.10464463 3
-2.0090888 -0.33260304 -0.47014773 4
-6.5891519 -1.0908289 0.35002291 30
-2.3688874 -0.39174211 -0.46671882 100
-6.1233101 -1.0115118 0.54298031 7
-2.9274287 -0.48305818 -0.46992919 4
-7.4115796 -1.2216642 0.92230725 9
-3.8449655 -0.6330834 -0.47845906 4
-11.295223 -1.8597873 1.8130757 9
-5.5440516 -0.91184717 -0.49155837 9
-11.278859 -1.8530498 2.2217801 34
-5.7293882 -0.94027764 -0.30428126 12
-11.305731 -1.8534093 2.6449745 33
-5.6240606 -0.92198253 -0.099478714 1
-11.280518 -1.8472571 3.0628648 26
-1.7333657 -0.28136492 -0.47053304 2
-5.9215808 -0.96120811 0.10471445 3
-2.002486 -0.32469112 -0.46834809 4
-6.2045207 -1.0049131 0.32940254 7
-2.3779929 -0.38472494 -0.46824533 100
-6.0973001 -0.98536319 0.54036558 21
-2.9270644 -0.47303256 -0.46961632 5
-7.1804237 -1.1591172 0.89305866 8
-3.8333254 -0.61811733 -0.47675291 4
-11.278244 -1.8165786 1.8093213 19
-5.5412993 -0.89154094 -0.49103546 9
-11.257804 -1.8112708 2.2164373 34
-5.7166991 -0.91873765 -0.30344391 12
-11.288725 -1.8122036 2.6395755 28
-5.650938 -0.90614587 -0.099897578 1
-11.275451 -1.8060359 3.0597589 31
-1.7457366 -0.2774345 -0.47363886 2
-5.8972507 -0.93614274 0.10422577 3
-1.9959086 -0.31647837 -0.4665485 4
-6.0145035 -0.95368105 0.3191447 10
-2.3792558 -0.37683704 -0.46824533 100
-6.0552721 -0.95797753 0.53635645 22
-2.9365022 -0.4640463 -0.47086781 5
-11.268804 -1.7787554 1.4007664 5
-3.8217337 -0.60256851 -0.47504675 5
-11.266644 -1.7763993 1.8065054 17
-5.5540657 -0.87471002 -0.49190697 9
-11.297029 -1.777149 2.2229249 20
-5.7119794 -0.89753675 -0.30302522 12
-11.329636 -1.7782263 2.6476738 15
-5.6183524 -0.88182026 -0.099269286 1
-11.262294 -1.7656429 3.0545826 32
-1.7409676 -0.27044937 -0.47208595 3
-5.9121785 -0.91842312 0.1044352 3
-2.0162041 -0.31284592 -0.47104752 4
-5.9546375 -0.92289042 0.31579518 1
-2.3611548 -0.36552596 -0.46442911 6
-6.0605483 -0.93714058 0.53653073 25
-2.9419293 -0.45490959 -0.47149354 5
-11.239326 -1.7359222 1.396379 17
-3.8217487 -0.589589 -0.474803 4
-7.4969616 -1.1552341 1.2014169 18
-5.5590553 -0.85562044 -0.49208131 9
-11.339727 -1.7453511 2.2301757 70
-5.7129502 -0.87828648 -0.30292055 12
-11.333544 -1.7403527 2.6472239 49
-5.6095371 -0.86038399 -0.099059857 1
-11.245473 -1.7228082 3.0483708 28
-1.7227557 -0.26177245 -0.46690959 3
-5.814518 -0.8824783 0.10265506 4
-2.0172837 -0.3058061 -0.47104752 3
-6.0921054 -0.92243141 0.32291287 17
-2.3740008 -0.35945749 -0.46671882 6
-6.0242229 -0.91107905 0.53304452 26
-2.9434996 -0.44463676 -0.47149354 5
-11.251206 -1.6975675 1.3971103 7
-3.8316352 -0.57742912 -0.47577798 5
-7.4755549 -1.1252334 1.1973495 20
-5.5560966 -0.83532161 -0.49155837 12
-11.369048 -1.7092596 2.234755 65
-5.7238817 -0.85952681 -0.30333924 14
-11.391583 -1.7085818 2.6593714 52
-5.6006403 -0.83902001 -0.098850429 1
-11.22658 -1.6798297 3.0416417 30
-1.7198814 -0.25489041 -0.46587428 3
-5.8037171 -0.86012429 0.10241073 6
-2.0202668 -0.29904741 -0.47149745 3
-6.0360141 -0.8923983 0.31977272 5
-2.3772445 -0.35104126 -0.46710047 6
-5.96839 -0.88027012 0.52781516 21
-2.9392467 -0.4329823 -0.47055492 6
-7.04843 -1.0383087 0.87477821 7
-3.8336275 -0.56405056 -0.47577798 4
-7.467711 -1.0974085 1.1954722 17
-5.5550361 -0.81534457 -0.49120975 13
-13.597448 -1.9933484 2.6713262 14
-5.7190886 -0.83738309 -0.30292055 13
-12.820803 -1.8749264 2.991399 13
-5.5837479 -0.81657261 -0.098501377 1
-11.199879 -1.6358819 3.0328417 29
-1.7322323 -0.25054494 -0.4689801 3
-5.790997 -0.83655947 0.10213149 26
-2.005919 -0.28941494 -0.46789822 4
-5.9303694 -0.85563648 0.31401578 16
-2.3881714 -0.34414044 -0.46900854 6
