# .PCD v0.7 - Point Cloud Data file format
VERSION 0.7
FIELDS x y z intensity
SIZE 4 4 4 4
TYPE F F F F
COUNT 1 1 1 1
WIDTH 1380
HEIGHT 1
VIEWPOINT 0 0 0 1 0 0 0
POINTS 1380
DATA ascii
-9.4697475 3.0659478 1.9348032 48
-8.6585016 2.8049667 -0.47698995 12
-12.522299 4.0590754 3.0390887 4
-9.4822016 3.0754659 -0.17400049 41
-9.6064939 3.1176324 2.706212 2
-1.6586109 0.54051638 -0.46742722 11
-9.4697542 3.0878763 0.17386088 66
-1.9174669 0.62561351 -0.46564871 3
-9.4837208 3.0960953 0.52283627 63
-2.2638423 0.73906356 -0.46290264 7
-9.4752102 3.0951447 0.87208033 49
-2.7507231 0.89907449 -0.45835301 3
-9.4620705 3.0945103 1.2223496 43
-3.5582147 1.1643782 -0.4596912 4
-9.4672499 3.0998602 1.5777982 50
-5.1426735 1.6838647 -0.47342998 12
-9.4515247 3.0965402 1.9332769 48
-8.6429644 2.8333049 -0.47667596 11
-12.521014 4.1070137 3.042238 3
-9.4714079 3.1085465 -0.17400049 36
-9.6065664 3.1547608 2.7093179 3
-1.6603836 0.54751229 -0.4684625 12
-9.4570189 3.1202867 0.17382596 51
-1.9097202 0.63046986 -0.46429899 3
-9.4557877 3.1235404 0.52189422 66
-2.2612491 0.74696082 -0.46290264 6
-9.4643488 3.1282005 0.87208033 46
-2.7625718 0.91363364 -0.46085599 5
-9.4474411 3.1262708 1.2218621 44
-3.5465906 1.1742958 -0.45871624 4
-9.4544964 3.1322696 1.5774853 47
-5.1273074 1.6986743 -0.47255844 9
-9.4443855 3.1307468 1.9340401 48
-8.6140642 2.8571696 -0.47562921 10
-9.6250162 3.1943562 2.3412907 2
-9.468092 3.1441081 -0.17414011 39
-9.6101608 3.1931479 2.713459 3
-1.6566296 0.55269343 -0.46794486 9
-9.4517603 3.1551788 0.17393069 63
-1.914901 0.63960212 -0.46609858 3
-9.4448261 3.1565287 0.52189422 68
-2.2381456 0.74800432 -0.45870483 100
-9.4495926 3.159955 0.87173176 49
-2.7631125 0.92452425 -0.46148172 6
-9.4440012 3.1617506 1.2228371 44
-3.5311761 1.1828854 -0.45725381 4
-9.4378862 3.1633673 1.5765467 50
-5.1251254 1.7178267 -0.47290704 10
-9.4445686 3.1674404 1.9363298 49
-8.6172924 2.8916712 -0.4763619 9
-12.486496 4.1924663 3.0408883 4
-9.4381027 3.1707704 -0.17379107 41
-9.595294 3.2254455 2.7124238 2
-1.6455382 0.55538392 -0.46535668 11
-9.444478 3.18943 0.17400049 63
-1.914503 0.64690638 -0.4665485 3
-9.4337502 3.1894782 0.52189422 44
-2.2448199 0.75895631 -0.46061292 100
-9.4271803 3.1890903 0.87068588 50
-2.7673531 0.93669713 -0.46273321 5
-9.4423084 3.1978815 1.2240558 42
-3.5345459 1.1977528 -0.45822877 3
-9.4249153 3.1956582 1.5762339 47
-5.104003 1.7305883 -0.47151256 9
-9.4334545 3.2003891 1.9363298 49
-8.5920162 2.9165957 -0.47552454 9
-12.48101 4.2391605 3.0431378 1
-9.421298 3.2017663 -0.17368636 34
-9.5601997 3.2508328 2.7056944 3
-1.6454179 0.56174833 -0.46587428 10
-9.4143639 3.2159164 0.17365146 66
-1.9177653 0.65547615 -0.46789822 3
-9.4320087 3.2256181 0.52241755 72
-2.2421572 0.76678711 -0.46061292 100
-9.4159908 3.2219782 0.87068588 52
-2.7472463 0.94059253 -0.45991737 5
-9.4235764 3.2282462 1.2230808 42
-3.5528777 1.2178074 -0.46115363 3
-9.4155712 3.2291791 1.5765467 49
-5.0825496 1.7441105 -0.47011805 9
-9.4073696 3.2282012 1.9332769 49
-8.5817833 2.9465699 -0.47552454 10
-9.5928812 3.2956035 2.3417406 6
-9.4233017 3.2391839 -0.17393069 41
-9.5780239 3.2942374 2.7139766 4
-1.6433477 0.56777579 -0.46587428 9
-9.4011898 3.2481062 0.17361654 61
-1.9062564 0.65898246 -0.46564871 3
-9.4188032 3.2578719 0.52231288 68
-2.2504632 0.778853 -0.46290264 100
-9.406002 3.257118 0.87086016 41
-2.7437804 0.95065552 -0.45991737 4
-9.3991203 3.2565746 1.2213746 44
-3.5336003 1.2250003 -0.45920372 2
-9.4117088 3.2646136 1.5777982 45
-5.080195 1.763148 -0.4704667 11
-9.3917637 3.2613709 1.9325136 49
-8.5445137 2.9688246 -0.47405913 8
-12.446674 4.3270836 3.042238 3
-9.4157143 3.273371 -0.17400049 41
-9.550045 3.321939 2.7093179 3
-1.6522983 0.57733166 -0.4689801 11
-9.3986616 3.2858388 0.17379107 55
-1.8983101 0.66403502 -0.46429899 4
-9.3979473 3.2874324 0.52178955 64
-2.2495842 0.78735191 -0.46328428 100
-9.4077368 3.294543 0.87208033 56
-2.746038 0.96218705 -0.46085599 4
-9.3946152 3.2936273 1.2223496 44
-3.5218098 1.2346997 -0.45822877 2
-9.3965273 3.2961416 1.5771725 49
-5.0664892 1.7782311 -0.46976945 9
-9.3895855 3.297385 1.9344217 46
-8.5284443 2.9966486 -0.47374511 6
-12.443289 4.372211 3.0449374 3
-9.4061174 3.3068817 -0.17403539 37
-9.5311012 3.3526886 2.7072473 3
-1.6467316 0.58152121 -0.46794486 9
-9.3990259 3.3209856 0.17400049 66
-1.8997722 0.67162555 -0.46519879 4
-9.3813457 3.3165827 0.52147555 63
-2.2377067 0.79153413 -0.46137619 100
-9.3911257 3.3237259 0.87155735 49
-2.7446945 0.97194749 -0.46116886 4
-9.3873835 3.3260889 1.2228371 36
-3.5139537 1.2450458 -0.45774129 2
-9.3818216 3.3259611 1.5765467 49
-5.0530534 1.7923584 -0.46907222 9
-9.3804493 3.3291609 1.9348032 48
-8.5354004 3.0309291 -0.47468719 7
-9.5235453 3.3818202 2.3331923 4
-9.3819094 3.333369 -0.17379107 36
-9.5490551 3.3946302 2.7155294 5
-1.6411552 0.58568031 -0.46690959 9
-9.3841953 3.3507912 0.17393069 66
-1.904875 0.68054384 -0.46699843 4
-9.3734732 3.350652 0.52168489 57
-2.2258258 0.79564613 -0.4594681 100
-9.3706732 3.3514955 0.87068588 49
-2.7488956 0.98370624 -0.46242031 4
-9.3763018 3.3572004 1.2228371 44
-3.5282741 1.2639992 -0.4601787 2
-9.3664351 3.3573592 1.5759209 50
-5.0298877 1.8039315 -0.4675034 7
-9.3730536 3.3615754 1.9355664 48
-8.5253029 3.0592151 -0.47468719 9
-9.5043449 3.4124091 2.3313928 4
-9.3683348 3.3654199 -0.17375615 42
-9.493516 3.4122596 2.7031062 3
-1.6353633 0.59037954 -0.46587428 9
-9.3592758 3.3787749 0.17368636 61
-1.9024879 0.68718898 -0.46699843 4
-9.3654766 3.3847091 0.52189422 67
-2.239511 0.8098073 -0.46290264 100
-9.360199 3.3864961 0.87086016 49
-2.7266977 0.98705041 -0.45929164 4
-9.3645258 3.38991 1.2228371 43
-3.5238407 1.2763076 -0.4601787 2
-9.3565159 3.3907046 1.5762339 36
-5.014195 1.8180823 -0.46663183 7
-9.3459044 3.3905528 1.9325136 49
-8.5440712 3.1013446 -0.4763619 15
-9.5064278 3.4525411 2.3349919 4
-9.364049 3.4008319 -0.17389578 42
-9.485177 3.4466994 2.7041416 3
-1.638737 0.5980714 -0.46742722 8
-9.3449507 3.41237 0.17365146 63
-1.8889742 0.69014496 -0.46429899 4
-9.357357 3.4187515 0.52210355 66
-2.2329829 0.81627184 -0.46213943 100
-9.3520632 3.4205177 0.87120879 47
-2.7195253 0.99520469 -0.45866591 4
-9.3427172 3.4207971 1.2216184 47
-3.5265946 1.2919459 -0.46115363 2
-9.3613176 3.4294603 1.5790497 50
-5.0153012 1.8383172 -0.46732911 7
-9.3376999 3.4245057 1.9332769 49
-8.5331926 3.1311502 -0.4763619 8
-12.395666 4.5508924 3.0485368 3
-9.355875 3.4348762 -0.17396559 42
-9.4839687 3.4837847 2.7072473 3
-1.6330143 0.60245073 -0.46639192 8
-9.3448391 3.4474931 0.17386088 72
-1.8921595 0.69842964 -0.46564871 5
-9.3341255 3.4472401 0.52147555 68
-2.2245951 0.82201999 -0.46099457 100
-9.3475418 3.4559054 0.87190604 48
-2.7365911 1.0117526 -0.46210748 6
-9.3369083 3.4538267 1.2223496 44
-3.5036743 1.2967434 -0.45871624 4
-9.3381748 3.4580011 1.5771725 50
-5.0107212 1.8565061 -0.4675034 7
-9.3299742 3.4568183 1.9340401 49
-8.4927998 3.1483231 -0.47468719 8
-9.490016 3.5198801 2.3367915 4
-9.3475771 3.4689076 -0.17403539 42
-9.4789953 3.5195568 2.7093179 3
-1.6400586 0.61123604 -0.4689801 10
-9.3271275 3.4779959 0.17375615 67
-1.9061425 0.7111606 -0.4696978 9
-9.3295193 3.4825976 0.52189422 68
-2.2328928 0.83351207 -0.46328428 7
-9.3285637 3.4840961 0.87120879 49
-2.7367437 1.0226814 -0.46273321 8
-9.3247948 3.4863977 1.2223496 43
-3.5047042 1.3110523 -0.45944747 6
-9.313097 3.4857271 1.5749824 47
-4.9892836 1.8683946 -0.46610889 7
-9.3215275 3.4907401 1.9348032 48
-8.4836283 3.1786504 -0.47479185 6
-12.364401 4.6351647 3.0485368 3
-9.3241777 3.4972997 -0.17382596 42
-9.4594164 3.5499084 2.7072473 2
-1.6287687 0.61383629 -0.46639192 14
-9.3186731 3.511941 0.17382596 67
-1.9072952 0.71918511 -0.47059759 9
-9.3173056 3.5151427 0.52189422 68
-2.2353332 0.84376985 -0.46442911 7
-9.315731 3.5182636 0.87120879 49
-2.7255855 1.0299128 -0.46148172 6
-9.3162823 3.5203295 1.2228371 44
-3.5019634 1.3239793 -0.4596912 4
-9.3045673 3.5196149 1.5756081 47
-4.9696875 1.8808625 -0.46488872 10
-9.3160162 3.5276606 1.9363298 48
-8.3673286 3.1700969 -0.46893018 18
-12.343684 4.6790667 3.0476367 1
-9.3081732 3.5284085 -0.17375615 42
-9.4433556 3.5815363 2.706212 2
-1.6212001 0.6174553 -0.46483904 13
-9.2963943 3.5425141 0.17365146 52
-1.8937213 0.72200549 -0.46789822 7
-9.3136911 3.5528257 0.52241755 70
-2.2342086 0.85226732 -0.46481073 7
-9.3033934 3.5507605 0.87120879 42
-2.7182829 1.0380106 -0.46085599 7
-9.2996092 3.5530329 1.2223496 44
-3.5007954 1.3382242 -0.4601787 4
-9.2989855 3.5565147 1.5768597 46
-4.9571776 1.8969285 -0.46436578 8
-9.2889757 3.5545475 1.9332769 48
-8.3599424 3.2007136 -0.46913958 15
-9.4374456 3.6151381 2.3331923 2
-9.3007803 3.5646484 -0.17386088 41
-9.4554176 3.6258078 2.713459 3
-1.6261375 0.62617004 -0.46690959 13
-9.2839737 3.5749409 0.17365146 63
-1.8784602 0.72370738 -0.46474886 7
-9.2956409 3.5831628 0.52210355 68
-2.2329018 0.86115688 -0.46519238 7
-9.294035 3.5862677 0.87155735 52
-2.7181456 1.0493903 -0.46148172 6
-9.2797413 3.5826156 1.2213746 44
-3.496103 1.3504362 -0.4601787 4
-9.2883577 3.5896652 1.5771725 50
-4.9561009 1.9163766 -0.46488872 7
-9.2722225 3.5871525 1.9325136 51
-8.3313923 3.2248421 -0.46819749 19
-12.320789 4.7714992 3.0503364 3
-9.2957392 3.5999811 -0.17400049 39
-9.4228888 3.6511137 2.7077651 1
-1.634855 0.63576013 -0.47001541 13
-9.284483 3.6124024 0.17389578 70
-1.8813705 0.73238081 -0.46609858 7
-9.2781239 3.6117926 0.52178955 50
-2.2227159 0.86570668 -0.46366587 7
-9.2820911 3.6170685 0.87155735 49
-2.7183316 1.0598335 -0.46210748 6
-9.2745771 3.617872 1.2223496 43
-3.4784231 1.3575788 -0.45847249 4
-9.2819223 3.6226013 1.5781111 47
-4.9460073 1.9313518 -0.46454012 7
-9.2675915 3.6207387 1.9340401 48
-8.3838997 3.2771752 -0.47175637 7
-12.312159 4.8151693 3.0521359 1
-9.2818871 3.630059 -0.17396559 33
-9.4287195 3.6893809 2.7129414 1
-1.6344239 0.64216948 -0.47053304 14
-9.2743139 3.6439025 0.17393069 72
-1.8807452 0.73932868 -0.4665485 7
-9.2561655 3.6405048 0.52126616 61
-2.212373 0.87058473 -0.46213943 7
-9.276824 3.6523669 0.87225467 47
-2.7166405 1.0695651 -0.46242031 7
-9.266222 3.6500633 1.2228371 45
-3.4683616 1.3669227 -0.45774129 4
-9.2563572 3.6499074 1.5759209 49
-4.9447951 1.9507986 -0.46506307 5
-9.2646646 3.6550541 1.9359483 46
-8.3748436 3.3056929 -0.47186103 8
-9.259861 3.6587627 -0.17379107 41
-1.616124 0.6411742 -0.46587428 13
-9.2671137 3.678467 0.17403539 70
-1.8853977 0.74876595 -0.46834809 7
-9.2526827 3.6764781 0.52178955 64
-2.2112982 0.87864143 -0.46252102 7
-9.2572556 3.6801658 0.87155735 41
-2.7110546 1.078312 -0.46210748 7
-9.2534246 3.682384 1.2228371 44
-3.4691019 1.3812243 -0.45847249 4
-9.2509003 3.6851225 1.5771725 44
-4.9197898 1.9598124 -0.46331993 6
-9.2554979 3.6888235 1.9367114 46
-8.2055616 3.2720256 -0.46296394 23
-9.3667936 3.7369726 2.3282435 100
-9.2507486 3.6925442 -0.17386088 41
-9.3614702 3.7386343 2.7010357 39
-1.612083 0.64609301 -0.46535668 12
-9.2356577 3.7033489 0.17368636 61
-1.884581 0.75606871 -0.46879801 7
-9.2490606 3.7124741 0.52231288 61
-2.2100396 0.88708621 -0.46290264 7
-9.2406559 3.7109704 0.87120879 49
-2.6981099 1.0840859 -0.46054313 7
-9.2441988 3.7161434 1.2233245 44
-3.4753096 1.3977698 -0.45993495 4
-9.2398138 3.7181273 1.5774853 47
-4.916616 1.9784602 -0.46366853 6
-9.2371006 3.718909 1.9355664 49
-8.1236897 3.2722933 -0.45898637 27
-12.254693 4.9387803 3.0503364 21
-9.2489309 3.7293 -0.17407031 41
-10.632911 4.2895012 3.0721822 24
-1.6169807 0.6546157 -0.46742722 12
-9.2282324 3.737819 0.17379107 66
-1.8620634 0.75459164 -0.46384907 6
-9.2434511 3.7477369 0.5227316 61
-2.2105687 0.89627022 -0.46366587 6
-9.2387228 3.7477 0.87225467 48
-2.6906481 1.0920118 -0.45991737 7
-9.229331 3.747642 1.2230808 32
-3.4667311 1.4083983 -0.45944747 4
-9.2359285 3.754077 1.5790497 49
-4.9115252 1.9963607 -0.46384284 7
-9.2095137 3.7452137 1.9325136 51
-8.1159182 3.3021338 -0.4591957 20
-9.3260374 3.7963939 2.3246443 51
-9.2358561 3.7615626 -0.17407031 39
-9.3208294 3.7980666 2.6968944 69
-1.6254146 0.66464311 -0.47053304 11
-9.2262335 3.7745521 0.17400049 66
-1.8702391 0.76551616 -0.4665485 6
-9.2118282 3.7724104 0.52168489 57
-2.2056098 0.9032371 -0.46328428 7
-9.2292719 3.7814369 0.87260324 47
-2.6904757 1.102896 -0.46054313 6
-9.2033367 3.7745633 1.2213746 42
-3.4544475 1.4174764 -0.45847249 3
-9.2191114 3.7847929 1.5784239 50
-4.9100556 2.015763 -0.46436578 6
-9.2109127 3.7833056 1.9355664 48
-8.3075504 3.4139516 -0.47070965 7
-9.2947054 3.8215148 2.3201451 97
-9.2245197 3.7945395 -0.17410521 42
-9.2914362 3.8239625 2.6922357 40
-1.6177276 0.66810101 -0.4689801 11
-9.2203951 3.8097897 0.17414011 66
-1.8711575 0.7735284 -0.46744829 6
-9.208497 3.8067529 0.52220821 70
-2.1951866 0.90792978 -0.46175778 6
-9.2123337 3.8121068 0.87225467 48
-2.6884344 1.1130357 -0.46085599 6
-9.2047768 3.8127434 1.2233245 43
-3.4421432 1.4264864 -0.45749757 4
-9.2028608 3.8138318 1.5777982 37
-4.8845859 2.0252581 -0.46262267 6
-9.2103453 3.8207006 1.938238 46
-8.2955837 3.4429297 -0.47070965 7
-9.1985207 3.8195593 2.2994497 72
-9.202651 3.8212745 -0.17393069 44
-9.2216158 3.8310363 2.6756713 40
-1.6046878 0.66928202 -0.46587428 10
-9.2077103 3.8403451 0.17414011 57
-1.872179 0.78123015 -0.46834809 6
-9.1951532 3.8388736 0.52220821 64
-2.19925 0.91861367 -0.46328428 6
-9.191618 3.8411658 0.87155735 47
-2.688374 1.1234682 -0.46148172 6
-9.1975775 3.8455446 1.2240558 42
-3.4447191 1.4409573 -0.45847249 4
-9.1931372 3.8474555 1.5784239 50
-4.8682976 2.03845 -0.46175113 7
-9.1940022 3.8497059 1.9374746 46
-8.278595 3.4681058 -0.47039565 8
-9.1983852 3.8553128 2.302599 72
-9.1855679 3.8518279 -0.17386088 41
-9.1974974 3.8587179 2.6725655 40
-1.600679 0.67385018 -0.46535668 11
-9.1831923 3.8678036 0.17393069 66
-1.8730322 0.78927398 -0.46924794 7
-9.1890564 3.874053 0.52262688 63
-2.1907647 0.92361367 -0.46213943 6
-9.1769943 3.8708515 0.87138307 46
-2.6698763 1.1267014 -0.4589788 6
-9.1877546 3.8791704 1.2245432 42
-3.4469833 1.4560621 -0.45944747 4
-9.1778316 3.8787537 1.5781111 46
-4.8574815 2.0538793 -0.46140248 7
-9.1642342 3.8748949 1.9340401 49
-8.2517223 3.4907548 -0.46955824 9
-9.19205 3.8904386 2.3043985 68
-9.179431 3.8869872 -0.17400049 44
-9.1821947 3.8900445 2.6720479 39
-1.5999764 0.6804682 -0.46587428 10
-9.1622734 3.8967049 0.17379107 66
-1.8577133 0.79046685 -0.46609858 7
-9.1718035 3.9045386 0.52241755 59
-2.1891711 0.93240583 -0.46252102 6
-9.1774082 3.9107115 0.87277764 46
-2.667546 1.1372541 -0.45929164 6
-9.1595507 3.9049888 1.2225933 41
-3.4309239 1.4634125 -0.45798501 4
-9.1715031 3.9138706 1.5793626 47
-4.8521156 2.071604 -0.46157682 6
-9.1571922 3.91154 1.9355664 48
-8.2241802 3.5146987 -0.46872085 8
-9.1848974 3.9271657 2.3061984 68
-9.1731634 3.9221487 -0.17414011 41
-9.1774406 3.9258721 2.6746361 40
-1.6046917 0.68909812 -0.46794486 11
-9.1607914 3.935786 0.17403539 70
-1.8494327 0.79496121 -0.46474886 7
-9.151927 3.9357622 0.52210355 67
-2.1895101 0.94159305 -0.46328428 6
-9.1728516 3.9466577 0.87364912 49
-2.672632 1.1504638 -0.46085599 6
-9.1488218 3.9401062 1.2230808 42
-3.4145989 1.4712646 -0.45652261 3
-9.1570978 3.9474576 1.5793626 46
-4.8448548 2.0885286 -0.46157682 6
-9.1579037 3.9497032 1.9386196 38
-8.1825218 3.5307229 -0.46704614 6
-9.1603985 3.9545691 2.3034987 63
-9.1605606 3.9565387 -0.17417502 42
-9.170084 3.9625483 2.6767068 32
-1.6022764 0.69469541 -0.46794486 11
-9.1506662 3.969331 0.17410521 54
-1.8573725 0.80606705 -0.46744829 7
-9.1417961 3.9692752 0.52231288 60
-2.173604 0.94375682 -0.46061292 6
-9.1480551 3.9738903 0.87260324 42
-2.6649766 1.1582115 -0.46023026 5
-9.1477566 3.9775567 1.224787 39
-3.4094424 1.4831749 -0.45652261 4
-9.1360168 3.9762447 1.5781111 46
-4.8302269 2.102247 -0.46087953 6
-9.1494617 3.9839957 1.9397644 45
-8.171978 3.5600617 -0.46715081 6
-9.1465368 3.9865234 2.3034987 68
-9.1448622 3.98769 -0.17414011 44
-9.1579657 3.9953063 2.6772244 35
-1.5892235 0.69563627 -0.46483904 11
-9.1440811 4.0044575 0.17424482 61
-1.8616873 0.81567335 -0.46924794 7
-9.1388607 4.0059733 0.52294093 61
-2.1738927 0.95291489 -0.46137619 7
-9.1414261 4.0089998 0.87330055 52
-2.664535 1.1690943 -0.46085599 6
-9.1374531 4.0110602 1.2252746 40
-3.4042442 1.4950671 -0.45652261 4
-9.1238899 4.0089059 1.5784239 45
-4.8082671 2.1126833 -0.45948508 6
-9.1355 4.0159092 1.9397644 42
-8.148531 3.5837412 -0.46652275 7
-9.1379166 4.0207787 2.3048484 70
-9.130887 4.0195875 -0.17414011 44
-9.1351242 4.023356 2.6746361 33
-1.5867854 0.7011795 -0.46483904 11
-9.120904 4.0323071 0.17407031 63
-1.8659575 0.82532054 -0.47104752 7
-9.1211691 4.0362334 0.5227316 45
-2.1723485 0.96129185 -0.46175778 7
-9.114625 4.0352373 0.87208033 45
-2.647795 1.1727884 -0.45866591 6
-9.1252098 4.043736 1.2255182 41
-3.3990049 1.5069404 -0.45652261 4
-9.1152582 4.0431333 1.5793626 47
-4.8063269 2.1318781 -0.46000803 7
-9.1142473 4.044589 1.938238 45
-8.1213684 3.6056798 -0.4656854 6
-9.1291695 4.0550251 2.3061984 70
-9.1241083 4.0546837 -0.17427972 36
-9.1210232 4.0552216 2.6746361 35
-1.5931499 0.71064878 -0.46742722 12
-9.1012936 4.0616779 0.17396559 61
-1.8470502 0.82467854 -0.46699843 8
-9.1197901 4.0737476 0.52346432 58
-2.1779428 0.97287202 -0.46366587 7
-9.120492 4.0759735 0.87399781 52
-2.6418817 1.1812174 -0.45835301 5
-9.1001673 4.0706987 1.2240558 42
-3.3973475 1.5204186 -0.45701009 4
-9.1173143 4.0821915 1.5821784 50
-4.7934003 2.1461999 -0.45948508 6
-9.0929079 4.0731664 1.9367114 46
-8.0905066 3.6258385 -0.46463865 6
-9.118516 4.0884619 2.3070979 65
-9.1117258 4.0873251 -0.17431465 46
-9.1103382 4.0886149 2.6756713 35
-1.5977056 0.71937817 -0.46949777 11
-9.1071157 4.1024575 0.17434955 57
-1.8299472 0.82471496 -0.4633992 7
-9.0927706 4.0998111 0.5227316 52
-2.1745334 0.98046863 -0.46366587 7
-9.1025753 4.1061463 0.87364912 37
-2.6449447 1.193682 -0.45960453 5
-9.0895185 4.1040754 1.2245432 42
-3.3775468 1.5257306 -0.45506018 4
-9.0994101 4.1123633 1.5815526 43
-4.7858801 2.1629179 -0.45948508 6
-9.0893669 4.1097374 1.9390012 45
-8.0577822 3.6450026 -0.46348724 6
-9.0970879 4.1170506 2.3052983 65
-9.1010447 4.1207581 -0.17438444 46
-9.1030502 4.12358 2.677742 32
-1.5881495 0.72175413 -0.46742722 12
-9.0963812 4.1358752 0.17441934 52
-1.8377004 0.83593905 -0.46609858 7
-9.0809422 4.1307683 0.52283627 58
-2.1568019 0.98154807 -0.46061292 7
-9.0990677 4.1428471 0.874695 49
-2.6443572 1.2045451 -0.46023026 5
-9.0805578 4.1382494 1.2252746 40
-3.3685884 1.5358635 -0.45457271 4
-9.0767365 4.1384182 1.5799882 46
-4.7855515 2.1829181 -0.46018231 6
-9.0821095 4.1447005 1.9405276 44
-8.0450115 3.6731055 -0.46348724 6
-9.0826607 4.1487827 2.3052983 68
-9.0800543 4.1475925 -0.17424482 46
-9.0875683 4.1529412 2.6772244 28
-1.5785969 0.72407138 -0.46535668 13
-9.0917044 4.170186 0.17459388 64
-1.843774 0.8460924 -0.46834809 7
-9.0719118 4.1649413 0.52315027 61
-2.1444428 0.98497307 -0.45870483 6
-9.0736885 4.1695919 0.87364912 48
-2.6403482 1.2133075 -0.46023026 5
-9.0866241 4.1774597 1.2279556 31
-3.3706906 1.5503438 -0.45554763 4
-9.0676193 4.1725545 1.580927 49
-4.7344666 2.1796143 -0.45599884 8
-9.075449 4.1780796 1.942054 42
-8.0309715 3.6989284 -0.46338257 6
-9.0759325 4.1821399 2.3070979 68
-9.0637045 4.1784253 -0.17420992 41
-9.0695066 4.1830196 2.6761889 32
-1.5744337 0.72849101 -0.46483904 9
-9.0607595 4.1943364 0.17427972 68
-1.8355042 0.85006642 -0.46699843 7
-9.0627556 4.1991019 0.52346432 48
-2.1554153 0.99868178 -0.46175778 100
-9.0507746 4.1954699 0.87277764 45
-2.6289287 1.2191925 -0.4589788 5
-9.0719881 4.2091508 1.2279556 43
-3.3688593 1.563772 -0.45603511 4
-9.0583725 4.206677 1.5818655 46
-4.7380557 2.2003367 -0.45704472 6
-9.0501261 4.2047701 1.9397644 45
-7.9980898 3.7176795 -0.46223122 6
-9.0648117 4.2154408 2.3079977 68
-9.0617561 4.2159433 -0.17445426 42
-9.0601063 4.2170968 2.677742 32
-1.5806334 0.73806924 -0.46742722 9
-9.0496874 4.2276325 0.17434955 66
-1.8254642 0.85316753 -0.46519879 7
-9.0625172 4.2374797 0.52430165 58
-2.1412454 1.0012102 -0.4594681 100
-9.0559244 4.2363238 0.874695 49
-2.6139221 1.2233379 -0.45710155 5
-9.0374651 4.2315335 1.2252746 40
-3.3633802 1.5755219 -0.45603511 3
-9.0507879 4.2416267 1.583117 35
-4.726737 2.2151723 -0.45669609 6
-9.0353947 4.2363334 1.9397644 46
-7.9742141 3.7404864 -0.46160319 5
-9.060627 4.2520247 2.3106971 65
-9.0487947 4.2483964 -0.17448916 41
-9.0523233 4.2519822 2.6798124 30
-1.5832901 0.74605256 -0.4689801 8
-9.0475368 4.2651625 0.17459388 56
-1.8118995 0.8545472 -0.46249935 7
-9.0350256 4.2631221 0.52356899 51
-2.1412885 1.010354 -0.46023133 100
-9.0356779 4.2653556 0.87417209 45
-2.6239252 1.2392033 -0.45960453 5
-9.026228 4.2647505 1.225762 40
-3.3399134 1.5787686 -0.45359772 3
-9.0502129 4.2799478 1.5856199 53
-4.7297835 2.236768 -0.45774195 6
-9.0312004 4.2728853 1.942054 46
-7.9502759 3.7631736 -0.46097517 6
-9.0386858 4.2802887 2.3088977 70
-9.0411386 4.2833819 -0.17462878 41
-9.0444088 4.2868667 2.6818831 29
-1.5754424 0.74908578 -0.46742722 8
-9.034399 4.2975798 0.17462878 60
-1.8194635 0.86589134 -0.46519879 7
-9.0200911 4.2946324 0.52356899 56
-2.1306584 1.014446 -0.45870483 100
-9.0405188 4.3062968 0.87608945 49
-2.6231503 1.2500546 -0.46023026 5
-9.0220385 4.3013558 1.2272245 40
-3.3307986 1.5887092 -0.45311025 4
-9.0191736 4.3038564 1.5828041 49
-4.7039652 2.2446837 -0.45599884 6
-9.0250893 4.3086109 1.9439622 40
-7.9370928 3.7909007 -0.46097517 6
-9.0236902 4.3118134 2.3088977 68
-9.0135021 4.3088784 -0.17438444 42
-9.0328751 4.3200765 2.6829183 30
-1.565851 0.75123805 -0.46535668 8
-9.0229483 4.3308206 0.17469859 60
-1.8199433 0.87392384 -0.46609858 7
-9.0230465 4.3347411 0.52461565 61
-2.1253347 1.0210272 -0.45832324 100
-9.0200453 4.3352394 0.8755666 47
-2.6152103 1.2574909 -0.45960453 5
-9.0212774 4.3397088 1.2291743 39
-3.32881 1.602048 -0.45359772 4
-9.0023155 4.3344564 1.5824912 46
-4.6781497 2.2524469 -0.45425573 6
-9.0064554 4.3383861 1.9431988 48
-7.9148159 3.8142483 -0.46045178 6
-9.015604 4.3466711 2.3106971 68
-9.0002079 4.3411841 -0.17441934 41
-9.0107813 4.3482232 2.6808479 29
-1.5597411 0.75501627 -0.46432137 7
-8.9951782 4.3561869 0.17445426 56
-1.8151278 0.87942165 -0.46564871 7
-9.0132513 4.3688269 0.5249297 58
-2.1252909 1.0301529 -0.45908648 100
-9.0030661 4.3658276 0.87539226 49
-2.5965869 1.2597142 -0.45710155 5
-9.0042887 4.370306 1.2289306 41
-3.3374832 1.6205947 -0.45554763 4
-8.9942379 4.3693047 1.5837427 47
-4.672051 2.2696323 -0.45443004 7
-8.9841938 4.3663659 1.9416724 48
-7.8978601 3.8401065 -0.46024245 6
-9.0143957 4.3849349 2.3142962 63
-8.9975863 4.3787003 -0.17466368 46
-8.9955482 4.3796501 2.6808479 30
-1.5570962 0.76045585 -0.46432137 7
-8.9799175 4.3875599 0.17445426 46
-1.8015425 0.88061762 -0.46294928 7
-8.9961538 4.3993831 0.52482504 57
-2.1322641 1.0427399 -0.46137619 6
-8.9913502 4.3989787 0.87574089 42
-2.5921736 1.2687711 -0.45710155 5
-8.9836302 4.3990912 1.2281992 40
-3.32111 1.6269943 -0.4540852 4
-8.9931211 4.4076314 1.5862457 47
-4.660521 2.2841747 -0.45408139 7
-8.9741859 4.4002934 1.9428172 45
-7.8700638 3.8606131 -0.45940509 6
-9.004283 4.4189501 2.3156462 63
-8.9894276 4.4136066 -0.17480332 46
-8.9975462 4.419539 2.6860242 29
-1.5648298 0.7710095 -0.46742722 6
-8.98069 4.4268365 0.1747684 57
-1.800205 0.88776308 -0.4633992 7
-8.9735775 4.4272246 0.52440631 55
-2.1356537 1.053651 -0.46290264 7
-8.9902325 4.4373922 0.87713534 49
-2.5912712 1.2795609 -0.45772728 5
-8.9682207 4.4304214 1.2281992 40
-3.3029535 1.6324205 -0.45237905 4
-8.9794512 4.4398723 1.5865585 49
-4.6614494 2.3048446 -0.45495299 6
-8.9710894 4.4376836 1.9454886 36
-7.8493786 3.8845198 -0.45898637 6
-8.9730844 4.4425721 2.3115969 68
-8.9811344 4.4485064 -0.17494293 46
-8.9872561 4.453495 2.6875772 27
-1.5534792 0.77216774 -0.46483904 6
-8.9759235 4.4635024 0.17497782 60
-1.800585 0.89577729 -0.46429899 7
-8.9544926 4.4567413 0.52419698 45
-2.114387 1.0523517 -0.45908648 7
-8.962203 4.4625335 0.87591517 45
-2.5938618 1.2921211 -0.4589788 5
-8.9598074 4.4652414 1.2291743 38
-3.299011 1.6448267 -0.45262277 4
-8.9550619 4.4667788 1.5849943 47
-4.6444616 2.3166544 -0.45408139 7
-8.9573011 4.4698486 1.9458703 45
-7.8321977 3.9101119 -0.45877704 6
-8.9714708 4.4808311 2.3151963 68
-8.9566078 4.4753609 -0.1747684 36
-8.9716558 4.4848394 2.6875772 27
-1.543867 0.77412176 -0.46276847 6
-8.971014 4.5001845 0.17518725 60
-1.8044139 0.90555346 -0.46609858 7
-8.9620857 4.4996195 0.52555776 58
-2.1159644 1.0623682 -0.46023133 7
-8.9572535 4.4991536 0.87696105 47
-2.5893357 1.3011676 -0.4589788 5
-8.9530325 4.5009503 1.2303931 41
-3.3021171 1.6607914 -0.45384148 5
-8.9482374 4.50245 1.5865585 49
-4.6185489 2.3238976 -0.45233828 7
-8.9469042 4.5037389 1.947015 48
-7.8185019 3.9374259 -0.45877704 6
-8.9627361 4.5156274 2.3169959 42
-8.9445009 4.5084004 -0.17483822 44
-8.9473219 4.5117779 2.684989 29
-1.5411551 0.77950656 -0.46276847 7
-8.9409771 4.5242496 0.17490801 57
-1.8029809 0.91272628 -0.4665485 7
-8.9498873 4.5326824 0.52576709 53
-2.1139944 1.0706353 -0.46061292 6
-8.9361629 4.5276918 0.87643814 35
-2.5742064 1.3048395 -0.45710155 5
-8.9425793 4.5348659 1.2311242 40
-3.3016105 1.6750022 -0.45457271 4
-8.9395132 4.5372343 1.58781 45
-4.6139627 2.3418088 -0.45268691 7
-8.9258776 4.5322738 1.9458703 46
-7.7975864 3.9610753 -0.45835835 6
-8.9469175 4.5468884 2.3169959 53
-8.9394054 4.5450306 -0.17504764 44
-8.9315186 4.5429826 2.684989 29
-1.5487497 0.79014915 -0.46587428 7
-8.9251299 4.5554323 0.17490801 52
-1.7806925 0.90926582 -0.46159956 7
-8.9446821 4.5693479 0.52639508 58
-2.110244 1.0780081 -0.46061292 100
-8.9380445 4.567924 0.87818122 52
-2.5661182 1.3120188 -0.45647582 5
-8.9196272 4.5624385 1.2301493 39
-3.2869079 1.6819955 -0.453354 4
-8.928894 4.5711122 1.5887486 46
-4.6057596 2.3579004 -0.45268691 7
-8.9152451 4.5660882 1.947015 48
-7.7659373 3.9791627 -0.45731166 7
-8.9379301 4.581645 2.3187954 61
-8.9323826 4.5807705 -0.17522217 42
-8.9345131 4.5838327 2.6906829 28
-1.5580064 0.80173814 -0.46949777 8
-8.9198427 4.5920486 0.17511745 60
-1.7792398 0.91636884 -0.46204948 7
-8.9028463 4.5852675 0.52482504 52
-2.1064684 1.0853677 -0.46061292 100
-8.9167337 4.5963559 0.87765831 46
-2.5720563 1.3264005 -0.45835301 5
-8.9089384 4.5962768 1.2308805 30
-3.2777836 1.6910657 -0.45286649 4
-8.9207096 4.6043186 1.5900002 46
-4.6010418 2.3757915 -0.45303556 7
-8.9079733 4.601686 1.9489232 46
-7.7484517 4.0044127 -0.45710227 6
-8.9192257 4.6094704 2.3178957 61
-8.9242477 4.6140394 -0.17536178 32
-8.9261274 4.6169858 2.6927533 28
-1.5467652 0.80245215 -0.46690959 8
-8.911665 4.625288 0.17525707 60
-1.7813798 0.92495811 -0.4633992 7
-8.9053164 4.6239691 0.52587175 56
-2.090662 1.0860121 -0.45794162 100
-8.9155865 4.6332502 0.87905282 47
-2.5711493 1.3367451 -0.4589788 5
-8.9077368 4.6331229 1.2328304 40
-3.2792025 1.7055902 -0.45384148 4
-8.8948784 4.6284051 1.5881228 47
-4.5896029 2.3891962 -0.45268691 7
-8.8996286 4.6348276 1.9504496 46
-7.7315874 4.0282378 -0.45689294 7
-8.9038916 4.6390204 2.3178957 61
-8.8947115 4.6362143 -0.17508255 42
-8.915906 4.6492405 2.6943064 26
-1.5304006 0.8004145 -0.46276847 9
-8.9175406 4.6659403 0.17567593 60
-1.7886621 0.93628246 -0.46609858 7
-8.9068165 4.6642923 0.52691847 61
-2.0887885 1.0938499 -0.45832324 100
-8.8984079 4.6618657 0.87887847 45
-2.5684521 1.3461804 -0.45929164 6
-8.8993549 4.6663241 1.2338053 41
-3.271471 1.7161034 -0.45359772 4
-8.883914 4.6621814 1.5890616 43
-4.5675411 2.396996 -0.45129246 7
-8.8859491 4.6652274 1.9508314 48
-7.7164192 4.0529265 -0.45678827 8
-8.8945427 4.6737008 2.3196952 61
-8.8873243 4.6718869 -0.17525707 39
-8.8893652 4.6749377 2.6912005 30
-1.5258889 0.80485016 -0.46225086 9
-8.8799753 4.6858406 0.17525707 57
-1.7836592 0.94161099 -0.46564871 8
-8.8922472 4.6962852 0.52702314 58
-2.0919015 1.1048013 -0.45984969 100
-8.8838415 4.6938295 0.87905282 47
-2.5497658 1.3477535 -0.45678869 6
-8.8795052 4.6955028 1.2333179 42
-3.2549329 1.721943 -0.45213532 4
-8.8780603 4.6987081 1.5909387 49
-4.5521021 2.4091973 -0.45059517 7
-8.8696108 4.6962152 1.9508314 48
-7.6933999 4.0751629 -0.45626491 7
-8.8902264 4.7111073 2.3228445 57
-8.8762627 4.705689 -0.17536178 42
-8.8764038 4.7077513 2.6922357 30
-1.5384202 0.81833684 -0.46690959 10
-8.8706255 4.7205667 0.17539668 60
-1.7717609 0.94325209 -0.4633992 9
-8.8740377 4.7263579 0.52691847 60
-2.0793684 1.1074823 -0.45794162 100
-8.8779535 4.730433 0.8800987 47
-2.5398164 1.3538575 -0.45585006 5
-8.8578053 4.7236671 1.2325866 37
-3.2524047 1.735164 -0.45262277 5
-8.8703194 4.7343183 1.5925031 47
-4.5471807 2.4269476 -0.4509438 7
-8.8479681 4.7243733 1.9496864 45
-7.6527019 4.0878797 -0.45469484 7
-8.8771677 4.743947 2.3237445 57
-8.8686008 4.7413588 -0.1755363 41
-8.8701382 4.744174 2.6953416 33
-1.538959 0.82552832 -0.46794486 10
-8.864665 4.7571759 0.17560612 60
-1.7701746 0.95035279 -0.46384907 7
-8.8574848 4.7573056 0.52691847 55
-2.0772195 1.1156629 -0.45832324 100
-8.8754272 4.7689381 0.88149315 47
-2.5455148 1.3683267 -0.45772728 6
-8.8412619 4.7545581 1.2325866 40
-3.2463281 1.7465057 -0.45262277 5
-8.8606977 4.7689981 1.5937545 47
-4.5456991 2.4465826 -0.45164105 7
-8.8504381 4.7654686 1.9538842 49
-7.6295943 4.1098299 -0.45417148 5
-8.8502607 4.7693582 2.3210452 57
-8.8590364 4.7760859 -0.17567593 39
-8.8637276 4.7806087 2.6984475 33
-1.5309705 0.82813752 -0.46639192 11
-8.8444881 4.7861876 0.1755363 60
-1.7651327 0.95559835 -0.4633992 7
-8.8355551 4.7853413 0.52660441 53
-2.0733125 1.122907 -0.45832324 100
-8.8552227 4.7979922 0.88114458 47
-2.5407226 1.3772039 -0.45772728 7
-8.8385715 4.7929616 1.2345365 40
-3.2349775 1.7549872 -0.45189157 5
-8.83358 4.7942452 1.5918773 36
-4.5371308 2.4624352 -0.45164105 7
-8.8423767 4.8010178 1.9557924 46
-7.615202 4.1364374 -0.45417148 5
-8.843832 4.8058057 2.3237445 55
-8.8352842 4.8031578 -0.1755363 41
-8.8486814 4.8124423 2.6989651 35
-1.5128065 0.82515144 -0.46173319 11
-8.8365049 4.8218207 0.17571084 46
-1.7686285 0.96548861 -0.46519879 7
-8.8380804 4.826685 0.52775586 55
-2.0607648 1.1254324 -0.45641515 100
-8.8349237 4.8269634 0.88079596 47
-2.5341668 1.3851162 -0.45741442 6
-8.8322372 4.8294988 1.235999 39
-3.2305732 1.7672215 -0.45213532 5
-8.8289204 4.8316894 1.5940675 46
-4.5127778 2.4696498 -0.45007223 6
-8.8221197 4.8299685 1.955029 46
-7.5902061 4.1572375 -0.45354342 5
-8.8372545 4.842268 2.3264439 51
-8.8254786 4.8378148 -0.17567593 41
-8.8335238 4.8442302 2.6994827 39
-1.5082242 0.8294962 -0.46121556 12
-8.8161163 4.8507066 0.17564102 56
-1.7652472 0.97165686 -0.46519879 7
-8.8334246 4.8642502 0.52848852 58
-2.0637026 1.136407 -0.45794162 100
-8.8232565 4.8606558 0.88131887 49
-2.5206661 1.3891872 -0.45585006 5
-8.8274937 4.8670092 1.2377051 41
-3.2295997 1.7813631 -0.45286649 4
-8.8137302 4.8634329 1.5943803 46
-4.4988966 2.4824996 -0.44954932 7
-8.8069239 4.8616824 1.9554106 38
-7.568656 4.1798434 -0.45312473 5
-8.8271217 4.8768535 2.3282435 48
-8.8155375 4.8724608 -0.17581554 39
-8.8165588 4.8750377 2.6994827 40
-1.5188355 0.84225053 -0.46535668 11
-8.8061247 4.8853316 0.17578064 56
-1.7516212 0.97213888 -0.46249935 7
-8.8128996 4.8931141 0.52827919 53
-2.06144 1.1445564 -0.45832324 6
-8.8062363 4.8914251 0.88131887 42
-2.5106215 1.3950993 -0.4549115 6
-8.7983065 4.8910398 1.235999 38
-3.2181571 1.7897321 -0.45213532 4
-8.8105097 4.9018526 1.5968832 46
-4.4936852 2.5001261 -0.44989792 7
-8.7967634 4.8962126 1.9569372 49
-7.5278435 4.1916647 -0.45155466 5
-8.8185577 4.9123783 2.330493 53
-8.8054638 4.9070954 -0.17595516 41
-8.8129873 4.9133072 2.7036238 42
-1.5192586 0.84943271 -0.46639192 12
-8.7959976 4.9199481 0.17592026 53
-1.749918 0.97919852 -0.46294928 7
-8.7957659 4.9238467 0.52827919 58
-2.0625715 1.1546222 -0.4594681 100
-8.8117056 4.934793 0.88358492 47
-2.5126297 1.4077158 -0.45616296 6
-8.7881069 4.9256048 1.236974 39
-3.2032325 1.7961005 -0.45091662 4
-8.7985144 4.9354744 1.5978218 45
-4.4849315 2.5157957 -0.44989792 7
-8.783042 4.9288106 1.9577004 49
-7.5062003 4.2140059 -0.45113602 5
-8.7962599 4.9402661 2.329143 42
-8.7987404 4.9436822 -0.1761646 44
-8.8092556 4.9516134 2.7077651 42
-1.5129186 0.85283351 -0.46535668 9
-8.7787714 4.9506202 0.17592026 27
-1.7498838 0.987216 -0.46384907 8
-2.0448501 1.1540958 -0.45641515 100
-8.787487 4.9616013 0.8828876 40
-2.5128608 1.4193927 -0.45710155 6
-8.7777719 4.9601598 1.2379489 39
-3.1952159 1.8062932 -0.45067286 4
-8.7777939 4.9642124 1.597196 44
-4.4726543 2.5294745 -0.44954932 7
-8.7794523 4.967176 1.9607532 49
-7.4914451 4.2401819 -0.45113602 5
-8.7857447 4.9747815 2.3309429 48
-8.7640295 4.964509 -0.17581554 36
-8.7885551 4.9804282 2.7067297 42
-1.4981753 0.85142773 -0.46173319 8
-1.748121 0.99428183 -0.46429899 9
-7.783854 4.4290342 0.46934891 16
-2.0408094 1.1612262 -0.45641515 100
-8.7718468 4.9932313 0.88306201 45
-2.5078907 1.4281555 -0.45710155 6
-8.7724791 4.9976463 1.2396551 41
-3.1906159 1.8184187 -0.45091662 4
-8.7655602 4.9977603 1.5981348 46
-4.4534121 2.5391517 -0.44850346 7
-8.7688818 5.0016828 1.9622798 41
-7.4731288 4.2643242 -0.45092663 5
-8.7767868 5.010252 2.3331923 42
-8.7744741 5.012991 2.7077651 42
-1.5035752 0.86145407 -0.46432137 8
-1.742949 0.99940842 -0.46384907 9
-2.0401495 1.1702965 -0.45717838 100
-8.7630033 5.0287781 0.88393348 47
-2.4960375 1.4329671 -0.45585006 6
-8.7532587 5.0272489 1.2394112 38
-3.1928549 1.8344896 -0.45213532 4
-8.7566242 5.0332499 1.599699 45
-4.4479756 2.5566673 -0.44885206 7
-8.7462645 5.0293236 1.961135 46
-7.4478106 4.2844095 -0.45029861 6
-8.7659988 5.0447464 2.3349919 40
-7.3687487 4.242352 -0.14841527 4
-8.7535715 5.0416627 2.7067297 42
-1.500559 0.86669731 -0.46432137 8
-7.8468785 4.5340471 0.15818861 1
-1.7343882 1.0025607 -0.46249935 8
-7.725081 4.4672709 0.46767417 12
-2.0479486 1.1842906 -0.45984969 6
-8.7419481 5.0573392 0.88358492 24
-2.4790523 1.4347448 -0.45366001 6
-8.7390938 5.059763 1.2398988 39
-3.1795604 1.8416448 -0.45116034 4
-8.7526751 5.0717063 1.6022019 44
-4.4390244 2.5721769 -0.44885206 7
-8.7354488 5.0637612 1.9626614 45
-7.4138041 4.2993617 -0.44914722 6
-8.7550802 5.0792246 2.3367915 34
-7.6721253 4.4527426 -0.15483776 2
-8.7526274 5.0818882 2.7119062 39
-1.5058722 0.87678993 -0.46690959 8
-7.1432843 4.1608295 0.1442965 6
-1.7275106 1.0066464 -0.46159956 7
-7.707715 4.4932008 0.46756947 3
-2.0438025 1.1914316 -0.45984969 7
-7.1046882 4.1433311 0.71955782 35
-2.4825602 1.4483668 -0.45522434 6
-8.7248068 5.092236 1.2403862 38
-3.1645415 1.8477268 -0.44994166 4
-8.7349176 5.1022282 1.6022019 42
-4.4334598 2.5896664 -0.44920069 7
-8.7211103 5.0962048 1.9634248 46
-7.3815093 4.3151331 -0.44810051 6
-8.7389793 5.1107383 2.3372414 42
-7.3441281 4.2967234 -0.14851998 3
-8.7515078 5.1221662 2.7170823 39
-1.5044686 0.88301897 -0.46742722 8
-7.0700874 4.1513138 0.14310974 3
-1.7290275 1.0156312 -0.46294928 7
-2.0277824 1.1915966 -0.45717838 6
-7.1382737 4.1963778 0.72443849 46
-2.4843006 1.4610289 -0.45647582 6
-8.720665 5.1307154 1.2423362 39
-3.1546507 1.8567483 -0.44945419 5
-8.7136507 5.1306839 1.6015763 44
-4.4243932 2.6051266 -0.44920069 7
-8.7201843 5.1365805 1.9672408 46
-7.3629608 4.3388457 -0.44789118 6
-8.7261229 5.1441817 2.3385913 40
-7.2033458 4.2481756 -0.14597192 9
-8.7319098 5.1517015 2.7165647 39
-1.4830875 0.87744504 -0.46173319 8
-6.9505806 4.1138353 0.14098054 4
-1.7271484 1.0226532 -0.4633992 7
-2.0219214 1.1976671 -0.45679674 100
-7.1132989 4.2151737 0.72339261 48
-2.4774864 1.4686844 -0.45616296 6
-8.714654 5.1682134 1.2440423 32
-3.1515646 1.8697743 -0.44994166 5
-8.6990852 5.163085 1.6022019 44
-4.4015656 2.6124191 -0.44780618 7
-8.7089539 5.1709976 1.9687674 42
-7.3494873 4.365541 -0.44799584 6
-8.7097874 5.1756058 2.3390412 44
-7.35005 4.3693466 -0.14925298 8
-8.7155352 5.1831384 2.7170823 39
-1.4816751 0.88360596 -0.46225086 8
-6.8932462 4.1124597 0.14010793 3
-1.7252413 1.0296751 -0.46384907 7
-2.0210996 1.2067305 -0.45755997 6
-7.1053839 4.2440658 0.72408992 44
-2.453691 1.4661784 -0.45272139 6
-8.6948566 5.1975837 1.2437986 35
-3.1552415 1.8868766 -0.45140409 4
-8.6945705 5.2015324 1.604705 43
-4.3821611 2.6216309 -0.44676036 7
-8.6807423 5.1953173 1.9664776 46
-7.3187828 4.3819337 -0.44705379 6
-8.7016993 5.2119861 2.3417406 46
-7.3381848 4.3970327 -0.14932279 7
-8.7007036 5.2155166 2.7181177 33
-1.4901719 0.89573938 -0.46587428 8
-6.851429 4.120008 0.13954943 1
-1.7099475 1.0286592 -0.46069977 7
-6.8262429 4.108108 0.41753629 1
-2.0303323 1.2218763 -0.46061292 6
-7.1110086 4.2811737 0.72618169 52
-2.4502506 1.4757538 -0.45303425 6
-8.674962 5.2268758 1.2435548 34
-3.1401348 1.892756 -0.45018539 5
-8.6898937 5.2400107 1.6072079 37
-4.3798079 2.6410267 -0.44745758 7
-8.6692801 5.2296414 1.968004 44
-7.2897606 4.3992 -0.44621637 6
-8.7001352 5.2523999 2.3462396 46
-7.1670251 4.3285432 -0.14614646 15
-8.6758308 5.2418599 2.716047 38
-1.4837316 0.89893353 -0.46483904 8
-1.7063465 1.0346215 -0.46069977 7
-6.7579317 4.0975857 0.41418681 1
-2.0193408 1.2248836 -0.45908648 7
-7.1079431 4.3132067 0.72740185 54
-2.451839 1.4883975 -0.45428574 6
-8.6600571 5.2591867 1.2440423 34
-3.1233292 1.8975214 -0.44872296 5
-8.6775341 5.2718763 1.6081465 45
-4.379076 2.6614723 -0.44832912 8
-8.6643925 5.2680311 1.9710571 42
-7.2538838 4.4121652 -0.44496036 7
-8.6800842 5.2817225 2.3457897 53
-7.0706334 4.3023915 -0.14447103 21
-8.6831522 5.2856684 2.7238116 37
-1.4904773 0.91014773 -0.46794486 8
-6.7396011 4.1154819 0.13783911 22
-1.7112213 1.0453538 -0.46294928 7
-6.743587 4.1211505 0.41418681 1
-2.0117023 1.2298772 -0.45832324 7
-7.0894451 4.3359108 0.72705317 67
-2.448575 1.4975507 -0.45459861 5
-8.652729 5.2940922 1.2455047 31
-3.1153262 1.906832 -0.44847921 5
-8.654026 5.2990379 1.6072079 41
-4.3578658 2.6694565 -0.44710895 7
-8.6619425 5.305964 1.9744916 41
-7.251133 4.4435005 -0.44569308 8
-8.660861 5.3094597 2.3453398 61
-7.0112505 4.2998648 -0.14356351 16
-8.669589 5.3189778 2.7253647 40
-1.4742877 0.90698731 -0.46380374 8
-6.7609568 4.1609945 0.13857211 22
-1.7092212 1.0523423 -0.4633992 7
-6.7529683 4.1593294 0.41565222 1
-2.0009265 1.2324227 -0.45679674 100
-7.0631542 4.3520808 0.725833 77
-2.4534221 1.5123079 -0.45647582 5
-8.6460238 5.3315573 1.247211 32
-3.1170993 1.9229053 -0.44969791 5
-8.6354761 5.3292146 1.6072079 41
-4.3472943 2.6828473 -0.44693464 6
-8.6467066 5.338232 1.9752548 40
-7.2270818 4.4635353 -0.44516969 8
-8.6571941 5.3488779 2.3493888 59
-7.1033597 4.3905516 -0.1457625 14
-8.6476851 5.3471746 2.7243295 32
-1.4711127 0.91212809 -0.46380374 8
-6.7429914 4.1824608 0.1385023 24
-1.7055374 1.0583024 -0.4633992 7
-6.7621651 4.1976228 0.4171176 1
-1.9966123 1.2393997 -0.45679674 100
-7.0479193 4.3767095 0.725833 77
-2.4313486 1.5104389 -0.45334715 5
-8.6324186 5.3648486 1.2479422 33
-3.1120539 1.9348226 -0.44994166 5
-8.628562 5.3666277 1.6093979 35
-4.3328271 2.6948488 -0.4464117 8
-8.6280212 5.3683805 1.9752548 40
-7.1978922 4.4802923 -0.44433233 5
-8.6517038 5.3873053 2.352988 61
-6.9080763 4.3032441 -0.14206259 7
-8.6289673 5.3773284 2.7243295 38
-1.4662813 0.91623425 -0.4632861 8
-6.7266555 4.2049136 0.1384674 27
-1.6853105 1.0539166 -0.45890018 7
-6.7339253 4.2127275 0.41628024 3
-1.9939382 1.247403 -0.45717838 100
-7.0157099 4.3907151 0.72408992 27
-2.4243875 1.5178678 -0.45303425 6
-8.6119566 5.3938951 1.2476985 32
-3.1069634 1.946728 -0.45018539 5
-8.6298618 5.4093041 1.6131524 45
-4.3233938 2.7099569 -0.4464117 7
-8.60923 5.3984652 1.9752548 39
-7.1635981 4.4937158 -0.44318092 6
-8.6344976 5.418509 2.3534379 42
-6.7880092 4.2614117 -0.13989849 7
-8.626503 5.4176898 2.7295058 40
-1.4728824 0.92752361 -0.46639192 8
-6.7254729 4.2368937 0.13874663 40
-1.6783236 1.0577152 -0.45800033 7
-6.7039738 4.2266216 0.41533819 4
-1.9895718 1.2543557 -0.45717838 100
-6.9885459 4.4077363 0.72286975 34
-2.422415 1.5284301 -0.45366001 6
-8.5947552 5.4249835 1.2479422 36
-3.0883999 1.9501417 -0.44847921 5
-8.6059179 5.4362316 1.6122139 45
-4.3273835 2.7335443 -0.44780618 7
-8.5986319 5.4337287 1.977163 45
-6.8659391 4.3404641 -0.42570072 5
-8.607295 5.4434085 2.3511884 70
-6.7004266 4.2391076 -0.13839759 5
-8.6205978 5.4560347 2.7336469 45
-1.4598492 0.92644823 -0.4632861 8
-6.7106423 4.260345 0.13874663 50
-1.6877815 1.0719254 -0.46159956 7
-6.6891804 4.2499957 0.41533819 6
-1.9802103 1.258134 -0.45603353 100
-8.6091995 5.4720001 0.89247483 43
-2.423733 1.5411166 -0.4549115 6
-8.592515 5.4656038 1.2503796 41
-3.0798986 1.9598455 -0.44823548 6
-8.5868893 5.4662385 1.6122139 49
-4.3178153 2.7486331 -0.44780618 7
-8.5961742 5.4742546 1.9809792 46
-6.7985263 4.3311386 -0.42245588 3
-8.6030312 5.4828467 2.3552375 74
-6.6855898 4.2624693 -0.13839759 5
-8.6014996 5.4860926 2.7336469 45
-1.4500965 0.92737514 -0.46121556 8
-6.7024665 4.2880554 0.13888624 50
-1.6840296 1.0778099 -0.46159956 7
-6.7045808 4.2927046 0.41722229 6
-1.969193 1.2608043 -0.45450708 100
-8.5883684 5.5009437 0.89230049 56
-2.420002 1.5506325 -0.45522434 5
-8.5867538 5.5041342 1.2523295 41
-3.076381 1.9727277 -0.44872296 6
-8.5677567 5.4961777 1.6122139 49
-4.2847176 2.7486269 -0.44536582 7
-8.5770111 5.5042295 1.9809792 46
-6.7833662 4.3548441 -0.42245588 4
-8.592041 5.5181069 2.357487 76
-6.8725553 4.4154902 -0.14258616 15
-8.5790472 5.5139956 2.7326117 45
-1.4468504 0.93243128 -0.46121556 8
-6.6824164 4.3081732 0.13878153 39
-1.680257 1.0836818 -0.46159956 7
-8.5725651 5.5309973 0.53466421 25
-1.968079 1.2697996 -0.45527029 100
-8.5607452 5.525485 0.89142895 49
-2.3996391 1.549427 -0.45240852 5
-8.5674877 5.5340767 1.2523295 42
-3.0778127 1.9888405 -0.44994166 7
-8.5651093 5.5367751 1.6153424 51
-4.2717505 2.7614036 -0.44501722 7
-8.5544481 5.5320034 1.9802158 46
-7.0431428 4.5564113 -0.43962207 5
-8.5923586 5.560771 2.362886 64
-7.1441422 4.6252913 -0.14855488 11
-8.7024384 5.6363225 2.7781637 33
-1.4516878 0.94273692 -0.46380374 9
-6.6740451 4.3358312 0.13892116 22
-1.6715621 1.0863546 -0.46024984 8
-8.5666027 5.5695944 0.53550154 56
-1.9718646 1.2820119 -0.45717838 100
-8.5514278 5.561852 0.89247483 42
-2.3909044 1.5556391 -0.45178279 4
-8.6429501 5.6256723 1.2662226 40
-3.0592072 1.9919896 -0.44823548 7
-8.7509708 5.7003355 1.6541382 77
-4.2687621 2.7806487 -0.44571447 7
-8.7505608 5.7022405 2.0302079 53
-7.0439258 4.5918756 -0.44066879 6
-8.7883587 5.731246 2.4222729 95
-6.7561493 4.4076376 -0.14080602 17
-8.7927217 5.7384629 2.8133633 43
-1.4564706 0.95308757 -0.46639192 8
-6.6772738 4.3711495 0.13930511 11
-1.6612388 1.0879124 -0.45845026 7
-8.7576122 5.7373714 0.5486902 82
-1.9690195 1.289963 -0.45755997 100
-8.7735882 5.7500262 0.91774994 70
-2.3937197 1.5693911 -0.45334715 5
-8.7510748 5.7396383 1.2849904 48
-3.040617 1.9950333 -0.44652933 7
-8.7657003 5.7536082 1.6607084 81
-4.2590303 2.7955317 -0.44571447 7
-8.7568607 5.7499933 2.0363138 53
-7.0178375 4.6098561 -0.44004074 6
-8.7634134 5.7586775 2.4209232 95
-6.757431 4.4421782 -0.14115506 18
-8.7758627 5.7712455 2.8143985 45
-1.4499093 0.95603901 -0.46535668 8
-6.9006786 4.5518847 0.1442965 6
-1.6655638 1.0990711 -0.46069977 7
-8.7525339 5.7778091 0.54963231 91
-1.9481201 1.2860124 -0.45374379 100
-8.7601128 5.785008 0.91844714 70
-2.3964679 1.5831815 -0.4549115 4
-8.7541714 5.7854738 1.2884028 48
-3.0352902 2.0067296 -0.44677305 7
-8.7422676 5.7819915 1.6600827 78
-4.2525697 2.8125794 -0.44606307 8
-8.7465601 5.7870255 2.0386035 53
-7.0083652 4.6387372 -0.44045946 6
-8.7448845 5.7903066 2.4213731 93
-8.7621059 5.8061123 2.816469 54
-1.4336908 0.95254135 -0.46121556 10
-8.7832975 5.8378181 0.18408798 1
-1.6649626 1.1070365 -0.46159956 7
-8.7472792 5.8182793 0.5505743 87
-1.9485236 1.2960663 -0.45488867 100
-8.7382078 5.8144484 0.91827285 67
-2.3925712 1.5926316 -0.45522434 5
-8.7438374 5.8225956 1.2898653 47
-3.0315711 2.0195136 -0.44726053 7
-8.7318945 5.819046 1.66196 75
-4.2356009 2.8237276 -0.44536582 8
-8.736105 5.8240571 2.0408931 51
-6.9921312 4.6631703 -0.44045946 6
-8.7456932 5.8348565 2.427222 95
-7.5312753 5.0265365 -0.158049 14
-8.7498198 5.8420238 2.819057 61
-1.4301897 0.95779008 -0.46121556 14
-1.6659455 1.1160952 -0.46294928 7
-8.733552 5.8532281 0.55099303 81
-1.9519132 1.3086662 -0.45679674 100
-8.7234583 5.8508739 0.91897017 67
-2.3670335 1.5881829 -0.45146993 5
-8.7267551 5.8552961 1.2903527 48
-3.0327439 2.0356152 -0.44847921 7
-8.718091 5.8538938 1.6632115 75
-4.2191033 2.8340509 -0.44466859 8
-8.711442 5.8538451 2.0401299 53
-6.9600763 4.6787372 -0.43951741 7
-8.7371855 5.8755717 2.4308212 95
-7.4655614 5.0204315 -0.15703675 15
-8.7357855 5.8768449 2.8211277 59
-1.4236351 0.96061516 -0.46018028 12
-8.7164373 5.8837366 0.18356441 68
-1.6521531 1.1156505 -0.46024984 7
-8.7196875 5.8881488 0.55141169 81
-1.950587 1.3176693 -0.45755997 6
-8.711235 5.8868666 0.91984171 64
-2.3582022 1.594223 -0.4508442 5
-8.7085257 5.8894649 1.2908403 49
-3.0256205 2.0461884 -0.44847921 7
-8.7090549 5.8920403 1.6654016 68
-4.2141352 2.8521111 -0.44519153 8
-8.6990843 5.8897223 2.042038 56
-6.9238563 4.6895652 -0.43826136 7
-8.7224932 5.9077916 2.4321706 90
-7.4595799 5.0543127 -0.15728109 17
-8.7216148 5.9116383 2.8231983 66
-1.4316263 0.97293192 -0.46380374 8
-8.7018385 5.9159822 0.18366912 64
-1.6436104 1.1178355 -0.45890018 7
-8.7001133 5.9170322 0.55141169 81
-1.9397143 1.3197131 -0.45603353 100
-8.7015486 5.9224486 0.92088759 64
-2.3626993 1.6087048 -0.45272139 5
-8.6922283 5.9205456 1.2913277 47
-3.0106151 2.0506229 -0.44726053 9
-8.6927338 5.9231114 1.6660273 70
-4.2046537 2.8660703 -0.44519153 8
-8.692481 5.9273853 2.0450909 56
-6.9016685 4.7079964 -0.43784264 8
-8.6980267 5.9333882 2.4308212 73
-7.4460816 5.0812769 -0.1573509 14
-8.7147264 5.9492416 2.8273394 66
-1.4236096 0.9744007 -0.46225086 7
-8.6871233 5.9481959 0.18377385 41
-1.649541 1.129887 -0.46159956 7
-8.685998 5.9518795 0.55183041 68
-1.922371 1.3172604 -0.45298058 100
-8.6867905 5.9546509 0.9214105 62
-2.3589809 1.6176484 -0.45303425 4
-8.6856422 5.9583216 1.2932776 48
-3.0018022 2.0599966 -0.44701681 7
-8.6752605 5.955657 1.6666529 66
-4.1967688 2.8811255 -0.44536582 8
-8.6824875 5.9628472 2.0473807 56
-6.8728485 4.7218103 -0.43700528 8
-8.6933203 5.9747539 2.4353201 78
-7.4332423 5.1106362 -0.15745561 4
-8.7002735 5.9840021 2.8294098 61
-1.418609 0.97826731 -0.46173319 9
-1.6520025 1.1400656 -0.4633992 7
-1.9258392 1.3295397 -0.45488867 100
-8.6708698 5.9883337 0.92193341 50
-2.3484442 1.6225044 -0.45209566 5
-8.6762228 5.9965043 1.2949837 45
-2.9962256 2.0715911 -0.44726053 9
-8.6592932 5.9892745 1.6675917 53
-4.1719384 2.8855572 -0.44379702 8
-8.6664648 5.9964681 2.0485253 34
-7.4613857 5.1684332 -0.15843295 0
-1.4088396 0.97880423 -0.45966265 9
-1.6416128 1.1413753 -0.46159956 7
-1.9260218 1.3396171 -0.45603353 100
-2.3346601 1.6250491 -0.4505313 5
-2.9971199 2.0877111 -0.44847921 10
-4.1569376 2.8966842 -0.44327411 10
-3.2572603 2.2722955 0.91690052 2
-1.5135857 1.0562844 -0.032217141 1
-3.2298284 2.2548363 1.055464 9
-1.4117451 0.98814678 -0.46173319 8
-1.4840775 1.0391622 0.031623758 1
-1.6296378 1.1415087 -0.45935005 6
-1.6536515 1.1587589 0.10582332 1
-1.9293733 1.3519647 -0.45794162 6
-2.3338256 1.6365913 -0.45146993 5
-3.2355714 2.2697804 0.48528376 6
-2.9816902 2.0924582 -0.44726053 9
-3.228647 2.2666059 0.62479931 9
-3.2858057 2.3067329 -0.35123762 1
-3.2180796 2.2600269 0.76438087 9
-1.6146464 1.1343713 -0.10341586 2
-3.2317708 2.2713258 0.9119516 10
-1.5115249 1.0627118 -0.032252047 8
-3.1919155 2.2449799 1.0456289 10
-1.4130234 0.99640912 -0.4632861 7
-1.4886115 1.0500997 0.031798285 20
-1.6256437 1.1471899 -0.45935005 6
-1.62349 1.146095 0.10414857 8
-1.9182264 1.3541628 -0.45641515 100
-1.6518815 1.1665699 0.17692617 2
-2.3313255 1.6470069 -0.45209566 5
-3.1919634 2.2558565 0.47992152 6
-2.9743679 2.1028538 -0.44726053 10
-3.1803961 2.2493463 0.61697763 10
-3.2273068 2.2825241 -0.34583399 9
-3.1701045 2.2428977 0.75484043 10
-1.6041559 1.1353852 -0.10299717 20
-3.1761093 2.2488103 0.89845449 11
-1.5175974 1.0749162 -0.032461476 47
-3.1462293 2.2293029 1.0332056 10
-1.4111116 1.0024543 -0.46380374 7
-1.4767869 1.0494972 0.031623758 43
-1.6232177 1.1539866 -0.45979998 6
-1.9054884 1.3551613 -0.45450708 100
-1.6266946 1.1573139 0.17466012 7
-2.3319993 1.6597171 -0.45334715 5
-3.1484935 2.2416556 0.47455928 5
-2.960542 2.1086168 -0.44628558 9
-3.1323054 2.2317777 0.60915589 9
