# .PCD v0.7 - Point Cloud Data file format
VERSION 0.7
FIELDS x y z rgba
SIZE 4 4 4 4
TYPE F F F U
COUNT 1 1 1 1
WIDTH 1371
HEIGHT 1
VIEWPOINT 0 0 0 1 0 0 0
POINTS 1371
DATA ascii
2.6524887 -0.98856008 0.44834125 0
2.6305358 -0.99084991 0.44521254 0
2.6234066 -0.98868734 0.54495054 0
2.6049073 -0.991593 0.44145811 0
2.6144354 -0.9957425 0.54380566 0
2.6051178 -1.0020982 0.44208387 0
2.5999503 -1.0006315 0.54151595 0
2.6163335 -1.0169108 0.44458681 0
2.57248 -1.0008997 0.53655493 0
2.6239502 -1.0299001 0.34610897 0
2.6033957 -1.0228813 0.44302243 0
2.5799334 -1.0141827 0.53884465 0
2.6092672 -1.0346626 0.34464651 0
2.5851212 -1.0261323 0.44051951 0
2.5763776 -1.0231822 0.53884465 0
2.6019545 -1.0422882 0.34415907 0
2.5743699 -1.0317599 0.43926802 0
2.5600357 -1.0270522 0.53617334 0
2.5948031 -1.0494223 0.34367159 0
2.5744147 -1.0422223 0.43989375 0
2.5493369 -1.0325878 0.53464681 0
2.6323795 -1.0742542 0.24874248 0
2.5819359 -1.0547199 0.34245288 0
2.5709445 -1.0507536 0.43989375 0
2.5366318 -1.0377635 0.53273875 0
2.5692482 -1.0594922 0.34123421 0
2.569087 -1.0604753 0.44020665 0
2.5404348 -1.049167 0.53426522 0
2.5900555 -1.0776057 0.24543057 0
2.5728641 -1.0715069 0.34220913 0
2.5453134 -1.0610756 0.43676507 0
2.540381 -1.0595399 0.53502846 0
2.5789306 -1.083553 0.24473332 0
2.5691082 -1.0804812 0.34220913 0
2.5397735 -1.0691876 0.43645221 0
2.5258112 -1.0638288 0.53273875 0
2.5696304 -1.090214 0.24421038 0
2.5616667 -1.0878907 0.34172165 0
2.5342076 -1.0772736 0.43613935 0
2.5112426 -1.0680288 0.53044903 0
2.5869603 -1.1077039 0.14748274 0
2.5619547 -1.0980551 0.24386176 0
2.5432582 -1.0905674 0.33977175 0
2.5395081 -1.0900089 0.43770367 0
2.5109186 -1.0787758 0.53121227 0
2.5709057 -1.1125302 0.24508193 0
2.5374224 -1.0990924 0.33952799 0
2.5282466 -1.0961661 0.43645221 0
2.5107398 -1.0890964 0.53197551 0
2.4846509 -1.0788103 0.62536395 0
2.5698161 -1.122191 0.14695938 0
2.5615294 -1.1191047 0.24455902 0
2.5372081 -1.1095338 0.3400155 0
2.5081182 -1.0978557 0.43363637 0
2.5051246 -1.0970664 0.53159386 0
2.4773002 -1.085912 0.62446409 0
2.5605974 -1.1282904 0.14664535 0
2.5430238 -1.1216071 0.24316452 0
2.5351357 -1.1191853 0.34025922 0
2.5080779 -1.1077632 0.4342621 0
2.4958932 -1.1034229 0.53044903 0
2.4645844 -1.0906098 0.62221462 0
2.5875702 -1.1498965 0.049425215 0
2.5621181 -1.139657 0.14695938 0
2.5354526 -1.1288563 0.24281588 0
2.5259702 -1.1251627 0.33952799 0
2.5005872 -1.1149024 0.43363637 0
2.4850483 -1.1084942 0.52892256 0
2.4662924 -1.1011602 0.6235643 0
2.554348 -1.1458267 0.048866738 0
2.5528581 -1.1456937 0.14664535 0
2.5316954 -1.1372578 0.24281588 0
2.5093539 -1.1282747 0.33782184 0
2.5040824 -1.12643 0.43488789 0
2.4740033 -1.1139379 0.52739608 0
2.4730937 -1.1145667 0.62626374 0
2.556 -1.1567645 0.048971456 0
2.5379276 -1.1496531 0.14601734 0
2.5295248 -1.146911 0.24299021 0
2.5037906 -1.13577 0.33757812 0
2.4929404 -1.1318973 0.43363637 0
2.4774456 -1.1253836 0.52892256 0
2.464062 -1.1203418 0.62491405 0
2.5592222 -1.1690029 0.049111072 0
2.530266 -1.1568441 0.14580798 0
2.5257077 -1.155293 0.24299021 0
2.4998109 -1.1445029 0.33757812 0
2.4710164 -1.1323631 0.43050769 0
2.4735022 -1.1340246 0.52892256 0
2.4636786 -1.1305617 0.62581384 0
2.5514939 -1.1762547 0.049041264 0
2.5243995 -1.1648326 0.14570332 0
2.5144241 -1.160762 0.24229297 0
2.4976027 -1.1540544 0.33782184 0
2.4670486 -1.1409817 0.43050769 0
2.4624016 -1.1393542 0.52739608 0
2.4508755 -1.1350601 0.6235643 0
2.5456023 -1.1794697 -0.048971456 0
2.5274284 -1.1758751 0.048657309 0
2.5257497 -1.1761667 0.14601734 0
2.5031326 -1.1661662 0.24159572 0
2.4881616 -1.1602489 0.33709061 0
2.470211 -1.1529282 0.43175918 0
2.4477363 -1.1429588 0.52510637 0
2.4539604 -1.1469086 0.62536395 0
2.5432808 -1.1891953 -0.049006358 0
2.5214982 -1.1838404 0.048622403 0
2.5198209 -1.1841266 0.14591266 0
2.4990466 -1.1748967 0.24159572 0
2.4751158 -1.1647009 0.33587193 0
2.4625974 -1.1598604 0.43113342 0
2.4295239 -1.1448013 0.52205342 0
2.4428916 -1.1521425 0.6235643 0
2.5445399 -1.2006258 -0.049111072 0
2.5155435 -1.191779 0.048587501 0
2.4976258 -1.1843576 0.14486594 0
2.4931302 -1.1827589 0.24142142 0
2.4656556 -1.1707795 0.33514073 0
2.4585335 -1.1684494 0.43113342 0
2.4255128 -1.1532749 0.52205342 0
2.4230185 -1.153126 0.61951524 0
2.5258894 -1.2026235 -0.048831832 0
2.5131721 -1.2014148 0.048622403 0
2.4880714 -1.1904826 0.14455192 0
2.4853921 -1.1897337 0.24107277 0
2.4651341 -1.1810944 0.33562821 0
2.4401908 -1.1701909 0.4286305 0
2.4320931 -1.1668299 0.52434313 0
2.4207351 -1.1624205 0.61996508 0
2.5126636 -1.2071035 -0.048657309 0
2.5017588 -1.2067052 0.048482787 0
2.4823112 -1.197859 0.14444725 0
2.4668717 -1.1914701 0.23967829 0
2.4627836 -1.190556 0.33587193 0
2.4380751 -1.1791365 0.42894334 0
2.4244711 -1.1736016 0.5235799 0
2.5525389 -1.2361447 -0.14863414 0
2.4114017 -1.1683143 0.61861545 0
2.5050478 -1.2136854 -0.048587501 0
2.4887524 -1.210621 0.048308261 0
2.4924808 -1.2135108 0.14528462 0
2.4609063 -1.199201 0.23950398 0
2.4588218 -1.1987164 0.33587193 0
2.432169 -1.1867737 0.4286305 0
2.4029233 -1.1730224 0.51976377 0
2.5358629 -1.2384671 -0.14790143 0
2.4180195 -1.1814373 0.62131482 0
2.4989994 -1.2215441 -0.048552595 0
2.4827158 -1.21842 0.048273355 0
2.4828515 -1.2195622 0.14497061 0
2.4587045 -1.2082338 0.23967829 0
2.438591 -1.1994069 0.33367831 0
2.4280117 -1.1952562 0.4286305 0
2.3952913 -1.1796683 0.51900047 0
2.5082338 -1.2358358 -0.1465407 0
2.4068892 -1.1864243 0.61951524 0
2.498307 -1.2320286 -0.048622403 0
2.4748638 -1.2253044 0.048203547 0
2.4606836 -1.2193534 0.14392389 0
2.4526868 -1.215924 0.23950398 0
2.4272764 -1.2043825 0.33270332 0
2.4202857 -1.201967 0.42800474 0
2.4052246 -1.1950105 0.52205342 0
2.4931736 -1.2392496 -0.14591266 0
2.3870289 -1.1870092 0.61546606 0
2.4922009 -1.2398511 -0.048587501 0
2.4813054 -1.2392968 0.048412975 0
2.4564123 -1.2279354 0.14392389 0
2.4466453 -1.2235868 0.23932965 0
2.4283831 -1.2155136 0.33343455 0
2.405479 -1.2050991 0.42612755 0
2.5419834 -1.2734853 -0.24874248 0
2.4115698 -1.2086773 0.52434313 0
2.4959741 -1.2515258 -0.14633135 0
2.3863549 -1.1970819 0.61636591 0
2.4735599 -1.2413675 -0.048308261 0
2.4662492 -1.2425522 0.048203547 0
2.4556775 -1.2383009 0.14413324 0
2.4352441 -1.2285302 0.23863243 0
2.4312134 -1.2275617 0.33440951 0
2.6560261 -1.3416553 -0.36536431 0
2.3977315 -1.2117066 0.42550179 0
2.4912889 -1.2589864 -0.24421038 0
2.3933194 -1.2100013 0.52129018 0
2.4880257 -1.2584279 -0.14612199 0
2.3821616 -1.2054046 0.61636591 0
2.4638591 -1.2472847 -0.048203547 0
2.4529834 -1.2466235 0.048029024 0
2.4531205 -1.2477708 0.14423791 0
2.4202867 -1.2316017 0.23758654 0
2.4127624 -1.2288336 0.3324596 0
2.6477892 -1.3491161 -0.36487687 0
2.397007 -1.2218632 0.42612755 0
2.4833288 -1.2658652 -0.24386176 0
2.3750896 -1.2112129 0.51823723 0
2.4818387 -1.2661972 -0.14601734 0
2.3831465 -1.2163702 0.6177156 0
2.461271 -1.2567871 -0.048238453 0
2.441499 -1.2515297 0.047889404 0
2.4469728 -1.2554145 0.14413324 0
2.4195178 -1.2418622 0.23793517 0
2.4013956 -1.2336198 0.33148462 0
2.6412983 -1.3574429 -0.36463311 0
2.3927274 -1.2302228 0.42612755 0
2.4806671 -1.275437 -0.24403608 0
2.3691013 -1.2185982 0.51785564 0
2.4596446 -1.265714 -0.14497061 0
2.3754208 -1.2228976 0.61681581 0
2.4622028 -1.2681177 -0.048343167 0
2.435339 -1.2591262 0.047854498 0
2.4286044 -1.2561812 0.14329587 0
2.4240148 -1.2548802 0.23880674 0
2.3970747 -1.2419947 0.33148462 0
2.6136327 -1.3547784 -0.3614645 0
2.3851271 -1.2363324 0.42550179 0
2.4691248 -1.2804193 -0.24333882 0
2.3683186 -1.2286687 0.51861888 0
2.4587569 -1.2761323 -0.14517996 0
2.3590314 -1.2248958 0.61366647 0
2.457984 -1.2762756 -0.048343167 0
2.43647 -1.2699679 0.047959212 0
2.4224339 -1.2637273 0.14319119 0
2.4125552 -1.2596453 0.23810948 0
2.3929429 -1.2499369 0.33148462 0
2.5193985 -1.3165499 -0.34903383 0
2.3667924 -1.2373291 0.42299888 0
2.4628747 -1.2881072 -0.24316452 0
2.3642311 -1.2365155 0.51861888 0
2.4527419 -1.2833529 -0.14507528 0
2.3549564 -1.2327119 0.61366647 0
2.4357989 -1.275571 -0.047994118 0
2.3683453 -1.2407738 0.71641117 0
2.4302521 -1.2775345 0.047924306 0
2.4215431 -1.2740355 0.14340053 0
2.4048388 -1.2657828 0.23776087 0
2.3920782 -1.2601327 0.33197212 0
2.4498105 -1.2910922 -0.3400155 0
2.3624589 -1.2455832 0.42299888 0
2.4480152 -1.2906919 -0.24211864 0
2.3581638 -1.2438449 0.51823723 0
2.4588459 -1.2974993 -0.14570332 0
2.3523624 -1.2418345 0.61411637 0
2.4295633 -1.2831318 -0.047959212 0
2.3332541 -1.2327886 0.70709366 0
2.4098768 -1.2775801 0.047610167 0
2.4170814 -1.2824804 0.14340053 0
2.3933661 -1.2704328 0.2370636 0
2.3841586 -1.2666123 0.33148462 0
2.4680765 -1.311747 -0.34318411 0
2.3580966 -1.2538222 0.42299888 0
2.4434948 -1.2992293 -0.24211864 0
2.3399415 -1.2446928 0.51518428 0
2.4472489 -1.3023213 -0.14528462 0
2.3514538 -1.2518698 0.61501622 0
2.4250696 -1.2916048 -0.047959212 0
2.3152974 -1.2336582 0.70295256 0
2.407166 -1.2869271 0.04764507 0
2.4110537 -1.2895466 0.14329587 0
2.3783779 -1.2731379 0.23601775 0
2.3657246 -1.2674273 0.32953474 0
2.4669819 -1.3222297 -0.34367159 0
2.3556669 -1.2625681 0.42331171 0
2.4266536 -1.3011601 -0.24089848 0
2.3303924 -1.250069 0.51403946 0
2.4286094 -1.3033005 -0.14444725 0
2.3436353 -1.2582266 0.61411637 0
2.4242966 -1.3015312 -0.048029024 0
2.3128955 -1.2422434 0.70347023 0
2.4046457 -1.2958512 0.047679976 0
2.3924744 -1.2903701 0.14245848 0
2.3844385 -1.2871106 0.2370636 0
2.3580151 -1.2733787 0.32904723 0
2.4398789 -1.318137 -0.34050298 0
2.3512454 -1.2707833 0.42331171 0
2.4361176 -1.3172039 -0.24229297 0
2.327961 -1.2587237 0.51442105 0
2.4207606 -1.3094463 -0.14423791 0
2.3291671 -1.2604269 0.611417 0
2.4127047 -1.3061776 -0.047889404 0
2.3187373 -1.2558293 0.70657599 0
2.3965938 -1.3023274 0.047610167 0
2.3809376 -1.2948966 0.14203981 0
2.3714068 -1.2902496 0.23619205 0
2.355299 -1.2825514 0.32929099 0
2.4352629 -1.3266459 -0.34050298 0
2.3363879 -1.2733113 0.42143452 0
2.4210091 -1.3199769 -0.24124709 0
2.3304477 -1.2706013 0.51594758 0
2.4249418 -1.3226703 -0.14476126 0
2.3127787 -1.2620153 0.60826766 0
2.3975995 -1.3088425 -0.047679976 0
2.3075578 -1.2602119 0.70450544 0
2.3990476 -1.3145288 0.047749784 0
2.3781543 -1.30416 0.14214447 0
2.3579288 -1.2941395 0.23532049 0
2.3525479 -1.2917206 0.32953474 0
2.4340968 -1.3370498 -0.34099045 0
2.3319292 -1.2814589 0.42143452 0
2.4094033 -1.3245806 -0.24054985 0
2.3206143 -1.2762961 0.51480269 0
2.4200776 -1.3315493 -0.14476126 0
2.3132591 -1.2733027 0.60961735 0
2.3895123 -1.3152752 -0.047610167 0
2.2963758 -1.2645317 0.70243496 0
2.3767121 -1.3136398 0.047400735 0
2.3751059 -1.3138344 0.14224915 0
2.3429377 -1.296574 0.23427464 0
2.3477979 -1.3003345 0.32953474 0
2.4274437 -1.3450003 -0.34074673 0
2.3272166 -1.2899972 0.42143452 0
2.4012797 -1.331051 -0.24020122 0
2.3058434 -1.278676 0.51251298 0
2.415415 -1.3399887 -0.14476126 0
2.3156161 -1.2851523 0.611417 0
2.3916686 -1.3279071 -0.047749784 0
2.2951031 -1.274816 0.70347023 0
2.3738589 -1.3229015 0.047435641 0
2.3687611 -1.3211443 0.14214447 0
2.343617 -1.3076569 0.23479758 0
2.3311124 -1.3017468 0.32782856 0
2.415802 -1.3495928 -0.33977175 0
2.3261485 -1.3000402 0.42206025 0
2.4035757 -1.3433129 -0.24089848 0
2.2962251 -1.2838429 0.5113681 0
2.3967781 -1.3406122 -0.14392389 0
2.3077149 -1.2913244 0.6105172 0
2.3905089 -1.3382013 -0.047819596 0
2.2872682 -1.2809318 0.70243496 0
2.3709702 -1.3321593 0.047470544 0
2.3539207 -1.3231205 0.14151645 0
2.3581393 -1.326575 0.23671499 0
2.3265541 -1.3098761 0.32782856 0
2.4009345 -1.3517531 -0.33830932 0
2.3166609 -1.3048387 0.42112163 0
2.4023433 -1.3536508 -0.24124709 0
2.2985709 -1.2957066 0.51289463 0
2.3886042 -1.3470082 -0.14371455 0
2.2847481 -1.2884405 0.60556823 0
2.3790913 -1.3421907 -0.047679976 0
2.2830081 -1.2885095 0.70243496 0
2.3647995 -1.3390291 0.047435641 0
2.3373551 -1.3240279 0.14078373 0
2.3363948 -1.3245615 0.23497188 0
2.320471 -1.3166044 0.32758483 0
2.3947122 -1.3587278 -0.33806559 0
2.3002956 -1.3056879 0.41893157 0
2.3909111 -1.3576747 -0.24054985 0
2.3010898 -1.3072008 0.51442105 0
2.3841245 -1.3549215 -0.14371455 0
2.2838514 -1.2979354 0.60646802 0
2.3624589 -1.3431544 -0.047435641 0
2.2820809 -1.2979833 0.70347023 0
2.3655567 -1.3498368 0.047540355 0
2.3517973 -1.3430741 0.14193512 0
2.3233399 -1.3273603 0.23410031 0
2.3281553 -1.3311895 0.32929099 0
2.3951242 -1.3700356 -0.33879682 0
2.2991531 -1.3156718 0.4195573 0
2.375783 -1.3600731 -0.23950398 0
2.2896981 -1.3113225 0.51289463 0
2.3828464 -1.3652213 -0.14392389 0
2.2860703 -1.3097748 0.60826766 0
2.354286 -1.3494039 -0.047365833 0
2.2607775 -1.296332 0.69829381 0
2.3449945 -1.349521 0.047226213 0
2.346859 -1.3516847 0.14193512 0
2.3184593 -1.3358668 0.23410031 0
2.3163819 -1.335747 0.32831606 0
2.3883672 -1.377813 -0.33855307 0
2.2891827 -1.3211277 0.41861868 0
2.360429 -1.3627944 -0.2384581 0
2.2746761 -1.3138143 0.51060492 0
2.3778267 -1.3739457 -0.14392389 0
2.2829416 -1.3191197 0.60871756 0
2.3510556 -1.3590243 -0.047400735 0
2.256011 -1.3046093 0.69829381 0
2.3365736 -1.3560994 0.047156405 0
2.3231268 -1.3488371 0.14078373 0
2.3101022 -1.3423536 0.2337517 0
2.2943103 -1.3342484 0.32587865 0
2.3852592 -1.3871394 -0.33879682 0
2.2896795 -1.3320903 0.4195573 0
2.3694336 -1.3790432 -0.23985259 0
2.2632899 -1.317795 0.50907844 0
2.3592095 -1.3741953 -0.14308652 0
2.2732716 -1.324138 0.60736781 0
2.3497529 -1.3692366 -0.047470544 0
2.2547812 -1.3144221 0.69932908 0
2.3337901 -1.3648497 0.047191311 0
2.322089 -1.3585509 0.14099309 0
2.3073575 -1.3510132 0.233926 0
2.2830226 -1.3378351 0.3249037 0
2.365232 -1.3860091 -0.33660313 0
2.2818413 -1.3376778 0.41893157 0
2.3631291 -1.385885 -0.23967829 0
2.2656806 -1.3292669 0.51060492 0
2.3511944 -1.3799891 -0.14287716 0
2.2537422 -1.3227915 0.60331875 0
2.3417506 -1.3749958 -0.047400735 0
2.2570729 -1.3258058 0.70139962 0
2.3326967 -1.3746119 0.047261119 0
2.3087306 -1.361575 0.14046971 0
2.3011489 -1.3576449 0.2337517 0
2.2871203 -1.3504449 0.3261224 0
2.3552518 -1.3912281 -0.33587193 0
2.2669542 -1.339605 0.41705433 0
2.3531313 -1.3910837 -0.23915535 0
2.2629502 -1.337772 0.51098651 0
2.353482 -1.3918452 -0.14329587 0
2.2491112 -1.3306504 0.60331875 0
2.331774 -1.380106 -0.047296021 0
2.2457819 -1.3297395 0.69932908 0
2.3244457 -1.3807036 0.047191311 0
2.3125479 -1.3747288 0.14099309 0
2.282459 -1.3579204 0.2323572 0
2.2892156 -1.3624812 0.32709733 0
2.3537927 -1.4014721 -0.33635944 0
2.2588701 -1.3454882 0.4164286 0
2.337992 -1.3931699 -0.23810948 0
2.2563455 -1.3450519 0.51060492 0
2.3483646 -1.4004619 -0.14329587 0
2.2525866 -1.343877 0.60556823 0
2.3217907 -1.3851637 -0.047191311 0
2.2344913 -1.3336103 0.69725859 0
2.310792 -1.3840762 0.047016785 0
2.3040676 -1.3811415 0.14078373 0
2.2896659 -1.373052 0.23357739 0
2.2791004 -1.3677981 0.32636613 0
2.3554475 -1.4141769 -0.33733436 0
2.2539234 -1.3537585 0.4164286 0
2.3296988 -1.3992709 -0.23776087 0
2.2348082 -1.3428082 0.50678873 0
2.3400383 -1.4065928 -0.14308652 0
2.2462118 -1.3507276 0.60511833 0
2.3201253 -1.3957258 -0.047261119 0
2.2229674 -1.3378067 0.69518799 0
2.3042345 -1.3911003 0.046981879 0
2.3009419 -1.3902088 0.14088841 0
2.2831542 -1.3800055 0.23340309 0
2.2641211 -1.3695806 0.3249037 0
2.3420053 -1.4172517 -0.33611569 0
2.2559435 -1.3657098 0.41768005 0
2.3316176 -1.4115217 -0.2384581 0
2.2301073 -1.350601 0.50678873 0
2.3214486 -1.4064729 -0.14224915 0
2.2414832 -1.3585601 0.60511833 0
2.3220787 -1.407963 -0.047400735 0
2.2199359 -1.3465601 0.69570565 0
2.2993646 -1.3991352 0.046981879 0
2.2824285 -1.3899217 0.14005104 0
2.2834275 -1.3910764 0.233926 0
2.2525468 -1.373342 0.32392874 0
2.3268754 -1.4192162 -0.33465323 0
2.2477901 -1.3715184 0.41705433 0
2.3300781 -1.4217274 -0.23880674 0
2.2253792 -1.3583772 0.50678873 0
2.3148203 -1.413527 -0.14214447 0
2.2284124 -1.3612965 0.6028688 0
2.3120308 -1.4129319 -0.047296021 0
2.2201664 -1.3573238 0.69725859 0
2.3012855 -1.4113346 0.047121495 0
2.2758605 -1.3968356 0.13994636 0
2.2768602 -1.3979962 0.2337517 0
2.2528129 -1.3843142 0.32465994 0
2.3252895 -1.429409 -0.33514073 0
2.2312102 -1.372113 0.41486427 0
2.3183124 -1.4256777 -0.23810948 0
2.2273128 -1.3702519 0.50831515 0
2.3149748 -1.4247389 -0.14245848 0
2.2120309 -1.3619151 0.59971952 0
2.3019772 -1.4178476 -0.047191311 0
2.215415 -1.3650655 0.69725859 0
2.296345 -1.419359 0.047121495 0
2.2760665 -1.4079233 0.14026037 0
2.2601066 -1.3985965 0.23253153 0
2.2530301 -1.3953052 0.32539117 0
2.3152235 -1.4343807 -0.33440951 0
2.228086 -1.3809335 0.41517711 0
2.2997737 -1.4253644 -0.23671499 0
2.2158418 -1.37388 0.50678873 0
2.3116848 -1.433864 -0.14256316 0
2.2122309 -1.3727107 0.60106921 0
2.2868197 -1.4195466 -0.046981879 0
2.1942251 -1.3625987 0.69208211 0
2.2744033 -1.4167932 0.04677245 0
2.271138 -1.4158598 0.14026037 0
2.2416863 -1.3980426 0.23113704 0
2.24141 -1.398957 0.32441622 0
2.2316291 -1.3939351 0.41674146 0
2.2981639 -1.4354945 -0.2370636 0
2.2060378 -1.3784854 0.50564384 0
2.3049719 -1.4408658 -0.14245848 0
2.214035 -1.3845575 0.6028688 0
2.2767649 -1.4243386 -0.046877164 0
2.1861801 -1.3682001 0.69104689 0
2.2614713 -1.4186181 0.046597924 0
2.266679 -1.4229877 0.14026037 0
2.2457194 -1.4103764 0.23200859 0
2.2302809 -1.4017661 0.32344127 0
2.4283364 -1.5268385 -0.35220242 0
2.2238948 -1.3988357 0.41611573 0
2.2849593 -1.437802 -0.23619205 0
2.1917262 -1.3791354 0.50335413 0
2.286912 -1.4395878 -0.14162111 0
2.2080252 -1.3904679 0.60241896 0
2.2824309 -1.4378798 -0.047086593 0
2.1851397 -1.3771213 0.69208211 0
2.2632666 -1.4307775 0.046737548 0
2.2515709 -1.4244845 0.13963234 0
2.2439017 -1.4207294 0.2323572 0
2.2186666 -1.4052942 0.32246631 0
2.2189982 -1.4065897 0.41611573 0
2.2832918 -1.4479034 -0.23654069 0
2.1932881 -1.391366 0.50488061 0
2.2816203 -1.44796 -0.14162111 0
2.1881075 -1.389151 0.59836978 0
2.2689567 -1.4404792 -0.04691207 0
2.1835809 -1.386812 0.69311744 0
2.26138 -1.4412129 0.046807356 0
2.2449007 -1.4312613 0.13952768 0
2.2372491 -1.4274817 0.23218289 0
2.2135007 -1.4134163 0.32246631 0
2.200757 -1.4058198 0.41361275 0
2.2815814 -1.4580102 -0.2368893 0
2.1950343 -1.4032433 0.50640708 0
2.2748697 -1.4548397 -0.14151645 0
2.1766789 -1.3925797 0.59657019 0
2.2588613 -1.4451576 -0.046807356 0
2.1787267 -1.3944257 0.69311744 0
2.2532227 -1.4465433 0.046737548 0
2.2331698 -1.4347705 0.13910899 0
2.2205217 -1.4277397 0.23096271 0
2.2238274 -1.4304137 0.32465994 0
2.4656341 -1.5865575 -0.36000207 0
2.1958363 -1.4134934 0.41361275 0
2.2647526 -1.4584147 -0.23566914 0
2.1887188 -1.4094517 0.50602549 0
2.2733905 -1.4645387 -0.14172579 0
2.1753252 -1.4019012 0.59746999 0
2.2487609 -1.4497831 -0.046702638 0
2.1576111 -1.3915516 0.68794107 0
2.2347279 -1.4457102 0.046458308 0
2.2468438 -1.4541047 0.14026037 0
2.2141027 -1.4340124 0.23078841 0
2.2104919 -1.4327693 0.32344127 0
2.4484217 -1.5875944 -0.35829589 0
2.1911371 -1.4207671 0.41361275 0
2.2565608 -1.4637482 -0.23532049 0
2.1706102 -1.4085337 0.50297254 0
2.2732902 -1.4757278 -0.14203981 0
2.1785901 -1.414793 0.59971952 0
2.2372324 -1.4528759 -0.046563022 0
2.1529849 -1.3986988 0.68794107 0
2.2265706 -1.4509294 0.046388499 0
2.2200058 -1.4477558 0.13889964 0
2.2057464 -1.4395542 0.23043977 0
2.1957555 -1.4335803 0.32197884 0
2.1927791 -1.4327291 0.41486427 0
2.2497699 -1.4705262 -0.23514619 0
2.1626408 -1.4135756 0.50220931 0
2.2516677 -1.4723279 -0.14099309 0
2.1771481 -1.4241431 0.60061932 0
2.2505534 -1.4727207 -0.046946973 0
2.1480892 -1.4062057 0.68794107 0
2.2298503 -1.4641808 0.046563022 0
2.2149386 -1.4554961 0.13889964 0
2.209285 -1.4523331 0.23131134 0
2.1923964 -1.4423273 0.32222256 0
2.407711 -1.5845797 -0.3539086 0
2.1828148 -1.4371159 0.41392565 0
2.2546065 -1.4849458 -0.23619205 0
2.1642513 -1.4254354 0.50373578 0
2.2465148 -1.4801787 -0.14099309 0
2.1575201 -1.4220819 0.59657019 0
2.2487378 -1.4827694 -0.047016785 0
2.1528432 -1.4200777 0.69104689 0
2.2263935 -1.4730588 0.046597924 0
2.2015183 -1.4577056 0.13837628 0
2.2022862 -1.4593204 0.23113704 0
2.1840391 -1.4477777 0.32173508 0
2.3988564 -1.5907805 -0.35342112 0
2.1695547 -1.4392663 0.41236129 0
2.2460892 -1.4906036 -0.23584343 0
2.1606481 -1.4344441 0.50411743 0
2.2444022 -1.4906125 -0.14120242 0
2.1522932 -1.4299802 0.59657019 0
2.2268922 -1.4795436 -0.046667732 0
2.1430464 -1.4243759 0.68949395 0
2.2209795 -1.4812092 0.046597924 0
2.1964164 -1.4653816 0.13837628 0
2.1822658 -1.4570417 0.22956821 0
2.1886215 -1.4623902 0.32319754 0
2.3781564 -1.5896338 -0.35122749 0
2.1595905 -1.4435375 0.4114227 0
2.2243099 -1.4873596 -0.23410031 0
2.1588914 -1.4441607 0.50488061 0
2.2425048 -1.5006596 -0.14141177 0
2.1505272 -1.4396526 0.59746999 0
2.2134054 -1.4817458 -0.04649321 0
2.1284306 -1.425398 0.68638813 0
2.2027757 -1.4796456 0.046318687 0
2.1979182 -1.4774967 0.13879497 0
2.1738603 -1.4624263 0.2292196 0
2.1771722 -1.4652063 0.32222256 0
2.3860457 -1.6063803 -0.3531774 0
2.1578155 -1.453274 0.41204843 0
2.2158 -1.4928883 -0.2337517 0
2.1378086 -1.4403419 0.50106448 0
2.2308915 -1.5036225 -0.14099309 0
2.1457415 -1.4467759 0.59746999 0
2.2214825 -1.4984088 -0.04677245 0
2.1234422 -1.4328189 0.68638813 0
2.1959412 -1.4862051 0.046283782 0
2.1910937 -1.4840398 0.13869029 0
2.1739471 -1.4729798 0.22974254 0
2.1621866 -1.4661129 0.32076016 0
2.3705668 -1.6080132 -0.35171497 0
2.1527295 -1.4607974 0.41204843 0
2.2223775 -1.5080591 -0.23497188 0
2.1295192 -1.4455903 0.50030124 0
2.2124109 -1.5024242 -0.1401557 0
2.1406782 -1.4542571 0.59746999 0
2.206315 -1.4994102 -0.046563022 0
2.1216226 -1.4423947 0.68742341 0
2.1973484 -1.4983677 0.046423402 0
2.1809509 -1.4883015 0.13837628 0
2.1720831 -1.482806 0.23009115 0
2.1521385 -1.4702917 0.32002893 0
2.3518281 -1.6073174 -0.34976503 0
2.1476171 -1.468303 0.41204843 0
2.2170999 -1.5158076 -0.23497188 0
2.12446 -1.453015 0.50030124 0
2.2071531 -1.5101379 -0.1401557 0
2.124332 -1.4540159 0.59432071 0
2.1977677 -1.5048428 -0.04649321 0
2.1229501 -1.4541587 0.68949395 0
2.1954012 -1.5082932 0.04649321 0
2.1760035 -1.4955258 0.13837628 0
2.1652522 -1.4892498 0.22991684 0
2.1486282 -1.4789208 0.32027265 0
2.3560131 -1.622272 -0.35122749 0
2.1329744 -1.4686949 0.41017124 0
2.2068727 -1.5201467 -0.23444894 0
2.1290748 -1.4671056 0.50259089 0
2.205157 -1.5201 -0.14036505 0
2.111222 -1.4558909 0.59207118 0
2.1878266 -1.5087172 -0.046388499 0
2.1133459 -1.4578996 0.68794107 0
2.1870985 -1.5132896 0.046423402 0
2.1658435 -1.4997013 0.13806225 0
2.1567655 -1.4945291 0.22956821 0
2.1535008 -1.4928234 0.32173508 0
2.3375707 -1.621026 -0.34927759 0
2.1245885 -1.4738796 0.40954545 0
2.1900954 -1.5198894 -0.23322876 0
2.1177464 -1.4696804 0.50106448 0
2.2033854 -1.5296823 -0.1405744 0
2.1191874 -1.4717768 0.5956704 0
2.1776202 -1.512922 -0.046283782 0
2.0955534 -1.4564474 0.68379998 0
2.1752412 -1.5163406 0.046283782 0
2.1723266 -1.5148724 0.13879497 0
2.1403606 -1.4936916 0.22834805 0
2.1417668 -1.495785 0.32076016 0
2.3546798 -1.6450925 -0.35268989 0
2.1261666 -1.4854423 0.41079697 0
2.1834099 -1.5260023 -0.23305444 0
2.1045587 -1.4714392 0.49915636 0
2.2013056 -1.5396535 -0.14078373 0
2.1204238 -1.483634 0.59746999 0
2.1824219 -1.5270132 -0.04649321 0
2.085964 -1.4600649 0.68224704 0
2.1652908 -1.5200988 0.046179067 0
2.158854 -1.5167053 0.13827161 0
2.1432831 -1.5068834 0.2292196 0
2.1302998 -1.498311 0.31978518 0
2.3589525 -1.6597458 -0.35415235 0
2.1241994 -1.4951286 0.4114227 0
2.1829572 -1.5370557 -0.23357739 0
2.0948517 -1.4750191 0.4980115 0
2.1798594 -1.5354435 -0.13973701 0
2.1059341 -1.4839224 0.59477055 0
2.1689062 -1.5288614 -0.046318687 0
2.0903273 -1.4740174 0.68535286 0
2.1648693 -1.531112 0.046283782 0
2.1405048 -1.5150009 0.13743424 0
2.1447783 -1.5185876 0.22991684 0
2.1201978 -1.502295 0.31905395 0
2.3466668 -1.663378 -0.3531774 0
2.1157446 -1.5002494 0.41079697 0
2.1875997 -1.5512009 -0.23462325 0
2.0928926 -1.4845942 0.49877474 0
2.1744862 -1.5430434 -0.13973701 0
2.0943854 -1.4867523 0.59297097 0
2.1635563 -1.536423 -0.046318687 0
2.0946186 -1.4880178 0.68845868 0
2.1464827 -1.5293763 0.046004545 0
2.1335773 -1.5213039 0.13732956 0
2.1362205 -1.5237511 0.22956821 0
2.1230192 -1.5154533 0.32027265 0
2.3473082 -1.6761736 -0.35415235 0
2.1008503 -1.500736 0.40891972 0
2.1724443 -1.5518789 -0.23357739 0
2.0988789 -1.499881 0.50144607 0
2.1658375 -1.5483012 -0.13952768 0
2.0860126 -1.491787 0.59207118 0
2.1500483 -1.5381483 -0.046144161 0
2.0799859 -1.4885746 0.68535286 0
2.1443806 -1.5391916 0.046074353 0
2.1317651 -1.5307006 0.1375389 0
2.1211805 -1.524223 0.22852236 0
2.1289983 -1.5309675 0.32197884 0
2.097466 -1.5088481 0.40923262 0
2.1637797 -1.557125 -0.23322876 0
2.0872574 -1.5026103 0.49991959 0
2.1733854 -1.5651895 -0.14036505 0
2.0839548 -1.5013375 0.59297097 0
2.1449354 -1.5452697 -0.046144161 0
2.0687692 -1.4909458 0.68328232 0
2.1327817 -1.5416085 0.045934737 0
2.1280274 -1.5393032 0.13764358 0
2.1126192 -1.5292811 0.22817372 0
2.1142626 -1.5310333 0.32051641 0
2.0889874 -1.5138423 0.40860689 0
2.1534917 -1.5611603 -0.23270583 0
2.0759051 -1.5049144 0.49839315 0
2.1617155 -1.5676979 -0.13994636 0
2.0805421 -1.5093843 0.59342086 0
2.1476207 -1.5586201 -0.046318687 0
2.0604258 -1.4958881 0.68224704 0
2.1209214 -1.5443355 0.045795113 0
2.1258695 -1.5490743 0.13785292 0
2.1075363 -1.5362785 0.22817372 0
2.0960755 -1.5290452 0.31856647 0
2.0996449 -1.5327721 0.41173556 0
2.1499124 -1.5694679 -0.23288015 0
2.0642972 -1.50752 0.49686664 0
2.146554 -1.5681649 -0.13931833 0
2.0815542 -1.5212368 0.59522051 0
2.1389382 -1.5637468 -0.046248876 0
2.05831 -1.5053523 0.68328232 0
2.1219676 -1.5564605 0.045934737 0
2.1075687 -1.5470307 0.13701554 0
2.1101906 -1.5495222 0.22904527 0
2.0875263 -1.5340015 0.31807902 0
2.0863249 -1.5342404 0.41017124 0
2.1492362 -1.5805041 -0.23340309 0
2.0590222 -1.5147165 0.49686664 0
2.141067 -1.5756483 -0.13931833 0
2.0589685 -1.515785 0.59027153 0
2.1318567 -1.5700181 -0.046213973 0
2.0592642 -1.5171114 0.68535286 0
2.1229546 -1.5686115 0.046074353 0
2.1021559 -1.5543782 0.13701554 0
2.1015654 -1.5545089 0.22869666 0
2.0837545 -1.5424598 0.31832278 0
2.0730202 -1.5356345 0.40860689 0
2.1389031 -1.5844387 -0.23288015 0
2.0631866 -1.5289083 0.49915636 0
2.132345 -1.5807335 -0.13910899 0
2.0520999 -1.5218021 0.5898217 0
2.1199393 -1.5726843 -0.046074353 0
2.0508535 -1.5219876 0.68431759 0
2.1110499 -1.5712365 0.045934737 0
2.0999207 -1.5640928 0.1372249 0
2.0865405 -1.5546927 0.22765081 0
2.0879059 -1.556844 0.31978518 0
2.0660639 -1.54168 0.40829399 0
2.1237783 -1.584746 -0.23183426 0
2.0531175 -1.5325773 0.4980115 0
2.1332152 -1.5929474 -0.13952768 0
2.0483365 -1.5301223 0.59027153 0
2.1080294 -1.5752866 -0.045934737 0
2.030055 -1.5175703 0.67914116 0
2.0938041 -1.5709302 0.045690399 0
2.0957713 -1.5729778 0.13732956 0
2.0773692 -1.5602999 0.22730216 0
2.0723917 -1.5576931 0.31832278 0
2.0603995 -1.5492421 0.40829399 0
2.04408 -1.5380886 0.49724829 0
2.1254873 -1.5999253 -0.139423 0
2.0504992 -1.5434792 0.59252107 0
2.1070335 -1.5866109 -0.046039447 0
2.0260227 -1.5261631 0.67965883 0
2.0917745 -1.5802755 0.045760211 0
2.0889504 -1.5787147 0.1372249 0
2.0769508 -1.5707856 0.22782511 0
2.0608833 -1.559765 0.31734779 0
2.0584004 -1.5584509 0.40891972 0
2.0389686 -1.5448585 0.49724829 0
2.1153951 -1.6033458 -0.13910899 0
2.0438166 -1.5490935 0.59207118 0
2.1065409 -1.5972137 -0.046144161 0
2.0224893 -1.5340407 0.68017644 0
2.0944805 -1.5932568 0.045934737 0
2.0754812 -1.5799482 0.13670154 0
2.0796561 -1.5836999 0.22869666 0
2.0556996 -1.5665904 0.31734779 0
2.0529478 -1.5656266 0.40891972 0
2.0385172 -1.5551841 0.49839315 0
2.1100664 -1.6103517 -0.13910899 0
2.029103 -1.5491232 0.58937174 0
2.0993636 -1.6033437 -0.046109259 0
2.0278683 -1.549301 0.68379998 0
2.0873187 -1.599342 0.045899831 0
2.0683682 -1.5859679 0.13659686 0
2.0725346 -1.5897369 0.22852236 0
2.0533681 -1.5761741 0.31783527 0
2.0396376 -1.5667663 0.4073554 0
2.0315192 -1.561094 0.4980115 0
2.1012654 -1.6152729 -0.13889964 0
2.0205939 -1.5538207 0.58847195 0
2.0794895 -1.5996885 -0.045795113 0
2.0147927 -1.5504791 0.68121177 0
2.0848894 -1.6090618 0.045969639 0
2.0659809 -1.5956199 0.1368062 0
2.048053 -1.5823443 0.22643061 0
2.0604172 -1.5930458 0.31978518 0
2.029469 -1.57025 0.40641677 0
2.0229526 -1.5657725 0.49724829 0
2.0987728 -1.6250435 -0.13910899 0
2.0151577 -1.5608643 0.58847195 0
2.0738928 -1.6069376 -0.045795113 0
2.0002069 -1.5504016 0.67810595 0
2.0650511 -1.6052842 0.045655496 0
2.0635514 -1.6052743 0.13701554 0
2.0390952 -1.5873922 0.226082 0
2.0423143 -1.5904708 0.31783527 0
2.0286498 -1.5809675 0.4073554 0
2.0110078 -1.568347 0.49572179 0
2.0928028 -1.6327249 -0.13910899 0
2.0186408 -1.5754334 0.59117132 0
2.0714235 -1.6166275 -0.045864921 0
1.9947828 -1.5573741 0.67810595 0
2.0449851 -1.6017447 0.04534135 0
2.0516469 -1.6075405 0.13659686 0
2.0429492 -1.6018767 0.22712786 0
2.0239775 -1.5881422 0.31588537 0
2.0277805 -1.5916982 0.40829399 0
2.0024331 -1.5729316 0.49495855 0
2.0839496 -1.637552 -0.13889964 0
2.0070009 -1.5776531 0.58937174 0
2.0704844 -1.6275558 -0.045969639 0
1.9908531 -1.5655218 0.67862362 0
2.0459428 -1.6134702 0.045480974 0
2.0397518 -1.6097431 0.13617818 0
2.0467265 -1.616407 0.22817372 0
2.0218153 -1.5973064 0.31637284 0
2.0191131 -1.5963163 0.40766826 0
1.9987459 -1.5807813 0.4953402 0
2.0722427 -1.6394968 -0.13848096 0
1.9941179 -1.5782529 0.58712226 0
2.0632229 -1.6335319 -0.045934737 0
1.9884052 -1.5748606 0.67965883 0
2.0559568 -1.6330396 0.045830019 0
2.0294299 -1.613125 0.13586415 0
2.0319984 -1.6157453 0.22712786 0
2.0193338 -1.6068262 0.31686032 0
2.0042565 -1.5959718 0.40579104 0
1.9993579 -1.5926415 0.49686664 0
2.0633831 -1.6442311 -0.13827161 0
1.9885967 -1.585204 0.58712226 0
2.0450006 -1.6307501 -0.045655496 0
1.9828957 -1.5817919 0.67965883 0
2.0424364 -1.6339604 0.045655496 0
2.0315824 -1.6264404 0.13638751 0
2.0216804 -1.6190922 0.22660492 0
2.0261049 -1.6237967 0.31881022 0
1.9986733 -1.6029582 0.40579104 0
1.9891927 -1.595925 0.49572179 0
2.0638616 -1.6564239 -0.13869029 0
1.98761 -1.5957959 0.58847195 0
2.0361776 -1.6353742 -0.045585688 0
1.9683262 -1.5814438 0.67655301 0
2.0304916 -1.6360611 0.045515876 0
2.0305572 -1.637283 0.13670154 0
2.0129149 -1.6236377 0.22625631 0
2.0080669 -1.6208844 0.31686032 0
1.9992126 -1.6148903 0.40704253 0
1.9744476 -1.5954555 0.4934321 0
2.0580668 -1.6636181 -0.13869029 0
1.9850581 -1.605175 0.58937174 0
2.0382302 -1.6487597 -0.045760211 0
1.9597903 -1.5858744 0.67551774 0
2.0216632 -1.6406187 0.045446068 0
2.0170774 -1.6380656 0.13617818 0
2.0134206 -1.635679 0.22695355 0
1.9977759 -1.6241276 0.31612909 0
1.9966282 -1.624352 0.40766826 0
1.9658208 -1.5998594 0.49266884 0
2.0398564 -1.6607041 -0.13785292 0
1.9779317 -1.6108636 0.58892184 0
2.0402141 -1.6621799 -0.045934737 0
1.9632277 -1.6000286 0.67862362 0
2.025214 -1.6552587 0.045655496 0
2.0039032 -1.6384244 0.13565481 0
2.0046148 -1.6401742 0.22660492 0
1.9920946 -1.6310911 0.31612909 0
1.9851178 -1.6259576 0.40641677 0
1.9662977 -1.6116898 0.49419534 0
2.0371361 -1.6703471 -0.13806225 0
1.964763 -1.6115787 0.58667231 0
2.0300524 -1.6651317 -0.045830019 0
1.960898 -1.608981 0.67965883 0
2.0104489 -1.6543418 0.045446068 0
1.9997137 -1.6466787 0.13575949 0
2.0004151 -1.6484286 0.22677925 0
1.9882064 -1.6389509 0.31637284 0
1.9718108 -1.6265918 0.40485242 0
1.9669994 -1.6231998 0.49572179 0
2.0331261 -1.678365 -0.13816693 0
1.9533978 -1.613122 0.58487272 0
2.0149775 -1.6645662 -0.04562059 0
1.9493129 -1.6108934 0.67758828 0
2.0139 -1.6690053 0.045655496 0
2.0003924 -1.6583999 0.13617818 0
1.9857371 -1.6474202 0.22573337 0
1.9870555 -1.6496853 0.31710407 0
1.9679259 -1.6343838 0.40516531 0
1.9583018 -1.6275462 0.49495855 0
2.0318625 -1.6892822 -0.13848096 0
1.9537479 -1.624915 0.58667231 0
2.0063717 -1.6686817 -0.045550782 0
1.9395051 -1.613642 0.6760354 0
2.0022125 -1.6705501 0.045515876 0
1.9930581 -1.6640925 0.1360735 0
1.9753878 -1.6505091 0.22521043 0
1.9785277 -1.6537191 0.31661656 0
1.9652392 -1.6437778 0.40579104 0
1.9453654 -1.6277319 0.49305046 0
2.0262494 -1.6960109 -0.13848096 0
1.9543254 -1.6363894 0.58847195 0
2.0005348 -1.6756752 -0.045550782 0
1.9338607 -1.6204023 0.6760354 0
1.9841212 -1.6672373 0.045236636 0
1.9902946 -1.6736102 0.13628285 0
1.9760023 -1.6621808 0.22590767 0
1.9605935 -1.6503884 0.31466666 0
1.9594892 -1.6506279 0.40579104 0
1.9336666 -1.6294522 0.49152401 0
2.0111544 -1.6953497 -0.13785292 0
1.9471117 -1.6419449 0.58802205 0
2.0007873 -1.6878055 -0.045690399 0
1.9252397 -1.6246511 0.67500007 0
1.9889748 -1.6831955 0.045480974 0
1.9722472 -1.6702214 0.13544546 0
1.972937 -1.6719886 0.22625631 0
1.9593632 -1.6610731 0.31539789 0
1.9522092 -1.6561794 0.40547815 0
1.936661 -1.644152 0.49381369 0
2.0049272 -1.7027096 -0.13785292 0
1.9277143 -1.6377149 0.58397293 0
1.9918355 -1.6921897 -0.04562059 0
1.9298613 -1.6401188 0.67862362 0
1.9873574 -1.6943667 0.045585688 0
1.9694443 -1.6796879 0.13565481 0
1.9640574 -1.6762781 0.22590767 0
1.9547715 -1.6695327 0.31564164 0
1.9419106 -1.6591345 0.40453959 0
1.9383712 -1.6572813 0.49572179 0
1.9989712 -1.7096977 -0.13785292 0
1.9249474 -1.6469678 0.58487272 0
1.9768 -1.6913323 -0.045411162 0
1.9211891 -1.644333 0.67758828 0
1.9802104 -1.699645 0.045550782 0
1.9681143 -1.6904563 0.13596882 0
1.9491286 -1.6753316 0.22486182 0
1.9522349 -1.678594 0.31612909 0
1.9316152 -1.662038 0.40360096 0
1.9284009 -1.6598576 0.49457693 0
1.9993449 -1.7215301 -0.13827161 0
1.9209518 -1.6546139 0.58532268 0
1.9739137 -1.700833 -0.045480974 0
1.9008046 -1.6384162 0.67241186 0
1.9667011 -1.7000083 0.045376256 0
1.9652227 -1.6999295 0.13617818 0
1.9420556 -1.6804821 0.2246875 0
1.9493649 -1.6879975 0.31661656 0
1.9287876 -1.6713574 0.40422669 0
1.9107273 -1.6562915 0.49152401 0
1.9842695 -1.7206478 -0.13764358 0
1.9210527 -1.666417 0.58712226 0
1.9679646 -1.7077128 -0.045480974 0
1.8994507 -1.6488404 0.6739648 0
1.9517053 -1.6989852 0.045166828 0
1.956265 -1.704155 0.13596882 0
1.943688 -1.6937958 0.22555906 0
1.9299957 -1.6830496 0.31442294 0
1.9318719 -1.6858732 0.40610394 0
1.9019759 -1.6603689 0.49076074 0
1.9752427 -1.724936 -0.13743424 0
1.9108212 -1.6692662 0.58577251 0
1.9680147 -1.7198353 -0.04562059 0
1.8965923 -1.6580037 0.67500007 0
1.9502739 -1.7097422 0.045271542 0
1.9382932 -1.700436 0.13513145 0
1.9362664 -1.6992562 0.22538476 0
1.9256004 -1.6910859 0.31466666 0
1.9185563 -1.6860862 0.40453959 0
1.903541 -1.6734794 0.49266884 0
1.9677099 -1.7305014 -0.13732956 0
1.896204 -1.6682028 0.58307308 0
1.9589971 -1.7240523 -0.045550782 0
1.8936933 -1.6671672 0.6760354 0
1.9502904 -1.7218336 0.045411162 0
1.9308492 -1.7058694 0.13502678 0
1.9333088 -1.7086434 0.22573337 0
1.9241467 -1.7017424 0.31539789 0
1.9037836 -1.6849179 0.40266237 0
1.8976879 -1.6801137 0.49266884 0
1.8932866 -1.6773965 0.58397293 0
1.9454845 -1.7242481 -0.045376256 0
1.8849713 -1.6712037 0.67500007 0
1.9457626 -1.7299594 0.045446068 0
1.9308512 -1.7179093 0.13544546 0
1.9184031 -1.7074336 0.2246875 0
1.9241244 -1.71373 0.31637284 0
1.8905171 -1.6849812 0.40109801 0
1.8962078 -1.6906471 0.49381369 0
1.8888741 -1.6852921 0.58442283 0
1.9394538 -1.7310287 -0.045376256 0
1.8704799 -1.6700537 0.67189431 0
1.9292835 -1.7274036 0.045201734 0
1.9352556 -1.7339683 0.13617818 0
1.9139152 -1.7154497 0.22486182 0
1.9166528 -1.7191106 0.31612909 0
1.8963846 -1.702126 0.40360096 0
1.8829907 -1.6906977 0.4919056 0
1.8902276 -1.6983875 0.58667231 0
1.9363741 -1.7404617 -0.045446068 0
1.8660754 -1.6778643 0.67241186 0
1.9217566 -1.7327886 0.045166828 0
1.9220794 -1.7336875 0.13565481 0
1.9108733 -1.72479 0.22521043 0
1.9003286 -1.7164762 0.31442294 0
1.8936609 -1.7110538 0.40422669 0
1.8770776 -1.6972601 0.4919056 0
1.8845851 -1.7046463 0.58667231 0
1.9291091 -1.7455318 -0.045411162 0
1.8662304 -1.689229 0.67448246 0
1.9174808 -1.7404958 0.045201734 0
1.911884 -1.736024 0.13534079 0
1.9080923 -1.7337967 0.22555906 0
1.8931574 -1.7214329 0.31417918 0
1.8879764 -1.7173243 0.40422669 0
1.8728911 -1.704797 0.49228725 0
1.8673948 -1.7003903 0.58307308 0
1.9247885 -1.7532659 -0.045446068 0
1.8677582 -1.7019143 0.67707068 0
1.9249843 -1.7589849 0.045515876 0
1.8999165 -1.737296 0.1349221 0
1.9038023 -1.7414596 0.22573337 0
1.8918313 -1.7317222 0.31491041 0
1.8703173 -1.7132298 0.40172374 0
1.8715698 -1.7149776 0.4934321 0
1.8614478 -1.7068985 0.58307308 0
1.9053941 -1.7478082 -0.045131925 0
1.8589591 -1.7058111 0.6760354 0
1.9114753 -1.7589233 0.04534135 0
1.8967791 -1.7466232 0.13513145 0
1.8874544 -1.7386453 0.2245132 0
1.8930728 -1.7450428 0.31612909 0
1.8672296 -1.7224265 0.40234947 0
1.865572 -1.7215003 0.4934321 0
1.8569101 -1.7147077 0.58352304 0
1.9022193 -1.7571623 -0.045201734 0
1.8416427 -1.7018009 0.67189431 0
1.892123 -1.7533523 0.045027211 0
1.8935997 -1.7559499 0.13534079 0
1.8799131 -1.7438681 0.22433887 0
1.8826052 -1.7475885 0.31539789 0
1.8641006 -1.7316229 0.40297523 0
1.8523606 -1.7213197 0.49152401 0
1.8609029 -1.7304684 0.58667231 0
1.9019307 -1.7692397 -0.04534135 0
1.8328626 -1.705587 0.67085898 0
1.891839 -1.7654035 0.045166828 0
1.8874588 -1.7625489 0.13534079 0
1.8781821 -1.7544999 0.22486182 0
1.8677928 -1.7460161 0.31393546 0
1.8623723 -1.7421676 0.40391383 0
1.844907 -1.7264336 0.49114239 0
1.8520061 -1.7342896 0.58577251 0
1.8986622 -1.7786021 -0.045411162 0
1.8325363 -1.7172583 0.67292953 0
1.8900369 -1.7761046 0.045271542 0
1.8743275 -1.7619584 0.13481744 0
1.8793023 -1.767871 0.22573337 0
1.8616867 -1.7525253 0.31393546 0
1.8565849 -1.7483338 0.40391383 0
1.8431561 -1.7369022 0.49228725 0
1.8360168 -1.731385 0.58262324 0
1.8898439 -1.7821447 -0.04534135 0
1.8268317 -1.7233258 0.67292953 0
1.8943055 -1.7919821 0.045515876 0
1.8652648 -1.7657442 0.13460809 0
1.8673341 -1.7689394 0.22503611 0
1.8616282 -1.7641506 0.31491041 0
1.8418705 -1.7466484 0.40203664 0
1.8445078 -1.7497605 0.49419534 0
1.8260251 -1.7334388 0.5812735 0
1.879261 -1.7845994 -0.045236636 0
1.8236063 -1.7323532 0.6739648 0
1.8764555 -1.787549 0.045236636 0
1.8648725 -1.7777569 0.13502678 0
1.8528068 -1.7668722 0.22399026 0
1.8640755 -1.7788612 0.31637284 0
1.8329053 -1.7503387 0.40141091 0
1.8312907 -1.749408 0.49228725 0
1.8270063 -1.7465353 0.58352304 0
1.8701301 -1.7883842 -0.045166828 0
1.8091723 -1.7306958 0.67085898 0
1.8601032 -1.784398 0.044992302 0
1.8629781 -1.7884051 0.13534079 0
1.8480649 -1.7747087 0.22416456 0
1.8506982 -1.7784799 0.31515417 0
1.8296318 -1.7594643 0.40203664 0
1.823758 -1.7544285 0.4919056 0
1.8237065 -1.7556051 0.58442283 0
1.8638759 -1.7949014 -0.045166828 0
1.80312 -1.7370006 0.67085898 0
1.853863 -1.7908802 0.044992302 0
1.855288 -1.793509 0.13523613 0
1.843291 -1.782534 0.22433887 0
1.8302139 -1.7711246 0.31271678 0
1.8334123 -1.7754595 0.40422669 0
1.8176227 -1.7607841 0.4919056 0
1.8175671 -1.7619604 0.58442283 0
1.864777 -1.8083572 -0.04534135 0
1.8012056 -1.7473191 0.67241186 0
1.849034 -1.7987348 0.045027211 0
1.8404293 -1.7916152 0.13460809 0
1.8413398 -1.7931274 0.22486182 0
1.8282853 -1.7816586 0.31344795 0
1.8243752 -1.7790903 0.40360096 0
1.8142762 -1.7698598 0.49266884 0
1.8044335 -1.7614876 0.58217329 0
1.8498691 -1.8064729 -0.045131925 0
1.7978593 -1.756296 0.67344719 0
1.8470294 -1.8093764 0.045131925 0
1.8341641 -1.7980286 0.13460809 0
1.8322244 -1.7967541 0.2245132 0
1.8234719 -1.7894201 0.31369171 0
1.8068784 -1.7743751 0.40109801 0
1.8108883 -1.7789338 0.4934321 0
1.7968842 -1.7664095 0.58172345 0
1.8435521 -1.812919 -0.045131925 0
1.7917178 -1.7625612 0.67344719 0
1.8435494 -1.8186214 0.045201734 0
1.8307197 -1.8072263 0.13481744 0
1.8231059 -1.8003387 0.22416456 0
1.8256865 -1.8041464 0.31515417 0
1.803483 -1.7834495 0.40172374 0
1.8032719 -1.7838633 0.49305046 0
1.7920921 -1.774042 0.58217329 0
1.834371 -1.8165289 -0.045062114 0
1.7800645 -1.7633662 0.67137665 0
1.8286778 -1.8165896 0.044992302 0
1.8286492 -1.8178298 0.13513145 0
1.8125721 -1.8024771 0.22364163 0
1.8193777 -1.8105081 0.31515417 0
1.800046 -1.7925215 0.40234947 0
1.7900795 -1.7832193 0.49114239 0
1.7900289 -1.7844143 0.58352304 0
1.8308508 -1.8257451 -0.045131925 0
1.771163 -1.7668403 0.67034137 0
1.8166707 -1.8173047 0.044852685 0
1.8307619 -1.8326801 0.13575949 0
1.8133088 -1.815842 0.2245132 0
1.8060359 -1.8098222 0.31393546 0
1.7993575 -1.804389 0.40360096 0
1.781072 -1.7866762 0.49037915 0
1.7851646 -1.7920324 0.58397293 0
1.8286996 -1.8363756 -0.045236636 0
1.7677106 -1.7757503 0.67137665 0
1.8201776 -1.8335692 0.04509702 0
1.812013 -1.825982 0.13481744 0
1.8111678 -1.8264047 0.22503611 0
1.7927209 -1.8090653 0.31271678 0
1.7905836 -1.8075396 0.40297523 0
1.7748246 -1.7928823 0.49037915 0
1.7706755 -1.7899402 0.5812735 0
1.8211938 -1.8410082 -0.045201734 0
1.7699625 -1.7898444 0.67448246 0
1.8197036 -1.8452903 0.045236636 0
1.8014224 -1.8280281 0.13450342 0
1.8033835 -1.8312963 0.22486182 0
1.7950673 -1.8234881 0.31417918 0
1.778722 -1.8081456 0.40172374 0
1.7812581 -1.8113562 0.49381369 0
1.7674618 -1.7985822 0.58217329 0
1.8063481 -1.8387949 -0.044992302 0
1.7609968 -1.7932552 0.67344719 0
1.8118522 -1.8502026 0.045201734 0
1.7992213 -1.8385876 0.13481744 0
1.7889413 -1.8287209 0.22381593 0
1.7942421 -1.835421 0.31515417 0
1.7696388 -1.8115175 0.40109801 0
1.7721812 -1.8147539 0.49305046 0
1.7638948 -1.8075302 0.58307308 0
1.8027111 -1.8479519 -0.045062114 0
1.7479826 -1.7924757 0.67085898 0
1.7928355 -1.8436133 0.044887587 0
1.8011438 -1.8534508 0.13544546 0
1.7811586 -1.8335254 0.22364163 0
1.7822934 -1.8359753 0.31417918 0
1.7715573 -1.8261909 0.40297523 0
1.7603689 -1.8152912 0.49152401 0
1.7589309 -1.8150758 0.58352304 0
1.7920756 -1.8499247 -0.044957399 0
1.7390275 -1.7957908 0.66982371 0
1.7905567 -1.8541756 0.044992302 0
1.7877284 -1.8525407 0.1349221 0
1.7761308 -1.8411653 0.22381593 0
1.7676076 -1.8336108 0.31271678 0
1.7555785 -1.8224051 0.40078515 0
1.7540216 -1.8214251 0.49152401 0
1.7525842 -1.8212047 0.58352304 0
1.7407826 -1.8102049 0.67292953 0
1.7826895 -1.8589714 0.044957399 0
1.7771056 -1.8544436 0.13460809 0
1.7752063 -1.8531092 0.2245132 0
1.7557054 -1.8340337 0.3117418 0
1.7492064 -1.8285221 0.40078515 0
1.7476529 -1.8275366 0.49152401 0
1.7394848 -1.8202667 0.5812735 0
1.7371216 -1.8190647 0.6739648 0
1.7761896 -1.8651828 0.044957399 0
1.7664909 -1.8562951 0.13429408 0
1.7701 -1.860738 0.2246875 0
1.757499 -1.8487837 0.31320426 0
1.7455341 -1.8374813 0.40141091 0
1.7466706 -1.8393205 0.49305046 0
1.7317786 -1.8249139 0.5808236 0
1.729432 -1.8237157 0.67344719 0
1.7765379 -1.878636 0.045131925 0
1.768231 -1.8711598 0.1349221 0
1.755385 -1.8582155 0.22364163 0
1.7592108 -1.8635682 0.31466666 0
1.7309763 -1.8349416 0.39953369 0
1.7402395 -1.8454062 0.49305046 0
1.7267344 -1.8323662 0.5812735 0
1.7137848 -1.8198963 0.66982371 0
1.7617561 -1.8760796 0.044922493 0
1.7592825 -1.8741008 0.13471277 0
1.7475249 -1.8628783 0.22346732 0
1.7526951 -1.8696976 0.31466666 0
1.7289342 -1.844996 0.40047228 0
1.7284197 -1.8457373 0.49152401 0
1.7323117 -1.8511885 0.58532268 0
1.7077403 -1.8255696 0.66982371 0
1.7487049 -1.8746001 0.044747971 0
1.7540919 -1.8816916 0.13481744 0
1.7464436 -1.8747985 0.22416456 0
1.742427 -1.8711414 0.31393546 0
1.7359403 -1.8654808 0.40360096 0
1.7169406 -1.8457091 0.48999751 0
1.7248366 -1.8554956 0.58487272 0
1.7066166 -1.8371812 0.67189431 0
1.7503043 -1.8894951 0.044957399 0
1.7420856 -1.8819399 0.13439874 0
1.7442765 -1.8849666 0.2246875 0
1.7264504 -1.8670096 0.31222928 0
1.7240554 -1.8657256 0.40234947 0
1.7211446 -1.8632282 0.49305046 0
1.706453 -1.8486176 0.5808236 0
1.7450515 -1.8970648 0.044992302 0
1.7355058 -1.8880097 0.13439874 0
1.7363383 -1.889577 0.2245132 0
1.7226083 -1.8759491 0.31271678 0
1.7188679 -1.873188 0.40266237 0
1.7146304 -1.8692245 0.49305046 0
1.7026232 -1.8574362 0.58172345 0
1.7384191 -1.9031446 0.044992302 0
1.7302514 -1.8955314 0.13450342 0
1.7189879 -1.8838522 0.22311871 0
1.7280872 -1.8951522 0.31491041 0
1.6990139 -1.8645754 0.39953369 0
1.705451 -1.8722956 0.49228725 0
1.6987528 -1.8662504 0.58262324 0
1.7263913 -1.9032766 0.044852685 0
1.7289896 -1.9074787 0.1349221 0
1.7110639 -1.8883647 0.22294438 0
1.7187967 -1.8982302 0.31442294 0
1.6951458 -1.8734241 0.40015942 0
1.6923202 -1.8709575 0.49037915 0
1.6935346 -1.8736143 0.58307308 0
1.7197372 -1.9092911 0.044852685 0
1.7223208 -1.9135023 0.1349221 0
1.7084597 -1.8987691 0.22346732 0
1.7068512 -1.8983135 0.31344795 0
1.6938772 -1.8852074 0.40141091 0
1.6870906 -1.8783137 0.49076074 0
1.6921909 -1.8853155 0.58487272 0
1.7170615 -1.9197543 0.044957399 0
1.711638 -1.9150354 0.13460809 0
1.7084588 -1.91215 0.22433887 0
1.7028588 -1.9072216 0.31393546 0
1.6938618 -1.8984786 0.40297523 0
1.6831374 -1.8871219 0.49152401 0
1.7143334 -1.9302214 0.045062114 0
1.7013 -1.9162203 0.13429408 0
1.7017739 -1.918102 0.22433887 0
1.6922399 -1.9086978 0.31320426 0
1.677075 -1.8922586 0.40047228 0
1.6817467 -1.8988644 0.49305046 0
1.7039546 -1.9313973 0.044957399 0
1.6959214 -1.9236451 0.13439874 0
1.6897997 -1.9180506 0.22364163 0
1.6885252 -1.9172785 0.31369171 0
1.6704597 -1.898101 0.40047228 0
1.6728469 -1.9014828 0.49228725 0
1.6892958 -1.9283085 0.044747971 0
1.6987441 -1.9397763 0.13513145 0
1.68343 -1.9236436 0.22364163 0
1.6805154 -1.9216666 0.31344795 0
1.6719568 -1.9125532 0.40234947 0
1.6584495 -1.8984393 0.48999751 0
1.6881429 -1.9399337 0.044887587 0
1.6893415 -1.94268 0.1349221 0
1.6753979 -1.9280043 0.22346732 0
1.6650209 -1.9167384 0.3117418 0
1.6678606 -1.9213614 0.40297523 0
1.6839759 -1.9488411 0.044957399 0
1.6747183 -1.9394951 0.13429408 0
1.6781082 -1.9441073 0.2246875 0
1.6635067 -1.9285514 0.31271678 0
1.6611437 -1.9271716 0.40297523 0
1.6810695 -1.95926 0.045062114 0
1.6705378 -1.9483616 0.13450342 0
1.6683791 -1.9472188 0.22433887 0
1.6632214 -1.9418849 0.31393546 0
1.6389925 -1.9149494 0.39922079 0
1.6764702 -1.9684532 0.045131925 0
1.6663159 -1.9572225 0.13471277 0
1.6525345 -1.9424081 0.22311871 0
1.6586643 -1.9509926 0.31442294 0
1.6322982 -1.9206587 0.39922079 0
1.6596011 -1.9617882 0.044852685 0
1.6620528 -1.9660774 0.1349221 0
1.6444584 -1.9466425 0.22294438 0
1.6496239 -1.953449 0.31393546 0
1.6514571 -1.9660381 0.044817779 0
1.6551797 -1.9718671 0.1349221 0
1.6431167 -1.9581902 0.22364163 0
1.6338667 -1.9485474 0.31222928 0
1.6522692 -1.9810047 0.045027211 0
1.6431715 -1.971496 0.13450342 0
1.6426481 -1.9715676 0.2245132 0
1.6295954 -1.9572898 0.31271678 0
1.6440685 -1.9852201 0.044992302 0
1.633733 -1.9741424 0.13429408 0
1.630676 -1.9711484 0.22381593 0
1.6252828 -1.9660263 0.31320426 0
1.6371288 -1.9909468 0.044992302 0
1.631904 -1.9860055 0.13471277 0
1.6212562 -1.9737495 0.22346732 0
1.6272264 -1.9824283 0.31491041 0
1.6262244 -1.9932376 0.13481744 0
1.6143566 -1.9793968 0.22346732 0
1.6242855 -2.0051095 0.13523613 0
1.6137067 -1.992762 0.22433887 0
1.6097656 -2.0014293 0.13460809 0
1.6101366 -2.0033219 0.22486182 0
1.6006267 -2.0036354 0.13439874 0
1.6009985 -2.0055361 0.2245132 0
1.5973464 -2.0139048 0.13471277 0
1.5952494 -2.0257449 0.13513145 0
1.5881685 -2.031301 0.13513145 0
1.5737201 -2.0273662 0.13450342 0
1.5674978 -2.0347028 0.13460809 0
