# .PCD v0.7 - Point Cloud Data file format
VERSION 0.7
FIELDS x y z intensity
SIZE 4 4 4 4
TYPE F F F F
COUNT 1 1 1 1
WIDTH 1378
HEIGHT 1
VIEWPOINT 0 0 0 1 0 0 0
POINTS 1378
DATA ascii
14.456973 2.6272836 -0.25648057 7
14.848895 2.6958239 4.0437889 15
1.6483407 0.29717743 -0.44879225 6
15.393928 2.7725868 0.27302545 42
1.8719109 0.33681005 -0.43910447 4
15.378104 2.7641878 0.81884843 45
2.1583645 0.38796234 -0.42626733 78
15.386194 2.7628703 1.3676479 28
2.6384695 0.47330973 -0.4245632 4
15.356203 2.7519524 1.9155425 24
3.2729919 0.58595634 -0.40826234 2
15.346169 2.7446263 2.4691617 26
4.4520817 0.79624432 -0.39568707 4
15.347171 2.7420409 3.0304286 26
6.8678861 1.2258314 -0.36561903 6
15.338257 2.7349243 3.5969675 56
14.471961 2.5778513 -0.25658527 7
14.835391 2.6399169 4.0375772 15
1.6341488 0.28873315 -0.44465113 6
15.370034 2.7129219 0.27243206 40
1.8788327 0.33128849 -0.44045416 4
15.360122 2.7056439 0.81738305 43
2.1635728 0.38110751 -0.42703056 79
15.350613 2.7012074 1.3636388 30
2.6323235 0.46272817 -0.42331171 4
15.344209 2.6945589 1.9128615 23
3.29457 0.57795864 -0.41069973 2
15.328419 2.6862633 2.4647818 31
4.443059 0.77863395 -0.39464122 5
15.325708 2.6830318 3.0243227 26
6.8839273 1.2039164 -0.36624706 6
15.320836 2.6766677 3.5906687 43
14.465114 2.524565 -0.25630605 7
14.802646 2.5808189 4.0261893 14
1.6332433 0.28269723 -0.44413349 5
15.340003 2.6524358 0.27173397 40
1.8914994 0.32671961 -0.44315359 4
15.349791 2.6486106 0.81633633 43
2.1687591 0.37421998 -0.4277938 80
15.326571 2.6418493 1.3606755 27
2.630029 0.45286822 -0.42268598 4
15.316352 2.6345835 1.9082304 20
3.3004801 0.56712639 -0.4111872 2
15.30655 2.6274045 2.4597759 30
4.4575319 0.7651456 -0.39568707 4
15.290474 2.6218905 3.0155456 23
6.8900566 1.180215 -0.36635172 6
15.307034 2.6192379 3.5852699 32
14.454125 2.4706905 -0.25595698 9
14.775384 2.5229504 4.0163541 13
1.636125 0.27731681 -0.44465113 6
15.313677 2.5928671 0.27110568 38
1.8810996 0.31816459 -0.44045416 4
15.331372 2.5903511 0.81487089 43
2.1913462 0.3702445 -0.43199161 87
15.310158 2.5840263 1.3584094 28
2.6276982 0.44302747 -0.42206025 4
15.290218 2.5751648 1.903843 20
3.3024395 0.55560279 -0.4111872 2
15.301992 2.5716629 2.4575858 28
4.460176 0.74958009 -0.39568707 4
15.274364 2.5642712 3.0105846 19
6.8823156 1.1541766 -0.3657237 6
15.289177 2.5612788 3.5789714 37
14.492247 2.425168 -0.25648057 12
14.761235 2.46754 4.0101423 14
1.6466118 0.27318606 -0.44723931 6
15.302909 2.5361233 0.27075663 38
1.8841213 0.31191415 -0.44090405 4
15.289086 2.5283573 0.81214947 45
2.1829405 0.360993 -0.43008351 84
15.305326 2.528291 1.3571892 33
2.6292288 0.43385166 -0.42206025 4
15.275609 2.5179126 1.9009181 24
3.2886894 0.54149079 -0.4092373 3
15.269944 2.511497 2.4510155 26
4.4745607 0.7359454 -0.39673293 4
15.256098 2.5064926 3.0052419 20
6.8863029 1.130144 -0.3657237 6
15.253794 2.500639 3.5686235 35
14.50457 2.3752222 -0.25655037 7
14.744974 2.4119406 4.0034132 15
1.6513693 0.26805529 -0.44827461 7
15.2939 2.4798205 0.27044249 40
1.8851986 0.30533585 -0.44090405 5
15.269786 2.4731679 0.81068403 47
2.1841874 0.35337034 -0.43008351 84
15.266853 2.4672174 1.3530058 35
2.6424277 0.42656067 -0.42393744 3
15.25295 2.4595151 1.8970184 24
3.3022254 0.53247887 -0.41069973 3
15.245035 2.4555018 2.4456968 28
4.4613657 0.7177909 -0.39533845 4
15.239555 2.4491699 3.0002809 22
6.8941498 1.1067306 -0.36593303 6
15.233142 2.4454043 3.5618749 39
14.494596 2.3242567 -0.25623626 9
14.718555 2.3575346 3.9940958 15
1.6350781 0.25984836 -0.44361585 7
15.270442 2.4240701 0.26988402 40
1.8938994 0.30030376 -0.44270366 4
15.250285 2.4181421 0.80921865 47
2.1737127 0.34428203 -0.4277938 80
15.233623 2.4100494 1.3493452 37
2.6438274 0.41779622 -0.42393744 3
15.243376 2.4061313 1.8948246 26
3.3039732 0.52152443 -0.41069973 2
15.21992 2.399714 2.440378 30
4.4558487 0.7017535 -0.39464122 4
15.222383 2.3946497 2.9953198 25
6.9115939 1.0860343 -0.36666575 6
15.218065 2.3912489 3.5564761 39
14.523954 2.2795918 -0.25662017 9
14.690031 2.3030241 3.9842606 15
1.6416574 0.25531575 -0.44516876 7
15.227021 2.365433 0.26897648 42
1.8987365 0.29461879 -0.44360349 5
15.236924 2.3615248 0.80806726 50
2.1903632 0.33947778 -0.43084675 85
15.206093 2.3540289 1.3462076 37
2.6373899 0.4078185 -0.42268598 4
15.213996 2.3498151 1.8901937 25
3.2940021 0.50817299 -0.4092373 3
15.210632 2.3438601 2.4375622 33
4.4542127 0.68636543 -0.39429256 4
15.191432 2.3381875 2.9876873 27
6.9112082 1.0625031 -0.36645639 6
15.199353 2.333976 3.5501776 34
14.543683 2.2306948 -0.25682962 9
14.661698 2.246177 3.9744256 15
1.6463583 0.25016451 -0.44620407 7
15.205529 2.3077686 0.26845291 37
1.8920465 0.28682035 -0.44180387 5
15.217427 2.3041408 0.80660182 50
2.1954169 0.3324182 -0.43160996 86
15.192546 2.2976613 1.3442901 35
2.6348913 0.39801902 -0.42206025 4
15.180883 2.2904778 1.8850751 22
3.3134222 0.49933469 -0.41143093 3
15.191376 2.2866306 2.433182 28
4.4684033 0.67259133 -0.39533845 4
15.164554 2.2798944 2.9808183 25
6.9010496 1.0362973 -0.3657237 6
15.1785 2.2765663 3.5434291 30
14.575112 2.1834724 -0.25724846 11
14.646522 2.1915567 3.9682138 15
1.6491326 0.24469925 -0.44672167 8
15.189755 2.2511556 0.26803407 35
1.8891805 0.2796438 -0.44090405 5
15.183887 2.2448697 0.80440372 43
2.1926799 0.32417789 -0.43084675 85
15.178793 2.2414098 1.3423727 33
2.6479897 0.390549 -0.42393744 4
15.153438 2.2322614 1.880688 22
3.2974696 0.48516417 -0.4092373 4
15.169949 2.229284 2.428489 30
4.4628386 0.65583181 -0.39464122 4
15.143284 2.2226655 2.9750941 23
6.906601 1.0124897 -0.36582837 6
15.147791 2.2179263 3.534431 29
14.582645 2.1325788 -0.25724846 8
14.631145 2.1370633 3.962002 15
1.6518885 0.23921841 -0.44723931 7
15.177729 2.1952603 0.267685 35
1.8940027 0.27360532 -0.44180387 5
15.167908 2.1884351 0.80314767 47
2.1782529 0.31427968 -0.4277938 80
15.164832 2.1852896 1.3404553 31
2.6493366 0.38130397 -0.42393744 4
15.145418 2.1770887 1.8787379 26
3.3109326 0.47534418 -0.41069973 4
15.130709 2.1695914 2.42098 26
4.4690452 0.64081615 -0.39498982 4
15.12763 2.1664484 2.9705145 23
6.9061389 0.98781091 -0.36561903 6
15.13422 2.1620016 3.5294819 29
14.605839 2.0839186 -0.25752771 14
14.611738 2.0821657 3.9547551 15
1.6374106 0.23128881 -0.44309825 8
15.1556 2.1380727 0.26716143 37
1.8968757 0.2672646 -0.44225377 6
15.153699 2.1324103 0.80199623 50
2.1832247 0.30722076 -0.42855701 81
15.126988 2.1259594 1.3364462 37
2.6545639 0.37260345 -0.4245632 4
15.137198 2.1220067 1.876788 26
3.3224015 0.46515933 -0.4119184 3
15.114714 2.1134827 2.4172256 25
4.4634705 0.62332851 -0.39429256 4
15.105934 2.10956 2.9647903 24
6.9253697 0.96590322 -0.36645639 6
15.120443 2.1062059 3.5245333 29
14.618966 2.0337517 -0.25763243 10
14.586389 2.0266249 3.9459553 15
1.6439888 0.22607574 -0.44465113 8
15.129292 2.0805287 0.26656806 41
1.8977971 0.26064113 -0.44225377 6
15.135326 2.0759761 0.80063552 50
2.1921165 0.30028304 -0.43008351 84
15.109016 2.0669944 1.3341801 39
2.6519976 0.36233476 -0.42393744 4
15.113046 2.0648518 1.8728882 26
3.318104 0.45275468 -0.4111872 3
15.098512 2.0575049 2.4134712 25
4.4577231 0.60666847 -0.39359534 4
15.074656 2.0488949 2.9571581 26
6.9348006 0.94132143 -0.36677042 5
15.101027 2.0471036 3.5182345 27
14.629939 1.9832428 -0.25770223 12
14.56083 1.9712937 3.9371555 16
1.6447679 0.22033533 -0.44465113 8
15.113031 2.0218771 0.26614919 41
1.8852187 0.25187755 -0.43910447 5
15.113138 2.0165224 0.79906547 47
2.2009351 0.29366732 -0.43160996 86
15.092441 2.0110798 1.3320884 35
2.6454136 0.3520349 -0.42268598 4
15.07722 2.0036957 1.8675259 23
3.3276126 0.441634 -0.41216215 3
15.090284 2.0000792 2.4109683 31
4.4677134 0.59215456 -0.39429256 4
15.052523 1.9923939 2.9514337 23
6.9142838 0.91396606 -0.36551434 5
15.075236 1.9900538 3.5105863 24
14.654952 1.9319637 -0.25801638 14
14.544974 1.9148827 3.9309437 17
1.6627678 0.21684058 -0.44930989 8
15.086286 1.9647235 0.26555583 37
1.8899515 0.24579751 -0.44000426 5
15.076512 1.958092 0.7967627 48
2.1961064 0.28522369 -0.4304651 85
15.07566 1.9553131 1.3299967 34
2.6603394 0.34457394 -0.42487606 4
15.054591 1.9472303 1.8638699 25
3.3212588 0.42899927 -0.4111872 3
15.069746 1.9438502 2.4065881 31
4.4697533 0.57655454 -0.39429256 4
15.039915 1.9373263 2.9476175 22
6.9253554 0.89084589 -0.36593303 5
15.049232 1.9331942 3.5029378 27
14.677476 1.8828281 -0.25829563 18
14.532408 1.861648 3.9257677 15
1.6596817 0.21055001 -0.44827461 8
15.071232 1.909282 0.26517189 41
1.9023978 0.24066673 -0.44270366 5
15.059145 1.9050879 0.7955066 47
2.1912451 0.27681941 -0.42932025 83
15.052742 1.8989327 1.327382 37
2.6615262 0.33528483 -0.42487606 4
15.04554 1.8926965 1.86192 25
3.3266027 0.41847944 -0.41167468 3
15.034952 1.8886919 2.400018 32
4.4836006 0.56243551 -0.39533845 4
15.02126 1.8816537 2.9426565 25
6.8808599 0.86071497 -0.3634209 8
15.01302 1.8779531 3.4930401 30
14.6757 1.8331571 -0.258156 18
14.505912 1.8093846 3.9169676 15
1.6469496 0.20338729 -0.44465113 8
15.043739 1.8551359 0.26457849 33
1.9031852 0.23435719 -0.44270366 4
15.045554 1.8527014 0.79445988 45
2.1843569 0.26859248 -0.4277938 80
15.025338 1.8448808 1.3244187 34
2.6606624 0.32621846 -0.4245632 4
15.022179 1.8391707 1.858264 22
3.3240311 0.40696231 -0.4111872 3
15.011719 1.8352311 2.3953247 31
4.4656634 0.5451529 -0.39359534 4
15.002083 1.8287386 2.9376955 23
6.9114327 0.84127253 -0.36488631 8
15.011427 1.8272189 3.4912403 35
14.68964 1.7854416 -0.25829563 21
14.477312 1.7570776 3.90765 15
1.6456969 0.1976946 -0.44413349 8
15.025983 1.8023769 0.26415962 37
1.9020172 0.22781245 -0.44225377 4
15.034083 1.7980329 0.79351783 42
2.2008305 0.26321295 -0.43084675 85
15.007634 1.7922058 1.3223269 36
2.6558452 0.31669116 -0.4236246 4
15.006512 1.7867665 1.8555828 25
3.3372591 0.39676204 -0.41264963 3
14.990571 1.7795621 2.3909445 31
4.4674468 0.53034002 -0.39359534 4
14.97492 1.775054 2.9312079 26
6.900301 0.81670356 -0.36415362 6
14.992555 1.7718379 3.4853916 37
14.687838 1.733227 -0.258156 27
14.458416 1.7035888 3.9009209 15
1.6502147 0.19239584 -0.44516876 8
15.008347 1.747151 0.26374078 37
1.895058 0.22027129 -0.44045416 4
15.010509 1.7420853 0.79194778 48
2.201736 0.25552842 -0.43084675 85
14.990047 1.7370665 1.3202351 38
2.6549723 0.30719087 -0.42331171 4
14.979133 1.730496 1.8514392 26
3.3386233 0.38511273 -0.41264963 3
14.979032 1.7251865 2.3881288 32
4.4771881 0.51565313 -0.39429256 4
14.95372 1.7196271 2.9258652 26
6.8475518 0.78623432 -0.3612228 9
14.971543 1.7163819 3.4790931 39
14.685851 1.6810328 -0.25801638 25
14.441241 1.6504799 3.8947091 16
1.6604743 0.18771978 -0.44775698 7
14.99051 1.6920559 0.26332191 39
1.8900061 0.21299975 -0.43910447 5
14.976805 1.685215 0.78985435 48
2.2006633 0.24762231 -0.4304651 85
14.97424 1.6822801 1.3183178 38
2.6619177 0.29858127 -0.42425033 4
14.951546 1.6744461 1.8472956 28
3.3438928 0.37389669 -0.41313711 3
14.95944 1.6700361 2.3840616 31
4.4829211 0.50046259 -0.39464122 4
14.942071 1.6654642 2.9224308 28
6.862164 0.76365393 -0.36185086 7
14.942581 1.6602336 3.4709947 37
14.667779 1.6271167 -0.25759751 28
14.431554 1.5983623 3.890568 17
1.6611196 0.18192205 -0.44775698 7
14.974459 1.6373312 0.26293796 41
1.8984867 0.2072483 -0.44090405 5
14.950828 1.6294595 0.78817958 50
2.1839492 0.23802407 -0.42703056 63
14.954271 1.6272013 1.3160516 36
2.6688354 0.28992823 -0.42518893 5
14.943484 1.6207429 1.8455895 27
3.3293893 0.36051154 -0.4111872 3
14.931791 1.6142017 2.3787427 33
4.480679 0.48438388 -0.39429256 4
14.924372 1.6107645 2.9178512 29
6.914432 0.74504328 -0.36446762 6
14.917285 1.6047324 3.4637964 37
14.641559 1.5724862 -0.25703904 28
14.408234 1.544884 3.8828034 17
1.6560117 0.17522307 -0.44620407 7
14.948541 1.5790712 0.26237947 39
1.9108616 0.20151438 -0.44360349 5
14.936837 1.5725633 0.78713286 52
2.1887119 0.2304295 -0.4277938 64
14.92447 1.5686278 1.3129141 36
2.6718445 0.28035122 -0.42550179 4
14.941427 1.5651374 1.8446145 29
3.330688 0.34830704 -0.4111872 3
14.910102 1.5565948 2.3743625 33
4.4784608 0.46754536 -0.39394394 4
14.902837 1.5532073 2.9125087 31
6.8972511 0.71763027 -0.3634209 8
14.903683 1.5480298 3.4592972 39
14.631311 1.5171649 -0.25675982 29
14.381131 1.4886863 3.8740036 16
1.6527697 0.16904786 -0.44516876 8
14.914175 1.5228221 0.26168138 35
1.9134922 0.19504009 -0.44405338 4
14.916405 1.5177821 0.78577214 48
2.1992686 0.22378117 -0.42970186 67
14.896156 1.5131024 1.3099508 37
2.6669109 0.27042449 -0.4245632 4
14.9073 1.5089704 1.8397398 28
3.3437338 0.3378768 -0.41264963 3
14.89186 1.5021564 2.3706081 37
4.4761009 0.45150867 -0.39359534 4
14.878868 1.4982227 2.9067845 27
6.9692674 0.70054293 -0.36708444 4
14.885727 1.4936652 3.4538987 35
14.62458 1.4648832 -0.25655037 29
14.357407 1.4355977 3.8662391 17
1.6533498 0.16327794 -0.44516876 7
14.893529 1.4681983 0.26122761 39
1.8889494 0.18587905 -0.43820465 4
14.911672 1.4647316 0.78524876 48
2.2078516 0.21687107 -0.43122834 69
14.887467 1.4597309 1.3087306 35
2.6639063 0.26072928 -0.42393744 4
14.870987 1.4528747 1.8346213 24
3.3567476 0.32735813 -0.41411206 3
14.885216 1.4490197 2.368731 33
4.4875646 0.43684751 -0.39446688 4
14.852742 1.4432418 2.9006784 25
6.9796224 0.67698073 -0.36750311 4
14.875332 1.4401959 3.4502993 37
14.621641 1.4130585 -0.25641075 31
14.341178 1.383428 3.8605449 17
1.6635253 0.15842097 -0.44775698 7
14.882637 1.4146835 0.26094839 37
1.8992867 0.180205 -0.44045416 4
14.87494 1.408713 0.78305066 43
2.2027321 0.20860705 -0.43008351 67
14.872637 1.405876 1.3069874 32
2.6608672 0.2510584 -0.42331171 4
14.852251 1.3987188 1.8316964 24
3.3460114 0.31452331 -0.41264963 3
14.858716 1.3941025 2.3637249 32
4.4771605 0.42006463 -0.39342102 4
14.838143 1.3895528 2.8968625 25
6.9560909 0.65019494 -0.36614239 4
14.845345 1.3850075 3.4422011 42
14.602592 1.3597821 -0.25599191 31
14.322838 1.3312103 3.8543334 18
1.6582967 0.15208505 -0.44620407 7
14.871554 1.3612697 0.26066914 37
1.9057264 0.17410554 -0.44180387 4
14.853672 1.3570188 0.78168994 47
2.1897604 0.19967036 -0.42741215 64
14.849675 1.3514274 1.3045471 32
2.6656618 0.24212536 -0.42393744 4
14.841228 1.3454357 1.8297465 25
3.3470359 0.30342647 -0.41264963 3
14.827844 1.3416133 2.3580933 27
4.4905047 0.40550777 -0.39446688 4
14.821394 1.3358141 2.8926644 22
6.9742327 0.6273427 -0.36697978 4
14.826565 1.3336717 3.4368021 39
14.567187 1.3077775 -0.25529379 29
14.321402 1.2831856 3.8527803 20
1.6491704 0.1457344 -0.44361585 7
14.85009 1.3096654 0.26021537 41
1.912117 0.16829702 -0.44315359 4
14.848143 1.3068751 0.78116655 50
2.1943223 0.19275075 -0.42817542 65
14.828273 1.2999178 1.302281 33
2.6703861 0.23362797 -0.4245632 4
14.829787 1.2948347 1.8277966 25
3.3519788 0.29267165 -0.41313711 3
14.808598 1.2903802 2.3543391 27
4.4938102 0.39078587 -0.39464122 4
14.808139 1.2851326 2.88923 24
6.9961724 0.60593653 -0.36802649 4
14.805666 1.2823147 3.4309535 35
14.547538 1.2573934 -0.25487494 29
14.283234 1.2320442 3.8413925 20
1.661194 0.14124709 -0.44672167 7
14.830442 1.2583807 0.25979653 43
1.9107227 0.16179124 -0.44270366 4
14.834702 1.2535342 0.7802245 50
2.2145119 0.18712653 -0.43199161 87
14.802722 1.2482229 1.2996664 36
2.6672091 0.22444062 -0.42393744 4
14.810262 1.2436597 1.8248718 28
3.360893 0.28163144 -0.41411206 2
14.791358 1.2368661 2.3508976 31
4.4951468 0.37510026 -0.39464122 4
14.777102 1.2330843 2.8823609 27
6.9881911 0.58190244 -0.36750311 4
14.802284 1.2299759 3.4291539 40
14.543865 1.2059543 -0.25473532 37
14.273972 1.18106 3.837769 21
1.659775 0.13499974 -0.44620407 7
14.80086 1.2038453 0.25920314 41
1.8957371 0.15385985 -0.43910447 5
14.815099 1.1998051 0.77896845 50
2.2034419 0.17805827 -0.42970186 83
14.791309 1.192682 1.2982719 42
2.67589 0.21529761 -0.42518893 4
14.776917 1.188926 1.8202407 27
3.3460255 0.26862627 -0.41216215 3
14.785739 1.1844416 2.349333 32
4.4964285 0.35940579 -0.39464122 4
14.758039 1.1770314 2.8777814 27
6.970367 0.55470264 -0.36645639 4
14.777554 1.1734042 3.4224052 37
14.528052 1.1535927 -0.25438628 33
14.258747 1.1296977 3.8325925 20
1.6621621 0.12935625 -0.44672167 7
14.789225 1.1483542 0.25892389 38
1.900174 0.14721206 -0.44000426 4
14.775588 1.142114 0.77666569 52
2.2177517 0.17142637 -0.4323732 70
14.773532 1.1393543 1.2963545 40
2.676625 0.20595498 -0.42518893 4
14.763363 1.1333936 1.818047 28
3.3509462 0.2566646 -0.41264963 2
14.760438 1.1279796 2.34464 36
4.5056028 0.34431419 -0.39533845 4
14.744438 1.1241759 2.874347 29
6.980227 0.53097224 -0.36687508 4
14.742697 1.1188604 3.4134073 39
14.500279 1.0979245 -0.25382781 34
14.251234 1.0765592 3.8294866 20
1.66453 0.12369615 -0.44723931 7
14.765223 1.0946563 0.25843525 38
1.9162239 0.14172773 -0.44360349 4
14.743631 1.0878812 0.77478158 52
2.2046311 0.16267206 -0.42970186 67
14.753574 1.0860262 1.2942628 37
2.6852078 0.19718982 -0.42644039 4
14.743471 1.0801085 1.8151222 28
3.3518217 0.24496678 -0.41264963 2
14.736702 1.0744414 2.34026 36
4.5226736 0.32974458 -0.39673293 4
14.732609 1.0715581 2.8712938 31
6.9860225 0.50689077 -0.36708444 4
14.725132 1.0658475 3.4084582 40
14.472113 1.0449944 -0.25326934 34
14.224075 1.024582 3.8212047 20
1.6495354 0.11679392 -0.44309825 7
14.745017 1.0414219 0.25801638 35
1.9186509 0.13517444 -0.44405338 4
14.745167 1.0388391 0.77467692 50
2.1993101 0.15456302 -0.42855701 65
14.72945 1.0325724 1.2918224 37
2.6819389 0.18753918 -0.42581466 4
14.73725 1.0279502 1.8139035 27
3.356617 0.23354149 -0.41313711 2
14.716537 1.0239245 2.3365054 35
4.5118723 0.31312668 -0.39568707 4
14.708838 1.0182301 2.8659513 30
6.9917336 0.48278183 -0.36729378 4
14.711266 1.0132316 3.4044092 37
14.455548 0.99561918 -0.25292027 35
14.190776 0.97490162 3.8113694 19
1.6537881 0.11129425 -0.44413349 6
14.720458 0.99063611 0.25752771 36
1.9132553 0.12842008 -0.44270366 4
14.726781 0.98589814 0.77352554 50
2.2076721 0.14740767 -0.43008351 67
14.713085 0.97982287 1.2900794 37
2.6707199 0.17785749 -0.42393744 4
14.702945 0.97657025 1.8092724 24
3.3652959 0.2229332 -0.41411206 3
14.710166 0.97189277 2.3349411 37
4.5089612 0.29711431 -0.39533845 4
14.684708 0.96763688 2.8606086 29
6.9853244 0.45906791 -0.36687508 4
14.698989 0.9634251 3.40081 39
14.448957 0.94450468 -0.25274575 42
14.176743 0.92422581 3.8067107 20
1.6657155 0.10654974 -0.44723931 6
14.703871 0.93796927 0.25717866 36
1.9117471 0.12161748 -0.44225377 5
14.702064 0.93528473 0.7720601 48
2.2238233 0.1410808 -0.43313646 71
14.698358 0.92989087 1.2885104 38
2.6752675 0.16878317 -0.4245632 4
14.684471 0.92387342 1.8065913 26
3.3700163 0.21143247 -0.41459954 3
14.687679 0.92149478 2.3308737 35
4.5218525 0.28290778 -0.39638433 4
14.664484 0.91490799 2.856029 29
6.9868841 0.4346799 -0.36687508 4
14.675032 0.91042393 3.3945115 42
14.430057 0.89522594 -0.2523618 39
14.162375 0.87613142 3.8020518 22
1.664149 0.10061841 -0.44672167 7
14.688935 0.88812798 0.25686452 38
1.9043591 0.11480761 -0.44045416 5
14.679321 0.88239741 0.77069938 50
2.2164629 0.13284796 -0.43160996 69
14.679638 0.8772741 1.2865931 27
2.6718686 0.15967432 -0.42393744 4
14.667638 0.87398809 1.8041539 27
3.358809 0.19955024 -0.41313711 3
14.667142 0.86882091 2.3271194 36
4.5267901 0.26735559 -0.39673293 4
14.655678 0.86557519 2.8537395 30
6.9843006 0.41127479 -0.36666575 4
14.648788 0.86003745 3.3877628 47
14.409138 0.84344411 -0.25194293 35
14.153776 0.82601786 3.7989461 21
1.6625447 0.094988681 -0.44620407 7
14.685956 0.83650357 0.25675982 40
1.9086396 0.10838082 -0.44135398 4
14.656389 0.82968724 0.76933861 52
2.2090511 0.12505274 -0.43008351 67
2.6921322 0.15145692 -0.42706612 3
14.654743 0.82189697 1.802204 29
3.3555212 0.18760367 -0.41264963 3
14.632612 0.81552529 2.3211749 33
4.5276957 0.25155345 -0.39673293 4
14.642928 0.81354386 2.8506866 32
6.977716 0.38645217 -0.36624706 4
14.632244 0.80782032 3.3832638 47
14.384041 0.79159945 -0.25145426 34
14.137285 0.77555174 3.7937698 24
1.6628819 0.088894092 -0.44620407 6
14.660831 0.78373659 0.25627115 45
1.918736 0.10223661 -0.44360349 4
14.641247 0.77756464 0.76839662 56
2.2036128 0.11664341 -0.42893866 66
12.078998 0.63726705 1.0582449 0
2.6966147 0.14179553 -0.42769188 3
14.62977 0.76927412 1.7987916 29
3.364085 0.17630425 -0.41362458 3
14.61367 0.76331967 2.3177333 36
4.5006905 0.23429599 -0.39429256 4
14.618363 0.75844151 2.8453438 32
6.9890585 0.3613922 -0.36677042 3
14.617591 0.75328559 3.3792148 43
14.366745 0.74035883 -0.25110522 34
14.097461 0.724015 3.7823815 24
1.663182 0.083089359 -0.44620407 6
14.627655 0.72821015 0.25564286 47
1.9132588 0.094913244 -0.44225377 4
14.61607 0.72251922 0.76693118 53
2.2040067 0.10895113 -0.42893866 66
2.6813092 0.13160627 -0.42518893 3
14.614646 0.7147786 1.796598 28
3.378588 0.1646502 -0.41533077 2
14.604532 0.70916718 2.3158562 36
4.5213819 0.21954936 -0.39603567 4
14.589546 0.70589435 2.8392382 31
6.9902778 0.33699179 -0.36677042 3
14.600666 0.70131725 3.3747158 37
14.353383 0.6869356 -0.250826 34
14.065286 0.67068726 3.7730644 31
1.6711811 0.07764145 -0.44827461 6
14.602142 0.67584741 0.25515419 12
1.9077383 0.087965272 -0.44090405 4
14.596557 0.67048329 0.76577979 13
2.2220242 0.10206722 -0.4323732 70
12.031404 0.55055052 1.0537128 0
2.6738589 0.12188797 -0.42393744 3
14.591273 0.66258514 1.7934294 28
3.3632774 0.15213719 -0.41338086 2
14.595078 0.65766007 2.3139789 36
4.5261011 0.20394795 -0.39638433 4
14.570347 0.65399075 2.8350403 26
6.9914112 0.31258726 -0.36677042 3
14.587451 0.64966357 3.3711166 34
14.331721 0.6357615 -0.25040713 37
14.057891 0.62115598 3.7704761 23
1.6733718 0.071891524 -0.44879225 6
7.2722378 0.31115547 0.12705351 17
1.9119279 0.081470907 -0.44180387 4
2.2184439 0.094145328 -0.43160996 69
8.1077652 0.34265232 0.70997071 1
2.6821628 0.11288528 -0.42518893 4
14.571681 0.61072975 1.7907482 28
3.3637881 0.14039694 -0.41338086 3
14.565599 0.60793531 2.3089728 36
4.5267859 0.18814647 -0.39638433 4
14.556849 0.60247344 2.8319874 27
6.9924603 0.28818223 -0.36677042 3
14.554583 0.59729773 3.3630183 34
14.331753 0.58815312 -0.25037223 11
14.054083 0.57429445 3.768923 26
1.6697519 0.065897129 -0.44775698 6
7.1493454 0.28215048 0.12488942 8
1.9141347 0.075206257 -0.44225377 4
7.0948305 0.27751881 0.37210867 2
2.2167974 0.086323962 -0.43122834 69
14.577328 0.56509864 1.2763087 38
2.6943655 0.10444865 -0.42706612 3
14.55379 0.56164932 1.7883109 28
3.3761368 0.12969933 -0.41484326 2
14.543946 0.55617857 2.3052187 38
4.5353785 0.17264798 -0.39708155 4
14.545033 0.55368495 2.8293159 28
7.0033555 0.26537234 -0.36729378 3
14.535062 0.54821771 3.3580692 35
7.2457914 0.27202258 -0.12656485 7
14.028975 0.52423275 3.7616761 26
1.652586 0.059731185 -0.44309825 6
7.1203103 0.25611275 0.12436585 13
1.9202281 0.068734668 -0.44360349 4
7.1795878 0.25573573 0.3765049 1
2.2013755 0.07841263 -0.42817542 65
14.543281 0.51548785 1.2731711 36
2.6907654 0.094905525 -0.42644039 4
14.545741 0.51049173 1.7870922 28
3.376569 0.11791273 -0.41484326 2
14.522108 0.50459415 2.3014641 37
4.5379171 0.15767728 -0.39725587 4
14.521371 0.50202423 2.8243549 29
7.0122242 0.24119723 -0.36771247 3
14.527149 0.49714738 3.3558199 42
7.0748229 0.24087806 -0.12356304 4
14.011413 0.47460157 3.7564998 22
1.6624385 0.05427698 -0.44568643 6
7.1231594 0.23132308 0.12440075 6
1.9204563 0.062030893 -0.44360349 4
7.1325278 0.22913171 0.37399277 1
2.2094848 0.070979469 -0.42970186 50
14.511137 0.4636406 1.2702078 40
2.6910803 0.085511699 -0.42644039 4
14.511721 0.45858198 1.7827048 26
3.3848965 0.10637572 -0.41581824 2
14.513909 0.45358706 2.2998998 40
4.5244999 0.14139917 -0.39603567 4
14.497525 0.45053551 2.8193939 30
7.0170159 0.21684337 -0.3679218 3
14.513213 0.44595939 3.3522205 43
6.9976687 0.21379736 -0.12220175 2
13.989812 0.42498875 3.7502882 22
1.6664799 0.048587397 -0.44672167 6
7.1119304 0.20610772 0.12419132 6
1.9109216 0.055045798 -0.44135398 5
7.1073294 0.20349495 0.37263206 4
2.2214935 0.063605145 -0.43199161 70
14.337408 0.40799335 1.2548684 37
2.6874132 0.076005146 -0.42581466 4
14.322741 0.40257949 1.759306 27
3.3733413 0.094226114 -0.41435578 2
14.339664 0.39803925 2.2720544 33
4.530941 0.1257695 -0.39655861 4
14.310608 0.39473331 2.7827585 29
7.0017586 0.19190846 -0.36708444 4
14.327673 0.39019921 3.3090301 39
6.9723859 0.18866792 -0.12174799 9
13.979623 0.37583739 3.7471824 23
1.6801579 0.043116473 -0.45034516 6
7.122602 0.18153746 0.12436585 9
1.9111021 0.048375506 -0.44135398 5
7.109993 0.1787328 0.37273672 2
2.2099261 0.055553686 -0.42970186 67
14.324803 0.35759893 1.2536482 38
2.6896372 0.066673383 -0.42612755 4
14.308183 0.35218677 1.7573562 27
3.3617427 0.082158491 -0.41289338 2
14.305419 0.34712252 2.2664227 32
4.5313525 0.10995375 -0.39655861 4
14.300123 0.34449685 2.7804687 30
7.0183587 0.16784674 -0.3679218 4
14.297776 0.33944687 3.3018315 39
6.9849968 0.16461276 -0.12195742 3
13.969262 0.32676232 3.7440765 25
1.6725596 0.03766425 -0.44827461 7
7.1211386 0.15911359 0.12433095 9
1.9229342 0.042630889 -0.44405338 5
7.1404715 0.15705538 0.3743068 4
2.2100899 0.048611149 -0.42970186 50
14.30992 0.31224272 1.2522538 37
2.6878581 0.058181081 -0.42581466 4
14.293341 0.30688959 1.7554061 29
3.3818307 0.072020166 -0.41533077 2
14.276815 0.30155608 2.26173 33
4.5476108 0.096055008 -0.39795309 2
14.289357 0.29931927 2.7781792 31
7.0248423 0.14592288 -0.36823583 3
14.271495 0.29396835 3.2955329 39
6.991477 0.14278844 -0.12206213 2
13.947042 0.28240836 3.7378647 25
1.6572288 0.031531252 -0.44413349 7
7.1096544 0.13403055 0.12412152 17
1.9152775 0.03577226 -0.44225377 5
7.1469674 0.13223849 0.37462083 2
2.2102461 0.040895615 -0.42970186 67
14.287019 0.26185474 1.250162 37
2.695945 0.04894105 -0.42706612 4
14.286386 0.25685492 1.7544312 24
3.3741221 0.060074292 -0.41435578 2
14.279756 0.25174987 2.2620428 25
4.5359664 0.079968378 -0.39690727 2
14.072427 0.24563797 2.7358193 44
7.0153241 0.12122966 -0.36771247 3
14.274382 0.24417926 3.2959828 29
7.0679107 0.11967065 -0.12338851 3
13.917038 0.23320745 3.7295825 25
1.6689185 0.025926646 -0.44723931 6
7.0660906 0.10853486 0.12335361 14
1.9231849 0.029204322 -0.44405338 6
7.1553731 0.10741152 0.37503949 1
2.2143016 0.033239566 -0.4304651 51
14.271908 0.21174189 1.2487675 37
2.6921492 0.039471515 -0.42644039 4
14.326894 0.2075627 1.759306 60
3.3941603 0.048579235 -0.41679317 2
14.310176 0.20231776 2.2667358 68
4.5242758 0.063176781 -0.39586139 2
14.04179 0.19607893 2.7297137 50
7.0236926 0.096849151 -0.36813116 3
14.210845 0.19347167 3.281136 51
7.1662617 0.096316628 -0.12509885 4
13.890723 0.18426405 3.7223358 27
1.6670706 0.019787021 -0.44672167 6
7.0824223 0.084063657 0.12363284 3
1.9135321 0.022377443 -0.44180387 6
7.1077738 0.081879899 0.37252739 1
2.2242239 0.025234314 -0.4323732 70
14.248681 0.15916741 1.2466757 37
2.6903007 0.029582903 -0.42612755 4
3.3784294 0.036559973 -0.41484326 2
4.5324378 0.04746598 -0.39655861 4
14.032598 0.1445072 2.7278056 52
7.0200057 0.071066499 -0.3679218 3
14.2251 0.14152387 3.2842853 10
7.2705336 0.072333694 -0.12691391 7
13.879692 0.13566488 3.7192299 26
1.6709931 0.013999663 -0.44775698 6
7.1666679 0.058788449 0.12509885 1
1.9116526 0.015348624 -0.44135398 6
2.2184091 0.01742438 -0.43122834 86
14.241179 0.10936426 1.2459785 38
2.688412 0.020177562 -0.42581466 5
14.619812 0.10717566 1.7951355 4
3.390451 0.024261532 -0.41630572 3
14.560147 0.10164893 2.3061571 5
4.5505066 0.031768505 -0.39812744 4
14.017311 0.095419452 2.7247527 52
7.0282001 0.046612784 -0.36834049 3
14.570426 0.094091743 3.3639181 8
7.3507357 0.04618958 -0.12831008 7
13.876233 0.084765218 3.7181947 25
1.6768272 0.0081946012 -0.44930989 6
7.2908087 0.034360986 0.12726295 3
1.9136431 0.0086839516 -0.44180387 6
2.2145298 0.0096628573 -0.4304651 68
14.215574 0.059553888 1.2437124 36
2.7003186 0.010839993 -0.42769188 4
18.109863 0.069538504 2.223628 5
3.3905149 0.012428833 -0.41630572 2
14.301641 0.049923658 2.2651713 2
4.5585594 0.015912855 -0.39882466 4
14.001854 0.046433505 2.7216997 52
7.0223284 0.022065507 -0.36802649 3
14.60964 0.043349601 3.372916 14
7.3648496 0.020567575 -0.12855442 13
13.853262 0.036263227 3.711983 22
1.6691183 0.0023308937 -0.44723931 6
7.3228793 0.0089482609 0.12782143 3
1.9214568 0.0020116882 -0.44360349 6
7.9830418 0.0069685103 0.41837367 1
2.2184768 0.0019365398 -0.43122834 69
14.181826 0.0099044694 1.2407491 34
2.696389 0.0014112694 -0.42706612 4
18.264833 0.0063807615 2.2426398 3
3.3905377 0.00059274869 -0.41630572 2
14.270123 -0 2.2601655 3
4.5406556 -0 -0.39725587 2
13.982298 -0.0024403713 2.7178833 55
7.0283542 -0.0024533586 -0.36834049 5
14.638935 -0.0076649291 3.3796647 21
7.1189141 -0.0049699405 -0.12426113 8
13.826259 -0.012065688 3.704736 23
1.6691161 -0.0034957936 -0.44723931 6
7.3828568 -0.0167512 0.12886856 3
1.9195035 -0.0046902411 -0.44315359 6
8.0349455 -0.021035485 0.42109516 3
2.220433 -0.0058130925 -0.43160996 69
14.157865 -0.039536316 1.2386574 32
2.6845253 -0.0079651708 -0.42518893 4
18.717344 -0.058802467 2.2982123 4
3.4024298 -0.011282925 -0.41776815 2
14.248306 -0.049736172 2.2567239 4
4.5386357 -0.01584289 -0.39708155 4
13.954718 -0.051146943 2.7125409 53
7.0362921 -0.027017554 -0.36875919 4
14.549177 -0.058404449 3.3589692 11
7.1388507 -0.029903321 -0.12461019 4
13.802949 -0.060227107 3.6985245 25
1.6671621 -0.0093112858 -0.44672167 6
7.3327618 -0.042234141 0.12799595 11
1.9116806 -0.011344275 -0.44135398 6
2.2302153 -0.01362378 -0.43351805 72
14.145686 -0.088881135 1.2376115 32
2.6884317 -0.017361376 -0.42581466 4
18.879799 -0.12521741 2.3181989 4
3.3924441 -0.023091991 -0.41654944 2
14.222365 -0.09929245 2.2526565 7
4.5445299 -0.031727314 -0.3976045 2
13.928933 -0.099675059 2.7075799 48
7.0361547 -0.051578633 -0.36875919 4
14.513809 -0.10892695 3.3508708 11
7.1626983 -0.055006653 -0.12502904 3
13.794928 -0.10834733 3.6964538 26
1.6767782 -0.015218372 -0.44930989 6
7.2965765 -0.067497037 0.12736766 22
1.9116293 -0.018017214 -0.44135398 6
2.2242646 -0.021352066 -0.4323732 70
14.139313 -0.13819984 1.2370886 33
2.6962557 -0.026824253 -0.42706612 4
19.065836 -0.1930083 2.3411102 4
3.3764634 -0.034770165 -0.41459954 2
14.192305 -0.14862688 2.2479637 10
4.5483756 -0.047632214 -0.39795309 2
13.920649 -0.14821191 2.7060535 45
7.0339351 -0.076117471 -0.36865449 3
14.548415 -0.15997462 3.3589692 13
7.2044535 -0.080477871 -0.12576205 3
13.779012 -0.15632464 3.6923127 26
1.6728516 -0.021022778 -0.44827461 6
7.3422861 -0.093552418 0.12817048 16
1.9193491 -0.024790607 -0.44315359 6
2.2241766 -0.029116068 -0.4323732 70
2.7040467 -0.036341965 -0.42831761 4
19.271475 -0.26236975 2.3664591 4
3.3922083 -0.046182912 -0.41654944 2
14.158154 -0.19522643 2.2426448 18
4.5481815 -0.063508719 -0.39795309 2
13.914156 -0.19671986 2.7049084 42
7.0436115 -0.10081293 -0.36917788 4
14.541959 -0.20813437 3.3576195 19
7.2581329 -0.10515036 -0.12670447 3
13.7591 -0.2017334 3.6871362 28
1.6727726 -0.026570041 -0.44827461 7
1.9173077 -0.031123633 -0.44270366 6
2.2083638 -0.036233876 -0.42932025 66
2.7039113 -0.045308705 -0.42831761 4
19.451118 -0.32933292 2.3886392 9
3.3960063 -0.057498839 -0.41703692 3
14.143603 -0.24193896 2.2404547 31
4.547946 -0.078590676 -0.39795309 2
13.897724 -0.24258567 2.7018557 41
7.0532227 -0.12434587 -0.36970121 3
14.543137 -0.25639045 3.3580692 24
7.4196944 -0.13210201 -0.12953176 16
13.733246 -0.24690765 3.6804068 28
1.6649493 -0.031968661 -0.44620407 7
8.1652241 -0.15820593 0.14255126 1
1.9210908 -0.037557669 -0.44360349 6
8.0533791 -0.15885112 0.42214185 3
2.2258976 -0.043905336 -0.43275481 71
14.073446 -0.28005284 1.2315106 36
2.6997964 -0.054195669 -0.42769188 3
19.449919 -0.39383331 2.3886392 11
3.4037235 -0.069514893 -0.41801187 2
14.126874 -0.29098246 2.2379518 40
4.5556121 -0.094631016 -0.39865038 4
13.865438 -0.28801847 2.6957495 42
7.0467815 -0.14760903 -0.36938724 4
14.534361 -0.30698928 3.3562698 22
7.6750913 -0.16345055 -0.13399959 9
13.71878 -0.29455385 3.6767833 30
1.6628896 -0.038026623 -0.44568643 7
8.1566257 -0.18652408 0.14241165 1
1.9189998 -0.044218402 -0.44315359 6
14.226638 -0.33030054 0.74578744 31
2.2316101 -0.052201092 -0.4338997 90
14.060373 -0.3313511 1.2304648 36
2.6877306 -0.063809238 -0.42581466 4
19.537729 -0.46384397 2.3996074 5
3.40346 -0.081395686 -0.41801187 2
14.104049 -0.33976939 2.2345102 41
4.563221 -0.11072581 -0.3993476 2
13.85644 -0.33864409 2.6942232 41
7.0441966 -0.17338662 -0.36928254 4
14.525345 -0.36006516 3.35447 26
13.696426 -0.34190926 3.6710896 29
1.6781962 -0.044238213 -0.44982749 7
8.2198544 -0.21811572 0.14352858 1
1.9090846 -0.050991427 -0.44090405 6
14.213352 -0.38211951 0.74515945 51
2.2333765 -0.060043313 -0.43428129 73
14.047181 -0.38010556 1.2294189 36
2.6993394 -0.073513448 -0.42769188 4
19.736317 -0.54094338 2.4242251 1
3.391233 -0.093541034 -0.41654944 3
14.077039 -0.3907485 2.2304428 46
4.5667906 -0.12676434 -0.39969626 2
13.84536 -0.38673589 2.6923151 34
7.0495381 -0.19814277 -0.36959657 4
14.488935 -0.40977421 3.3463719 22
7.9095931 -0.22507969 -0.13811834 1
13.697012 -0.39216214 3.6716073 29
1.6838245 -0.050268885 -0.45138043 6
8.2909994 -0.24896778 0.14478517 1
1.9205821 -0.058008064 -0.44360349 6
14.181987 -0.43082136 0.74358934 46
2.2174544 -0.067361988 -0.43122834 69
14.025854 -0.42852864 1.2276758 36
2.706964 -0.083178133 -0.42894334 4
19.968435 -0.61706775 2.4529862 1
3.3908858 -0.10537808 -0.41654944 3
14.053871 -0.43920544 2.2270014 54
4.570303 -0.14282911 -0.40004486 2
13.84 -0.43493953 2.6915519 26
7.0488033 -0.22274904 -0.36959657 4
14.043328 -0.44623631 3.2437942 9
13.946757 -0.44560432 -0.24356578 16
13.670458 -0.43916482 3.6648779 28
1.664331 -0.055502344 -0.44620407 6
14.193865 -0.47581908 0.24789397 26
1.9242631 -0.064843044 -0.44450328 6
14.186385 -0.48052594 0.74390334 49
2.2230923 -0.075301312 -0.4323732 70
14.006352 -0.47687522 1.226107 37
2.7027087 -0.09249156 -0.42831761 4
20.172489 -0.69386387 2.4783351 1
3.394465 -0.11735101 -0.41703692 2
14.036458 -0.48771113 2.2244983 57
4.5578289 -0.15836644 -0.39899898 2
13.824664 -0.48276788 2.6888807 9
7.0439906 -0.24721251 -0.36938724 4
13.948203 -0.49195689 3.2221987 54
13.915141 -0.49322236 -0.24304222 34
13.647605 -0.48612452 3.6591837 29
1.6679882 -0.06145386 -0.44723931 6
14.166139 -0.52440029 0.24744022 40
1.9240251 -0.071559586 -0.44450328 6
14.164661 -0.52929688 0.74285662 49
2.2326252 -0.083427452 -0.43428129 73
13.98071 -0.52486664 1.2240152 34
2.6944733 -0.10162739 -0.42706612 4
3.4019694 -0.12950124 -0.41801187 3
14.024801 -0.53632712 2.222934 61
4.5612302 -0.17442754 -0.3993476 4
14.007304 -0.53810632 2.7247527 22
7.0510678 -0.27210718 -0.3698059 4
14.078817 -0.54577535 3.2527924 72
13.91933 -0.54202574 -0.24314694 44
13.624591 -0.53293008 3.6534898 27
1.6774149 -0.067665175 -0.44982749 6
14.140244 -0.57287478 0.24702136 42
1.9062393 -0.077562213 -0.44045416 6
14.146863 -0.57561606 0.74201924 46
2.2362437 -0.091380589 -0.43504456 74
13.974813 -0.57350188 1.2236667 37
2.690155 -0.11086956 -0.42644039 4
14.010697 -0.57987344 1.7217702 65
3.393563 -0.14104579 -0.41703692 3
14.00913 -0.58225787 2.2207439 67
4.5725379 -0.19084667 -0.40039349 2
13.985725 -0.5861755 2.7209363 63
7.0381026 -0.2962144 -0.36917788 5
14.010629 -0.59211856 3.2374957 79
13.889484 -0.58699876 -0.24265826 40
13.609237 -0.57753444 3.6498661 28
1.6771685 -0.073520035 -0.44982749 6
14.13627 -0.6196748 0.24698645 39
1.9079185 -0.083968788 -0.44090405 6
14.116835 -0.6237601 0.74055386 48
2.2221818 -0.098576933 -0.4323732 70
13.962773 -0.6218363 1.222795 36
2.6976664 -0.12014139 -0.42769188 4
13.986883 -0.62535614 1.7190892 46
3.3970428 -0.1524765 -0.4175244 3
13.999119 -0.63079965 2.2194924 65
4.5738344 -0.20689666 -0.40056777 4
13.981743 -0.63246191 2.7205548 48
7.0390763 -0.31964257 -0.36928254 5
13.987174 -0.63760006 3.2325466 57
13.86338 -0.63438171 -0.24223942 39
13.603278 -0.62485874 3.6488311 27
1.6827046 -0.079354338 -0.45138043 7
14.124033 -0.66854316 0.24681193 40
1.9212396 -0.091275506 -0.44405338 6
14.10659 -0.67265272 0.74013513 46
2.2159595 -0.10566489 -0.43122834 51
13.942722 -0.66727793 1.2212263 37
2.7051229 -0.12993637 -0.42894334 4
3.3964899 -0.16433346 -0.4175244 3
13.963288 -0.67803305 2.2141736 70
4.5651627 -0.22167638 -0.39987054 4
7.0478921 -0.34469941 -0.3698059 4
14.362464 -0.70495439 3.3198276 24
13.835117 -0.68149108 -0.24178565 38
13.58172 -0.67138553 3.6436548 27
1.6669823 -0.084445678 -0.44723931 7
14.101643 -0.71682584 0.24646288 37
1.917017 -0.097782776 -0.44315359 6
14.0882 -0.72107309 0.73929775 52
2.2155774 -0.11339939 -0.43122834 69
13.912452 -0.71451235 1.2187859 37
2.7007072 -0.13917489 -0.42831761 3
21.249817 -1.0987803 2.6126354 5
3.3998604 -0.17639412 -0.41801187 3
13.945056 -0.72594839 2.2116706 74
4.5643616 -0.23761043 -0.39987054 4
16.676708 -0.87107068 3.2460427 6
7.0546236 -0.36971718 -0.3702246 5
14.363808 -0.75528908 3.3207276 27
13.814681 -0.7288323 -0.2414715 36
13.560001 -0.71776927 3.6384783 30
1.6724645 -0.090577431 -0.44879225 7
14.085077 -0.76528603 0.24621855 42
1.9244473 -0.10489807 -0.44495317 6
14.081609 -0.77002758 0.73908848 52
2.2288904 -0.12188289 -0.4338997 72
13.897937 -0.76241678 1.2177401 37
2.6982324 -0.14849271 -0.42800474 4
21.4837 -1.1860806 2.6418839 5
3.4071522 -0.18869987 -0.41898686 3
13.938492 -0.77440208 2.211045 76
4.5535569 -0.2529889 -0.39899898 2
16.591238 -0.92468935 3.230015 3
7.0512962 -0.39422864 -0.37011993 5
14.351356 -0.804878 3.3184779 30
13.810056 -0.77693784 -0.24143659 38
13.541985 -0.76422739 3.6343372 31
1.6740667 -0.096526071 -0.44930989 7
14.062355 -0.81329286 0.2458695 42
1.914342 -0.11105073 -0.44270366 6
14.068865 -0.81859678 0.73856509 49
2.238251 -0.1302326 -0.43580776 75
13.883257 -0.81022847 1.2166941 38
2.6957259 -0.15779498 -0.42769188 4
21.70336 -1.2742125 2.6694264 6
3.4064729 -0.20059192 -0.41898686 3
13.923873 -0.82235301 2.2091677 76
4.56458 -0.26958707 -0.40004486 2
16.505596 -0.97772211 3.2139866 2
7.0399084 -0.41824764 -0.36959657 6
14.332896 -0.85404134 3.3148787 29
13.789295 -0.82406557 -0.24112245 37
13.525735 -0.81068391 3.6307137 29
1.6775941 -0.10231216 -0.45034516 7
14.047606 -0.85918838 0.24566007 47
1.9120182 -0.11727901 -0.44225377 6
14.03034 -0.86059034 0.73668098 51
2.2280092 -0.13705152 -0.4338997 72
13.878506 -0.8561399 1.2165198 38
2.7030742 -0.16722134 -0.42894334 4
14.029468 -0.87036842 1.7259138 8
3.4018264 -0.21164057 -0.41849938 3
13.901505 -0.86486548 2.206039 72
4.5835457 -0.28596291 -0.40178797 2
13.970688 -0.87406528 2.7209363 4
7.0424695 -0.44184062 -0.3698059 6
14.207457 -0.8938573 3.2865348 27
13.774664 -0.86662829 -0.24091302 36
13.526977 -0.85341555 3.6317489 30
1.673371 -0.10791876 -0.44930989 6
14.032707 -0.90499508 0.24545066 35
1.9155082 -0.12387034 -0.44315359 6
14.007321 -0.9082678 0.73563427 46
2.2177215 -0.14419101 -0.43199161 70
13.861515 -0.90367234 1.2152996 39
2.7103896 -0.17669816 -0.43019485 4
3.389221 -0.22214128 -0.41703692 3
13.87869 -0.91209006 2.2029104 69
4.5864964 -0.30222276 -0.40213659 2
7.0489373 -0.46571857 -0.3702246 6
13.860242 -0.91816652 3.2069023 52
13.751601 -0.91338044 -0.24056397 33
13.498857 -0.89895952 3.6250196 31
1.6614393 -0.11268294 -0.44620407 7
14.015496 -0.95302308 0.24520631 37
1.9247853 -0.1312187 -0.4454031 7
14.006058 -0.95729303 0.73573893 49
2.2133138 -0.15127668 -0.43122834 69
13.836576 -0.94813555 1.2133822 40
2.7018733 -0.18561657 -0.42894334 3
13.876668 -0.95574951 1.7078772 59
3.3963461 -0.23451747 -0.41801187 3
13.853745 -0.9590295 2.1994689 65
4.5754752 -0.31754103 -0.40126503 4
13.858653 -0.96179986 2.7003291 66
7.0492611 -0.49045974 -0.37032926 6
13.868616 -0.96735579 3.2096016 73
13.730377 -0.96012139 -0.24024983 30
13.472511 -0.94445264 3.618808 28
1.6629422 -0.11890943 -0.44672167 7
13.98416 -0.99994373 0.24471764 37
1.9262592 -0.13807596 -0.44585299 6
13.996655 -1.0057482 0.73542494 46
2.22841 -0.16051629 -0.43428129 73
13.819098 -0.99783844 1.212162 42
2.693294 -0.19494775 -0.42769188 4
13.861367 -1.0033225 1.7064147 46
3.4073863 -0.24723345 -0.4194743 2
13.842432 -1.0068091 2.1982174 65
4.5743384 -0.33351049 -0.40126503 4
13.808043 -1.0091534 2.6911702 63
7.0454245 -0.51614738 -0.3702246 5
13.826107 -1.0153258 3.2006035 84
13.722952 -1.0077506 -0.24018003 30
13.461428 -0.99090761 3.6167376 28
1.6682963 -0.12514701 -0.44827461 6
13.974419 -1.0507418 0.24461293 39
1.9179673 -0.14454934 -0.44405338 6
13.974949 -1.0556875 0.73448288 46
2.2337089 -0.16873755 -0.43542615 74
13.80361 -1.0451674 1.2111162 42
2.7004759 -0.20494583 -0.42894334 3
13.970422 -1.0627024 1.7203078 28
3.4024987 -0.25941867 -0.41898686 2
13.83077 -1.0569353 2.1969659 67
4.5810928 -0.35008314 -0.40196225 4
13.784861 -1.055847 2.6873541 67
7.0316315 -0.53982002 -0.36959657 5
13.806934 -1.0623858 3.1970043 34
13.715178 -1.0577334 -0.2401102 32
13.45 -1.039644 3.6146669 28
1.6774788 -0.13172586 -0.4508628 5
13.954718 -1.0982602 0.2443337 42
1.9096801 -0.15063044 -0.44225377 6
13.937332 -1.1017871 0.73270345 46
2.2252779 -0.17591476 -0.4338997 72
13.795905 -1.0930297 1.2107675 42
2.699744 -0.21437101 -0.42894334 3
13.958712 -1.110832 1.7193328 31
3.393657 -0.27066272 -0.41801187 3
13.813212 -1.1041055 2.1947758 61
4.5838156 -0.36638945 -0.40231091 4
13.769349 -1.1030182 2.6850643 64
7.0257225 -0.56404203 -0.36938724 5
13.886668 -1.1172949 3.2163501 7
13.687484 -1.1036733 -0.23969135 38
13.434735 -1.0856532 3.6115611 28
1.6673819 -0.13679078 -0.44827461 5
13.950799 -1.1469646 0.2443337 42
1.9188535 -0.15809564 -0.44450328 6
13.92564 -1.1473429 0.73228478 48
2.2207372 -0.18335825 -0.43313646 71
13.762222 -1.1387155 1.2081529 38
2.7068539 -0.22444651 -0.43019485 4
13.950793 -1.1592214 1.7188454 24
3.3847785 -0.28184825 -0.41703692 2
13.787821 -1.1481026 2.1913342 64
4.5964069 -0.38354751 -0.40353107 4
13.769327 -1.1514026 2.6858275 67
7.0356526 -0.58956367 -0.37001523 5
13.832194 -1.1615217 3.2046525 9
13.66183 -1.1472158 -0.2393074 36
13.423362 -1.1295505 3.6094906 27
1.6630446 -0.14228082 -0.44723931 5
13.930979 -1.191857 0.24405445 42
1.922202 -0.16479084 -0.4454031 6
13.90961 -1.1949197 0.73165673 42
2.2200835 -0.19110897 -0.43313646 71
13.744269 -1.1855491 1.2069327 42
2.7060947 -0.23342152 -0.43019485 4
14.071467 -1.2162468 1.7342008 7
3.4075575 -0.29512647 -0.41996178 3
13.771921 -1.1951994 2.1894569 65
4.5672517 -0.39717314 -0.40109071 2
13.738051 -1.1946758 2.6804848 67
7.0237103 -0.61202461 -0.3694919 5
13.801087 -1.2050114 3.198354 4
13.643799 -1.1936775 -0.23906307 12
13.386621 -1.1735318 3.6006906 28
1.6664122 -0.14813702 -0.44827461 5
1.9196739 -0.17132632 -0.44495317 6
2.2272592 -0.1991694 -0.43466291 73
2.6934586 -0.24180636 -0.42831761 3
6.3623395 -0.57230103 0.78435117 2
3.4065065 -0.30701929 -0.41996178 3
4.5758305 -0.41321242 -0.40196225 4
6.3750725 -0.57793331 -0.33547351 14
6.4083591 -0.58207864 1.4855767 3
6.3587494 -0.57869148 -0.11145107 22
1.6774268 -0.15501963 -0.45138043 5
6.3538508 -0.58831042 0.11138126 30
1.9132431 -0.17748618 -0.44360349 6
6.3677793 -0.59184194 0.33515951 37
2.222641 -0.20657943 -0.4338997 72
6.3799233 -0.59409386 0.56058574 45
2.6965318 -0.25157383 -0.42894334 4
6.3464675 -0.59321308 0.78264499 23
3.4054143 -0.31890833 -0.41996178 3
6.3525681 -0.59602016 1.0105668 23
4.59023 -0.43067142 -0.40335676 4
6.338891 -0.59585303 1.2375872 23
6.3531318 -0.59831035 -0.33442679 17
6.3616648 -0.60023415 1.4752289 22
6.3586817 -0.60107243 -0.11148597 26
6.3351736 -0.59996581 1.7050999 14
1.6845676 -0.16161194 -0.45345098 5
6.3577299 -0.61105984 0.11148597 30
1.9067925 -0.18360324 -0.44225377 6
6.3518648 -0.611615 0.33442679 35
2.2258143 -0.21471363 -0.43466291 73
6.3619461 -0.61482716 0.55919123 30
2.6995695 -0.26136562 -0.42956907 4
6.3384309 -0.61478794 0.78191376 22
3.3924255 -0.32964155 -0.41849938 2
6.3426919 -0.61631852 1.0093153 24
4.5886989 -0.44669172 -0.40335676 4
6.3328638 -0.61759514 1.236824 25
6.3430538 -0.61970645 -0.33400813 16
6.3420763 -0.62072849 1.47118 22
6.3526731 -0.62176561 -0.11141616 28
6.3446846 -0.62210178 1.7082058 17
1.6763037 -0.16672641 -0.45138043 5
6.3576584 -0.63233739 0.11152088 29
1.9216864 -0.19147107 -0.44585299 6
6.3417416 -0.63298994 0.33400813 31
2.2191911 -0.2218959 -0.43351805 72
6.3458838 -0.63564062 0.55797106 25
2.6672394 -0.26716623 -0.4245632 6
6.3363571 -0.63580352 0.78191376 20
3.3913138 -0.34088942 -0.41849938 3
6.3287096 -0.63726753 1.0074381 24
4.606935 -0.46470618 -0.4050999 4
6.3288283 -0.63839531 1.2364424 25
6.3548737 -0.64214295 -0.33474082 20
6.339983 -0.64175612 1.47118 22
6.3385267 -0.64272642 -0.11120673 28
6.3270993 -0.64268327 1.7040646 18
1.6642114 -0.17109887 -0.44827461 6
6.347456 -0.65370649 0.11138126 30
1.9229447 -0.1983778 -0.44630289 6
6.3336482 -0.65340161 0.3336941 35
2.2321129 -0.23066643 -0.43618938 75
6.3318501 -0.65544999 0.55692518 27
2.6937983 -0.27932736 -0.42894334 4
6.3360739 -0.65812266 0.78215748 22
3.4019499 -0.35395786 -0.41996178 3
6.312808 -0.65681982 1.005248 26
4.5974422 -0.47915468 -0.40440264 4
6.3226562 -0.66007543 1.2356791 27
6.3525934 -0.66432166 -0.33474082 15
6.3260756 -0.66266477 1.4684805 22
6.326417 -0.66270053 -0.11103221 27
6.3095622 -0.66204834 1.6999235 18
1.663604 -0.176907 -0.44827461 6
6.3154254 -0.6715799 0.11085769 27
1.924214 -0.20495984 -0.44675279 6
6.3333139 -0.67571807 0.33379877 26
2.2254376 -0.23783068 -0.43504456 74
6.3295236 -0.67754823 0.55692518 26
2.6967854 -0.28867927 -0.42956907 4
6.3299088 -0.67870694 0.78167003 20
3.3968098 -0.36481321 -0.4194743 3
6.3202972 -0.67990798 1.0068123 24
4.5838556 -0.4939191 -0.40335676 4
6.3028641 -0.67914551 1.2322445 23
6.3424125 -0.68452674 -0.33432212 21
6.3393426 -0.68531471 1.4720796 22
6.3200884 -0.68434924 -0.1109624 24
6.3014512 -0.68344396 1.6983706 18
1.6706895 -0.18326534 -0.45034516 6
6.3150306 -0.69383919 0.11089259 29
1.9138017 -0.21060951 -0.44450328 5
6.3229761 -0.69694602 0.33338007 32
2.2226853 -0.24499407 -0.43466291 73
6.3193207 -0.69765943 0.55622798 27
2.6918347 -0.29765683 -0.42894334 4
6.2998791 -0.69773901 0.77825767 22
3.4073536 -0.37798131 -0.42093676 3
6.3159218 -0.70174766 1.0064995 26
4.5940742 -0.51043707 -0.40440264 4
6.3024068 -0.70135963 1.2326262 26
6.3201356 -0.7044493 -0.33327541 21
6.3272281 -0.70635796 1.4698302 26
6.3156743 -0.70618409 -0.1109275 24
6.3009472 -0.70565087 1.6988882 18
1.6777178 -0.18996543 -0.4524157 8
6.3145571 -0.71610391 0.1109275 27
1.9033735 -0.216189 -0.44225377 6
6.3105826 -0.7178843 0.33285671 30
2.2276688 -0.25341693 -0.43580776 75
6.320806 -0.72016484 0.55657655 23
2.6986296 -0.30794713 -0.43019485 4
6.3013496 -0.72017628 0.77874517 20
3.3981247 -0.38896984 -0.41996178 3
6.3095088 -0.72334015 1.0058737 22
4.6001821 -0.52737802 -0.4050999 4
6.2862668 -0.72178721 1.2299548 21
6.309701 -0.72559369 -0.33285671 21
6.3034286 -0.72598702 1.4648812 22
6.3091974 -0.72776729 -0.11085769 23
6.2965264 -0.72741932 1.6983706 17
1.6732069 -0.19537249 -0.45138043 9
6.3219495 -0.73930275 0.11110201 29
1.9103492 -0.22373843 -0.44405338 6
6.3040709 -0.73944271 0.33264738 35
2.2150712 -0.25981915 -0.43351805 72
6.3142962 -0.7417593 0.55622798 27
2.703424 -0.31805769 -0.43113342 4
6.2987971 -0.74216771 0.77874517 23
3.3967462 -0.40082917 -0.41996178 3
6.2834048 -0.74257797 1.0021193 27
4.5943556 -0.54296476 -0.40475124 4
6.2993064 -0.74557209 1.2330078 25
6.3150635 -0.74855459 -0.33327541 22
6.2950506 -0.74729657 1.4635316 29
6.3006616 -0.74907786 -0.11075297 27
6.2862754 -0.74848026 1.6963001 18
1.6667607 -0.20051964 -0.44982749 7
6.3034477 -0.7594524 0.11082278 27
1.9192301 -0.23157263 -0.44630289 6
6.2994685 -0.76120383 0.33254269 31
2.2219472 -0.26849166 -0.43504456 74
6.2879329 -0.76092345 0.55413622 26
2.702297 -0.32749245 -0.43113342 4
6.2961683 -0.76415008 0.77874517 20
3.4012382 -0.41340214 -0.42069301 3
6.2807741 -0.76450664 1.0021193 23
4.5884771 -0.55851734 -0.40440264 4
6.281075 -0.76565564 1.2299548 21
6.3084464 -0.77010965 -0.33306605 21
6.3001409 -0.77021176 1.4653312 26
6.2801442 -0.76887965 -0.11043882 24
6.2817073 -0.7701838 1.6957825 15
1.6660506 -0.2063365 -0.44982749 7
6.2928209 -0.78046644 0.11068317 29
1.9145423 -0.23779021 -0.4454031 5
6.3047013 -0.78417462 0.33296138 33
2.2209964 -0.27624607 -0.43504456 74
6.2852383 -0.78286785 0.55413622 27
2.6893764 -0.33545622 -0.42925623 4
6.285583 -0.78513902 0.77777022 23
3.4214416 -0.42798242 -0.42337415 3
6.2741475 -0.78593487 1.0014936 27
