# .PCD v0.7 - Point Cloud Data file format
VERSION 0.7
FIELDS x y z rgba
SIZE 4 4 4 4
TYPE F F F U
COUNT 1 1 1 1
WIDTH 1378
HEIGHT 1
VIEWPOINT 0 0 0 1 0 0 0
POINTS 1378
DATA ascii
2.652082 -0.39588311 0.61906528 0
2.6976244 -0.40316266 -0.047610167 0
2.638514 -0.39479932 0.71485823 0
2.6851242 -0.40560752 0.047400735 0
2.6738124 -0.40485346 0.14172579 0
2.6810119 -0.40642226 0.23723793 0
2.6592755 -0.40407676 0.33026594 0
2.65979 -0.40510491 0.42612755 0
2.6905758 -0.40979382 -0.23810948 0
2.6395154 -0.40248829 0.51900047 0
2.6871362 -0.41022968 -0.14245848 0
2.6449049 -0.40425488 0.6177156 0
2.6863174 -0.4110643 -0.047435641 0
2.6409388 -0.40459213 0.71589351 0
2.6876445 -0.41558906 0.047470544 0
2.670409 -0.41387838 0.14162111 0
2.6835144 -0.41638923 0.23758654 0
2.661772 -0.4139671 0.33075345 0
2.6427453 -0.41195279 0.4236246 0
2.683223 -0.41826251 -0.23758654 0
2.6419742 -0.41230494 0.51976377 0
2.6935811 -0.42084029 -0.14287716 0
2.637702 -0.41258144 0.61636591 0
2.6690612 -0.4179638 -0.047156405 0
2.6356936 -0.41320986 0.71485823 0
2.6763017 -0.42340577 0.047296021 0
2.674866 -0.42413574 0.14193512 0
2.6741736 -0.4245044 0.2368893 0
2.6681523 -0.42450348 0.33172837 0
2.6354389 -0.42024201 0.42268598 0
2.667974 -0.42543 -0.23636638 0
2.6366413 -0.42090559 0.51900047 0
2.6842067 -0.42897934 -0.14245848 0
2.6497154 -0.42394134 0.61951524 0
2.671535 -0.42791054 -0.047226213 0
2.6227901 -0.42057243 0.71175241 0
2.6669114 -0.43146774 0.047156405 0
2.6773877 -0.43364221 0.14214447 0
2.6589091 -0.43160188 0.23566914 0
2.664695 -0.43349573 0.33148462 0
2.6398799 -0.42993173 0.4236246 0
2.6605735 -0.43377858 -0.23584343 0
2.6274056 -0.42884165 0.517474 0
2.6866353 -0.43899047 -0.14266783 0
2.6502182 -0.43303999 0.61996508 0
2.6681278 -0.43644455 -0.047191311 0
2.6175683 -0.42864323 0.71071708 0
2.6595471 -0.43933144 0.047051687 0
2.6680532 -0.44121492 0.14172579 0
2.6613944 -0.44106817 0.23601775 0
2.6456184 -0.43940261 0.32929099 0
2.6364911 -0.43835953 0.42331171 0
2.668947 -0.44423455 -0.23671499 0
2.6220961 -0.43690675 0.51671082 0
2.6713746 -0.44559699 -0.14193512 0
2.6391566 -0.44022292 0.6177156 0
2.6824448 -0.44792479 -0.047470544 0
2.6123214 -0.43668398 0.70968187 0
2.6620193 -0.44881329 0.047121495 0
2.6645274 -0.45019275 0.14162111 0
2.6697395 -0.45155257 0.2368893 0
2.6402326 -0.44750988 0.32880351 0
2.6427348 -0.44888306 0.4245632 0
2.6673801 -0.45354822 -0.23671499 0
2.6148262 -0.44461221 0.51556593 0
2.6718512 -0.4547883 -0.14203981 0
2.6299198 -0.44812331 0.61591601 0
2.6670666 -0.45493189 -0.047226213 0
2.6260157 -0.44840136 0.71382296 0
2.6683192 -0.45946008 0.047261119 0
2.6452262 -0.45643446 0.14067906 0
2.6582503 -0.45963731 0.23601775 0
2.6406102 -0.45706186 0.32904723 0
2.6294739 -0.45607969 0.42268598 0
2.6677437 -0.4631972 -0.2368893 0
2.6247847 -0.45621023 0.51785564 0
2.6701663 -0.46457806 -0.14203981 0
2.6244202 -0.45709068 0.61501622 0
2.6457617 -0.46080771 -0.046877164 0
2.6168218 -0.45623791 0.71175241 0
2.6646478 -0.46889031 0.047226213 0
2.6514847 -0.46705112 0.14109775 0
2.640933 -0.46614301 0.23462325 0
2.640872 -0.46708286 0.32929099 0
2.6200852 -0.46387801 0.42143452 0
2.6445305 -0.46868196 -0.23497188 0
2.6193099 -0.46468374 0.51709241 0
2.6685286 -0.47389585 -0.14203981 0
2.6228087 -0.46624884 0.61501622 0
2.6480749 -0.47074035 -0.046946973 0
2.5999978 -0.46266198 0.70761132 0
2.6512687 -0.47560552 0.047016785 0
2.6478727 -0.47595033 0.14099309 0
2.6353683 -0.47465244 0.23427464 0
2.6393087 -0.47583771 0.32929099 0
2.6223381 -0.47372332 0.42206025 0
2.6448393 -0.47826484 -0.23514619 0
2.6022995 -0.47057238 0.51403946 0
2.6590807 -0.48131943 -0.14162111 0
2.6289179 -0.47633353 0.61681581 0
2.6483831 -0.48033783 -0.046981879 0
2.5945649 -0.4710446 0.70657599 0
2.6417241 -0.48341745 0.046877164 0
2.6560175 -0.48699126 0.14151645 0
2.6396587 -0.48446798 0.23479758 0
2.6200604 -0.4818165 0.32709733 0
2.6323245 -0.48502177 0.42393744 0
2.639235 -0.48677135 -0.23479758 0
2.5948489 -0.47858492 0.51289463 0
2.6534564 -0.48987323 -0.14141177 0
2.6234066 -0.484799 0.61591601 0
2.6525893 -0.49067071 -0.047086593 0
2.6005032 -0.48150533 0.7086466 0
2.6478839 -0.4941031 0.047016785 0
2.6228898 -0.49038666 0.13984169 0
2.641782 -0.49487329 0.23514619 0
2.6183624 -0.49095926 0.32709733 0
2.6189671 -0.492019 0.42206025 0
2.6453519 -0.4974539 -0.23549481 0
2.596936 -0.48881865 0.51365787 0
2.651643 -0.49959534 -0.14141177 0
2.6024623 -0.49079955 0.611417 0
2.6469302 -0.49918577 -0.047016785 0
2.6007051 -0.49093822 0.70916426 0
2.6539125 -0.50530082 0.047156405 0
2.6328459 -0.50224221 0.14046971 0
2.6341672 -0.50297076 0.23462325 0
2.6243446 -0.50204474 0.32807231 0
2.6093857 -0.50012732 0.42080876 0
2.6435995 -0.50668484 -0.23549481 0
2.6029263 -0.49936029 0.51518428 0
2.6459603 -0.50809503 -0.14120242 0
2.6045606 -0.50061655 0.61231679 0
2.6293733 -0.50586158 -0.046737548 0
2.5913 -0.49900568 0.70709366 0
2.6462433 -0.51341903 0.047051687 0
2.6271555 -0.51066732 0.14026037 0
2.6187055 -0.50949919 0.23340309 0
2.6245246 -0.51158214 0.32831606 0
2.599869 -0.50771832 0.4195573 0
2.6261709 -0.5128547 -0.23410031 0
2.595387 -0.50731331 0.51403946 0
2.6520109 -0.51886195 -0.14162111 0
2.6047099 -0.51007962 0.61276668 0
2.6275916 -0.51503676 -0.046737548 0
2.5876467 -0.50767601 0.70657599 0
2.6326647 -0.52032667 0.046842258 0
2.6234884 -0.51898885 0.1401557 0
2.6071393 -0.51670033 0.23253153 0
2.6207757 -0.52035373 0.32807231 0
2.605921 -0.5178771 0.42080876 0
2.6224105 -0.52162993 -0.233926 0
2.5878239 -0.51521969 0.51289463 0
2.6501834 -0.52811599 -0.14162111 0
2.6086466 -0.52031207 0.61411637 0
2.6219471 -0.52296495 -0.046667732 0
2.5802658 -0.51511967 0.70502311 0
2.6270037 -0.5282656 0.04677245 0
2.6373243 -0.53129882 0.14099309 0
2.6150849 -0.52776861 0.23340309 0
2.6034694 -0.52589726 0.3261224 0
2.6079698 -0.52775395 0.42143452 0
2.6225266 -0.53117621 -0.23410031 0
2.5841768 -0.52340865 0.51251298 0
2.6249285 -0.53213966 -0.14036505 0
2.5992677 -0.52740979 0.61231679 0
2.6279445 -0.53370607 -0.046807356 0
2.5803449 -0.52450812 0.70554072 0
2.6251438 -0.53743231 0.04677245 0
2.6061056 -0.53448266 0.139423 0
2.6230788 -0.53844076 0.23427464 0
2.5957847 -0.53378242 0.32539117 0
2.5983725 -0.5352599 0.42018303 0
2.6284618 -0.54193652 -0.23479758 0
2.5804112 -0.53202945 0.51213133 0
2.623055 -0.54129905 -0.14036505 0
2.5878685 -0.53450882 0.61006725 0
2.6221488 -0.5420664 -0.046737548 0
2.5803902 -0.53390342 0.70605838 0
2.627167 -0.54740834 0.046842258 0
2.6003137 -0.54276025 0.13921365 0
2.6113367 -0.54601234 0.23340309 0
2.6016777 -0.54446661 0.32636613 0
2.5810215 -0.54108429 0.41768005 0
2.6168044 -0.54906255 -0.233926 0
2.5822866 -0.54229057 0.51289463 0
2.6269171 -0.55214185 -0.14067906 0
2.585892 -0.54399025 0.61006725 0
2.6084995 -0.54874617 -0.046528116 0
2.5804009 -0.5433054 0.70657599 0
2.6212306 -0.55620354 0.04677245 0
2.6061215 -0.55394828 0.13963234 0
2.6016195 -0.55346584 0.23270583 0
2.6074305 -0.55565351 0.32734108 0
2.5848167 -0.55177778 0.41861868 0
2.6012323 -0.555282 -0.23270583 0
2.5784581 -0.55089086 0.51251298 0
2.6308331 -0.56256109 -0.14099309 0
2.5858831 -0.55342126 0.6105172 0
2.60256 -0.55746549 -0.046458308 0
2.5632813 -0.54951984 0.70243496 0
2.6173186 -0.56492805 0.046737548 0
2.6080763 -0.56388605 0.13984169 0
2.5801988 -0.55833006 0.23096271 0
2.607415 -0.56517231 0.32758483 0
2.584805 -0.56121618 0.41893157 0
2.6031723 -0.56520414 -0.23305444 0
2.5707641 -0.55863738 0.5113681 0
2.6229985 -0.57046759 -0.14067906 0
2.5839355 -0.56244427 0.6105172 0
2.6123214 -0.56910056 -0.046667732 0
2.5651224 -0.55928707 0.70347023 0
2.5957987 -0.56977361 0.046388499 0
2.5944874 -0.56996036 0.13921365 0
2.5938005 -0.57075864 0.2323572 0
2.5821633 -0.56914294 0.32465994 0
2.581001 -0.56935912 0.41861868 0
2.6011837 -0.57428741 -0.23305444 0
2.5572963 -0.56506616 0.50907844 0
2.6112404 -0.57746375 -0.1401557 0
2.5800538 -0.57103932 0.61006725 0
2.6201823 -0.57992089 -0.046842258 0
2.5707982 -0.56946146 0.70554072 0
2.6056056 -0.5809896 0.046597924 0
2.5963805 -0.57988405 0.139423 0
2.6015141 -0.58198404 0.23322876 0
2.5802619 -0.57770258 0.32465994 0
2.5732152 -0.57706821 0.41768005 0
2.6069393 -0.58510906 -0.2337517 0
2.5707331 -0.57698286 0.51213133 0
2.6112599 -0.58655751 -0.14026037 0
2.5610344 -0.57574517 0.60601819 0
2.6005836 -0.58511299 -0.046528116 0
2.5556018 -0.57546109 0.70191729 0
2.6016116 -0.58963925 0.046563022 0
2.5886002 -0.5871653 0.13910899 0
2.5879126 -0.58795923 0.23218289 0
2.5821011 -0.58758688 0.32514745 0
2.5616572 -0.5834049 0.41611573 0
2.6010995 -0.59286529 -0.23340309 0
2.5572188 -0.58333308 0.50984168 0
2.6072493 -0.59522438 -0.1401557 0
2.5571091 -0.58424723 0.60556823 0
2.5888815 -0.59150654 -0.046353593 0
2.5499132 -0.58307135 0.70088202 0
2.5976932 -0.5978148 0.046528116 0
2.5904269 -0.59709483 0.13931833 0
2.5780792 -0.59519649 0.23148565 0
2.5859406 -0.59748679 0.32587865 0
2.5596051 -0.59234321 0.41611573 0
2.5893092 -0.59969348 -0.23253153 0
2.5552704 -0.59180993 0.50984168 0
2.6110981 -0.60522002 -0.14046971 0
2.5570562 -0.59316403 0.60601819 0
2.5926449 -0.60189652 -0.046458308 0
2.5535076 -0.59328026 0.70243496 0
2.5897489 -0.60551298 0.046423402 0
2.5922163 -0.60704422 0.13952768 0
2.5683322 -0.60192394 0.23078841 0
2.5819068 -0.60605615 0.32563493 0
2.5594449 -0.60172641 0.4164286 0
2.5872002 -0.60872817 -0.23253153 0
2.5417225 -0.59802806 0.50755197 0
2.5992489 -0.61204189 -0.13994636 0
2.5606601 -0.60342711 0.60736781 0
2.5944207 -0.61186087 -0.046528116 0
2.5439 -0.60041493 0.70036435 0
2.5740006 -0.61131477 0.046179067 0
2.5842524 -0.61470258 0.13921365 0
2.5680468 -0.61179501 0.23096271 0
2.5681894 -0.61230272 0.32417247 0
2.5630929 -0.61203325 0.41736722 0
2.586997 -0.61821854 -0.23270583 0
2.5395136 -0.60733992 0.50755197 0
2.5931034 -0.62063473 -0.13973701 0
2.5546412 -0.61190051 0.60646802 0
2.5903242 -0.62044752 -0.04649321 0
2.5493035 -0.61109251 0.70243496 0
2.5736866 -0.62121409 0.046213973 0
2.5800407 -0.62370092 0.13910899 0
2.5755782 -0.6230979 0.23183426 0
2.5524235 -0.61843938 0.32246631 0
2.5608327 -0.62142336 0.41736722 0
2.5808418 -0.62675583 -0.2323572 0
2.5373781 -0.61620075 0.50755197 0
2.5831583 -0.62779588 -0.13931833 0
2.5430219 -0.6185115 0.60421854 0
2.5802608 -0.62804568 -0.046353593 0
2.5470467 -0.62043202 0.70243496 0
2.585098 -0.63352597 0.046458308 0
2.5700891 -0.63079882 0.13869029 0
2.5713425 -0.63205814 0.23165996 0
2.5656703 -0.63113868 0.32441622 0
2.5452216 -0.62705076 0.41517711 0
2.5767035 -0.63528389 -0.23218289 0
2.5389149 -0.62643713 0.50831515 0
2.584718 -0.63821697 -0.13952768 0
2.538846 -0.62736046 0.60376859 0
2.5664051 -0.63417041 -0.046144161 0
2.5373638 -0.62746406 0.70036435 0
2.5791018 -0.64113009 0.046388499 0
2.5641069 -0.63835305 0.13848096 0
2.5577443 -0.63724309 0.2306141 0
2.5635631 -0.63964331 0.32441622 0
2.5431283 -0.63548762 0.41517711 0
2.5668514 -0.64189172 -0.23148565 0
2.5293157 -0.63250518 0.50678873 0
2.5865753 -0.6473037 -0.13973701 0
2.5444241 -0.637227 0.60556823 0
2.5604086 -0.64170516 -0.046074353 0
2.5277741 -0.633995 0.69829381 0
2.569092 -0.6481722 0.046248876 0
2.5637999 -0.64778888 0.13858563 0
2.5495968 -0.64514714 0.23009115 0
2.553617 -0.64663875 0.32344127 0
2.5389795 -0.6438753 0.41486427 0
2.5607331 -0.64986759 -0.23113704 0
2.523175 -0.64080483 0.50602549 0
2.5841854 -0.65677959 -0.13973701 0
2.5477374 -0.64798963 0.60691798 0
2.560091 -0.65113163 -0.046109259 0
2.5236731 -0.6423381 0.69777614 0
2.5608878 -0.65609509 0.046144161 0
2.5576532 -0.65574223 0.13837628 0
2.5511887 -0.65503389 0.23043977 0
2.5358493 -0.65203905 0.32149133 0
2.5462821 -0.65519536 0.4164286 0
2.5642371 -0.66029274 -0.23165996 0
2.5171206 -0.64862859 0.50526226 0
2.5683393 -0.66230512 -0.13900432 0
2.5436873 -0.65594804 0.60646802 0
2.5655475 -0.6620627 -0.046248876 0
2.5232863 -0.65162653 0.69829381 0
2.5625691 -0.66558921 0.046213973 0
2.5400004 -0.6602006 0.1375389 0
2.5547872 -0.66499603 0.23096271 0
2.5413568 -0.66244757 0.32246631 0
2.5364494 -0.66164112 0.41517711 0
2.5697446 -0.67080534 -0.2323572 0
2.5187547 -0.65796459 0.50602549 0
2.566129 -0.67081833 -0.13900432 0
2.5226443 -0.65945095 0.601969 0
2.563338 -0.6705668 -0.046248876 0
2.5285869 -0.66194743 0.70036435 0
2.5642154 -0.67510158 0.046283782 0
2.5454056 -0.67109948 0.1379576 0
2.5544946 -0.67397273 0.23113704 0
2.5391462 -0.67087138 0.32246631 0
2.5226665 -0.66745937 0.41329992 0
2.5673873 -0.67977136 -0.2323572 0
2.5165591 -0.66631353 0.50602549 0
2.5619595 -0.67881262 -0.13889964 0
2.5127926 -0.66625488 0.60016942 0
2.547452 -0.67592055 -0.046004545 0
2.5225267 -0.66977829 0.69932908 0
2.5560472 -0.68250066 0.046179067 0
2.5469065 -0.68101239 0.13816693 0
2.5385346 -0.67972344 0.22991684 0
2.550211 -0.68332696 0.32417247 0
2.5260451 -0.6777969 0.41423854 0
2.5534534 -0.68562895 -0.23131134 0
2.5216839 -0.67757034 0.50755197 0
2.5748844 -0.69234699 -0.13973701 0
2.525388 -0.67951095 0.60376859 0
2.5431461 -0.68428916 -0.045969639 0
2.5033844 -0.67405891 0.69467032 0
2.5342276 -0.68663496 0.045830019 0
2.5445137 -0.68989873 0.13816693 0
2.5246103 -0.68544823 0.22887097 0
2.5400274 -0.69058621 0.32319754 0
2.5236638 -0.68661028 0.41423854 0
2.5433552 -0.6924445 -0.2306141 0
2.5022554 -0.68172401 0.50411743 0
2.5628173 -0.69870418 -0.13921365 0
2.5230007 -0.68832207 0.60376859 0
2.5503879 -0.69579375 -0.046144161 0
2.4954255 -0.6812669 0.69311744 0
2.5357933 -0.69609362 0.045899831 0
2.5459416 -0.69983518 0.13837628 0
2.5298858 -0.69637156 0.22956821 0
2.5262403 -0.69584256 0.32173508 0
2.5250602 -0.69646585 0.41486427 0
2.5447636 -0.70237845 -0.23096271 0
2.5037661 -0.69106275 0.50488061 0
2.5527856 -0.7050721 -0.13879497 0
2.5169477 -0.69564658 0.6028688 0
2.549871 -0.70522511 -0.046179067 0
2.5004797 -0.6920346 0.69518799 0
2.541054 -0.70708519 0.046039447 0
2.5261676 -0.70389307 0.13743424 0
2.5429161 -0.7090382 0.23096271 0
2.5161481 -0.7025212 0.32076016 0
2.5188088 -0.70421195 0.41423854 0
2.546258 -0.71188623 -0.23131134 0
2.5013385 -0.69979823 0.50488061 0
2.538769 -0.71074796 -0.13816693 0
2.5069983 -0.70232534 0.60106921 0
2.5512445 -0.71520108 -0.046248876 0
2.4999089 -0.70128053 0.69570565 0
2.5462689 -0.71812207 0.046179067 0
2.5275393 -0.71379238 0.13764358 0
2.52317 -0.71303391 0.22939391 0
2.523231 -0.71400243 0.32197884 0
2.508733 -0.71084583 0.41298702 0
2.5399239 -0.71968371 -0.23096271 0
2.5083244 -0.71120298 0.50678873 0
2.5401154 -0.72069585 -0.13837628 0
2.4970326 -0.70894307 0.59926957 0
2.5275731 -0.71809071 -0.045864921 0
2.4918709 -0.70841765 0.69415271 0
2.5399013 -0.72590679 0.046109259 0
2.530793 -0.72425932 0.1379576 0
2.5264115 -0.72348255 0.22991684 0
2.5245397 -0.72390014 0.32246631 0
2.5043375 -0.71905345 0.41267416 0
2.5259058 -0.72524619 -0.22991684 0
2.5039396 -0.71941209 0.50640708 0
2.5491014 -0.73286927 -0.13900432 0
2.5057797 -0.72088772 0.601969 0
2.5250511 -0.72690928 -0.045864921 0
2.4819574 -0.71497256 0.69208211 0
2.5258272 -0.73143095 0.045899831 0
2.5301673 -0.73364514 0.13806225 0
2.5028226 -0.72618991 0.22799942 0
2.5143723 -0.73049253 0.32149133 0
2.5037093 -0.72834253 0.41298702 0
2.5195329 -0.73294568 -0.22956821 0
2.4825633 -0.72266108 0.50259089 0
2.5465276 -0.74176288 -0.13900432 0
2.503248 -0.72963023 0.601969 0
2.5320969 -0.73851848 -0.046039447 0
2.4757376 -0.72254944 0.69104689 0
2.5194211 -0.73911756 0.045830019 0
2.5275912 -0.74247271 0.13806225 0
2.5155647 -0.7394169 0.22939391 0
2.5041897 -0.73702312 0.32051641 0
2.504941 -0.73819453 0.41361275 0
2.5188701 -0.74229932 -0.22974254 0
2.4819086 -0.73187774 0.50297254 0
2.5247667 -0.744995 -0.1379576 0
2.4988167 -0.7378118 0.60151911 0
2.527586 -0.746786 -0.046004545 0
2.4769056 -0.73228234 0.69208211 0
2.5129919 -0.74676812 0.045760211 0
2.5154126 -0.74844319 0.1375389 0
2.5091493 -0.74705631 0.22904527 0
2.4939926 -0.74349141 0.31954145 0
2.5004563 -0.74636883 0.41329992 0
2.5219913 -0.75279683 -0.23026547 0
2.4831009 -0.74166042 0.50373578 0
2.522151 -0.75380343 -0.1379576 0
2.4794228 -0.74150467 0.59746999 0
2.5268795 -0.75617766 -0.046039447 0
2.4817369 -0.74314064 0.69415271 0
2.5276034 -0.7607224 0.046074353 0
2.5090919 -0.75562859 0.13732956 0
2.5141566 -0.75811106 0.22974254 0
2.502784 -0.75563502 0.32100388 0
2.4866219 -0.75122887 0.4114227 0
2.5193479 -0.76159573 -0.23026547 0
2.4861345 -0.75202882 0.50488061 0
2.5233274 -0.76376003 -0.13816693 0
2.4786844 -0.75071985 0.59791994 0
2.5071335 -0.75933617 -0.045725305 0
2.4755614 -0.75024563 0.69311744 0
2.5155022 -0.76618677 0.045899831 0
2.506439 -0.76438224 0.13732956 0
2.4943449 -0.76164573 0.22817372 0
2.5002644 -0.76393044 0.32100388 0
2.4858732 -0.76048219 0.41173556 0
2.5033383 -0.76630294 -0.22904527 0
2.4855044 -0.76084375 0.50526226 0
2.5246 -0.77329332 -0.13837628 0
2.4780445 -0.75950629 0.59836978 0
2.5006442 -0.76691043 -0.045655496 0
2.4581528 -0.75434834 0.68897635 0
2.5070798 -0.77319473 0.045795113 0
2.5094805 -0.77489454 0.13764358 0
2.4879985 -0.76873684 0.22782511 0
2.4975827 -0.77265334 0.32100388 0
2.4850905 -0.76973927 0.41204843 0
2.5007834 -0.77460003 -0.22904527 0
2.4678314 -0.76486552 0.50220931 0
2.525701 -0.78328437 -0.13858563 0
2.4846842 -0.77103949 0.60061932 0
2.5075006 -0.77859968 -0.045830019 0
2.4536595 -0.7623511 0.68845868 0
2.5005479 -0.78074938 0.045725305 0
2.5067604 -0.7836495 0.13764358 0
2.4891028 -0.77860641 0.22817372 0
2.4816101 -0.77721375 0.3192977 0
2.4918127 -0.78136438 0.41361275 0
2.5018666 -0.78451705 -0.22939391 0
2.4651465 -0.77347517 0.50220931 0
2.5058012 -0.78671163 -0.13764358 0
2.4782593 -0.7785399 0.59971952 0
2.506675 -0.7879473 -0.045864921 0
2.4565122 -0.77265024 0.69001162 0
2.505434 -0.79188377 0.045864921 0
2.4889135 -0.78713995 0.1368062 0
2.490169 -0.78849328 0.22852236 0
2.4750974 -0.78467166 0.31881022 0
2.4835591 -0.78783137 0.41267416 0
2.5029109 -0.79445088 -0.22974254 0
2.4624314 -0.78207541 0.50220931 0
2.5011363 -0.79484874 -0.1375389 0
2.4569554 -0.78128046 0.59522051 0
2.5021429 -0.79564947 -0.045830019 0
2.464982 -0.78430659 0.69311744 0
2.5180321 -0.80505949 0.046144161 0
2.4861507 -0.79582316 0.1368062 0
2.4836066 -0.7959646 0.22817372 0
2.4838233 -0.79651207 0.32027265 0
2.47139 -0.79347646 0.41110981 0
2.4963288 -0.8019641 -0.22939391 0
2.4635627 -0.7914378 0.50297254 0
2.5060925 -0.8055833 -0.1379576 0
2.4580615 -0.79061717 0.5961203 0
2.4917359 -0.80192822 -0.045690399 0
2.4603903 -0.79231405 0.69259977 0
2.496181 -0.80768806 0.045795113 0
2.490958 -0.80695862 0.1372249 0
2.4809532 -0.80419612 0.22817372 0
2.4810278 -0.80517745 0.32027265 0
2.4648478 -0.80087763 0.41048408 0
2.4822862 -0.80654371 -0.22834805 0
2.4589181 -0.79942536 0.50259089 0
2.5070639 -0.81556207 -0.13816693 0
2.4645519 -0.80220836 0.59836978 0
2.4832175 -0.80876338 -0.045585688 0
2.4392419 -0.79491174 0.68742341 0
2.4895453 -0.81515187 0.045725305 0
2.4919217 -0.81689316 0.13743424 0
2.4667723 -0.8091256 0.22712786 0
2.4706581 -0.81135547 0.3192977 0
2.46579 -0.81071049 0.41110981 0
2.4794557 -0.81520349 -0.22834805 0
2.4523828 -0.8067767 0.50182766 0
2.5042017 -0.82430828 -0.13816693 0
2.4635875 -0.81141609 0.59881973 0
2.4879758 -0.81993002 -0.045725305 0
2.4401214 -0.80463141 0.68845868 0
2.4809902 -0.82195038 0.04562059 0
2.4890549 -0.82558662 0.13743424 0
2.463933 -0.81773132 0.22712786 0
2.4602757 -0.81747103 0.31832278 0
2.4723172 -0.82243049 0.41267416 0
2.4841573 -0.82636911 -0.22904527 0
2.4421003 -0.81285214 0.50030124 0
2.4823599 -0.82673377 -0.13712022 0
2.4533451 -0.81754625 0.59702009 0
2.4907899 -0.8305074 -0.045830019 0
2.4391308 -0.81375551 0.68897635 0
2.4800022 -0.83124125 0.045655496 0
2.47101 -0.82918686 0.13659686 0
2.4742846 -0.83076626 0.22834805 0
2.4536438 -0.82478899 0.31783527 0
2.4619427 -0.82853526 0.4114227 0
2.4812574 -0.83503544 -0.22904527 0
2.4392481 -0.82137161 0.50030124 0
2.4756737 -0.83411825 -0.13691087 0
2.4449365 -0.82423735 0.5956704 0
2.4840863 -0.83791834 -0.045760211 0
2.4490881 -0.82658917 0.69259977 0
2.4714041 -0.83796656 0.045550782 0
2.4586444 -0.83459729 0.1360735 0
2.4675968 -0.83811665 0.22799942 0
2.4545088 -0.83462697 0.31832278 0
2.4552956 -0.83585078 0.41079697 0
2.4745555 -0.84240735 -0.22869666 0
2.4475167 -0.83367932 0.50259089 0
2.4840896 -0.84662074 -0.1375389 0
2.4420445 -0.83276689 0.5956704 0
2.4678981 -0.84206402 -0.045515876 0
2.438875 -0.83263642 0.69052929 0
2.4741387 -0.84853458 0.045655496 0
2.472717 -0.84901178 0.13701554 0
2.457119 -0.84413552 0.22730216 0
2.459089 -0.84577221 0.3192977 0
2.4430242 -0.84120065 0.40923262 0
2.4602969 -0.84714812 -0.22765081 0
2.4371669 -0.83965969 0.50106448 0
2.4848957 -0.8565886 -0.13774826 0
2.4391227 -0.84128606 0.5956704 0
2.461163 -0.84936887 -0.045446068 0
2.423171 -0.83673072 0.68690574 0
2.4654937 -0.85519975 0.045550782 0
2.4659648 -0.85632765 0.1368062 0
2.4485114 -0.85074574 0.22677925 0
2.4486222 -0.85174221 0.31832278 0
2.4456697 -0.85167217 0.41017124 0
2.4573247 -0.85573095 -0.22765081 0
2.4268053 -0.84557796 0.49953794 0
2.4743466 -0.86262715 -0.13732956 0
2.4380112 -0.85043693 0.5961203 0
2.4619594 -0.85927254 -0.045515876 0
2.4165881 -0.84391028 0.68587047 0
2.4568326 -0.86181498 0.045446068 0
2.4629607 -0.86493027 0.1368062 0
2.4511659 -0.8612687 0.22730216 0
2.4437616 -0.85962552 0.31807902 0
2.4519978 -0.86348474 0.41173556 0
2.4618394 -0.86695057 -0.22834805 0
2.4201355 -0.85273904 0.49877474 0
2.4600189 -0.8672747 -0.13670154 0
2.440541 -0.86088675 0.59746999 0
2.470259 -0.87185436 -0.045725305 0
2.4209139 -0.85491365 0.68794107 0
2.4481556 -0.86838013 0.04534135 0
2.4411056 -0.86683887 0.13575949 0
2.4518995 -0.87115377 0.22765081 0
2.4407461 -0.86815065 0.31807902 0
2.4452467 -0.87071317 0.41110981 0
2.4663062 -0.87821215 -0.22904527 0
2.4208429 -0.86249948 0.49953794 0
2.4569764 -0.8758564 -0.13670154 0
2.4265082 -0.86547256 0.59477055 0
2.4577839 -0.87711138 -0.045550782 0
2.4251924 -0.86595762 0.69001162 0
2.4676969 -0.88502139 0.045760211 0
2.4531028 -0.88075399 0.13659686 0
2.4488437 -0.87970722 0.22765081 0
2.4489086 -0.88069576 0.31954145 0
2.431041 -0.87522858 0.40923262 0
2.4519782 -0.88276637 -0.22799942 0
2.4289 -0.8749367 0.50182766 0
2.4576621 -0.885782 -0.13691087 0
2.419806 -0.87261522 0.59387076 0
2.445302 -0.88229191 -0.045376256 0
2.4148865 -0.87179399 0.68794107 0
2.4533131 -0.88954008 0.045550782 0
2.4481363 -0.88863003 0.13649218 0
2.4382672 -0.88552934 0.22695355 0
2.4495506 -0.89059526 0.32002893 0
2.4242587 -0.88235801 0.40860689 0
2.4413927 -0.88859421 -0.22730216 0
2.4221416 -0.88206625 0.50106448 0
2.4620614 -0.89709044 -0.13732956 0
2.4167452 -0.88105661 0.59387076 0
2.4459648 -0.89219266 -0.045446068 0
2.4009402 -0.87624425 0.68483526 0
2.4464378 -0.89672178 0.045480974 0
2.4562697 -0.90129828 0.13712022 0
2.4276803 -0.89128864 0.22625631 0
2.4371107 -0.89571643 0.31881022 0
2.4285793 -0.89354318 0.40985835 0
2.4420159 -0.89848691 -0.22765081 0
2.4079936 -0.88644624 0.49877474 0
2.4570408 -0.90498883 -0.1372249 0
2.4246264 -0.89353037 0.59657019 0
2.454093 -0.90487611 -0.045655496 0
2.3978667 -0.88461971 0.68483526 0
2.4376674 -0.90317184 0.045376256 0
2.4401581 -0.90457904 0.13638751 0
2.4338934 -0.90322316 0.22712786 0
2.4265258 -0.90145278 0.31783527 0
2.4256029 -0.90159172 0.40985835 0
2.4388647 -0.90700567 -0.22765081 0
2.4030447 -0.89416176 0.49839315 0
2.4519951 -0.91286314 -0.13712022 0
2.4178402 -0.90062809 0.5956704 0
2.4435828 -0.91021705 -0.045515876 0
2.3985405 -0.89391583 0.68587047 0
2.4384048 -0.91265243 0.045446068 0
2.4238937 -0.9081859 0.13565481 0
2.4344568 -0.91311294 0.22747649 0
2.4198062 -0.90809959 0.31734779 0
2.4242902 -0.91074789 0.41017124 0
2.4431436 -0.91831732 -0.22834805 0
2.4037418 -0.90350717 0.49915636 0
2.4452157 -0.9195832 -0.13691087 0
2.4020729 -0.90383697 0.59252107 0
2.4403908 -0.91874111 -0.045515876 0
2.3972135 -0.90296382 0.68638813 0
2.4426856 -0.92398846 0.045585688 0
2.4244447 -0.91805595 0.13586415 0
2.4276891 -0.91976923 0.22712786 0
2.4203336 -0.91794866 0.31783527 0
2.4063222 -0.91359544 0.40766826 0
2.4400849 -0.92641395 -0.22834805 0
2.4079144 -0.91468084 0.50068283 0
2.4531922 -0.93237036 -0.1375389 0
2.4007249 -0.91290891 0.59297097 0
2.4259553 -0.92298776 -0.045306448 0
2.3976579 -0.91270065 0.68742341 0
2.4319737 -0.92965329 0.045446068 0
2.4361479 -0.93222374 0.13670154 0
2.417021 -0.92538816 0.22643061 0
2.4282365 -0.93065417 0.3192977 0
2.4068072 -0.92340475 0.40829399 0
2.4275355 -0.93135744 -0.22747649 0
2.3955426 -0.9195627 0.49877474 0
2.4499228 -0.94092786 -0.1375389 0
2.3975236 -0.92128348 0.59297097 0
2.4208519 -0.93073255 -0.045271542 0
2.3890481 -0.91898376 0.68587047 0
2.4175215 -0.93381345 0.045236636 0
2.4254277 -0.93784052 0.13628285 0
2.4119182 -0.9331007 0.22625631 0
2.4286752 -0.94055843 0.31978518 0
2.4072528 -0.93322849 0.40891972 0
2.4112661 -0.93478435 -0.22625631 0
2.3886573 -0.92649907 0.4980115 0
2.4503477 -0.95091927 -0.13774826 0
2.4015594 -0.93246806 0.59477055 0
2.4213164 -0.94062561 -0.04534135 0
2.3786232 -0.92451811 0.68379998 0
2.4235616 -0.9458819 0.045411162 0
2.4239993 -0.94702792 0.13638751 0
2.4123576 -0.94296491 0.22660492 0
2.4050429 -0.94107354 0.31710407 0
2.4039805 -0.94162565 0.40891972 0
2.4228296 -0.9490087 -0.22765081 0
2.381753 -0.93339878 0.49724829 0
2.432138 -0.95363414 -0.13691087 0
2.4001043 -0.94155717 0.59522051 0
2.4291868 -0.95345545 -0.045550782 0
2.3825743 -0.93563992 0.68587047 0
2.4221053 -0.95506942 0.045446068 0
2.4113901 -0.95181698 0.13586415 0
2.423876 -0.95723444 0.22799942 0
2.398051 -0.94800335 0.31661656 0
2.4043527 -0.95146513 0.40954545 0
2.4195023 -0.95746022 -0.22765081 0
2.3857818 -0.94459784 0.49877474 0
2.4195099 -0.95844012 -0.13638751 0
2.3859329 -0.94562113 0.59252107 0
2.4221261 -0.96045482 -0.045480974 0
2.3846807 -0.94608819 0.68742341 0
2.4168992 -0.96277833 0.045411162 0
2.4080529 -0.96022862 0.13586415 0
2.4205201 -0.96568954 0.22799942 0
2.4002576 -0.9585771 0.31734779 0
2.3900113 -0.9554525 0.40766826 0
2.4235454 -0.9688583 -0.22834805 0
2.3861158 -0.95437813 0.49953794 0
2.4291296 -0.97207433 -0.13712022 0
2.3808086 -0.95321965 0.59207118 0
2.4094772 -0.96518594 -0.045306448 0
2.3867435 -0.9565627 0.68897635 0
2.4098134 -0.96971601 0.04534135 0
2.406708 -0.96895456 0.13596882 0
2.4005027 -0.96743011 0.22643061 0
2.4061017 -0.97066301 0.31856647 0
2.3831663 -0.96189415 0.40704253 0
2.405369 -0.97134382 -0.22695355 0
2.3791292 -0.96123058 0.49877474 0
2.429425 -0.98204464 -0.13732956 0
2.3830545 -0.96330035 0.59342086 0
2.4062634 -0.97317076 -0.045306448 0
2.3692317 -0.95867503 0.68483526 0
2.397321 -0.97393852 0.045166828 0
2.4071825 -0.97843432 0.13617818 0
2.395436 -0.97463435 0.22625631 0
2.4010313 -0.97788787 0.31832278 0
2.3872807 -0.97277343 0.40829399 0
2.3984449 -0.97781074 -0.22660492 0
2.3686571 -0.96614879 0.49724829 0
2.4224567 -0.98858619 -0.13712022 0
2.3906727 -0.97561538 0.5961203 0
2.4048743 -0.98190069 -0.04534135 0
2.3714049 -0.96871817 0.68638813 0
2.394078 -0.98188293 0.045166828 0
2.4019046 -0.98607248 0.1360735 0
2.3903477 -0.98181546 0.226082 0
2.3867593 -0.98131537 0.31686032 0
2.3911774 -0.98410773 0.40954545 0
2.3987017 -0.98769403 -0.22695355 0
2.3654401 -0.97399831 0.49724829 0
2.4099314 -0.99281001 -0.13659686 0
2.3800459 -0.98098415 0.59432071 0
2.4088268 -0.99333858 -0.045480974 0
2.3626513 -0.97477961 0.68483526 0
2.3906362 -0.99023402 0.045166828 0
2.3873782 -0.98986077 0.13544546 0
2.4051352 -0.99820721 0.22782511 0
2.3796527 -0.98811823 0.31637284 0
2.3840795 -0.99093217 0.40891972 0
2.4062772 -1.0006512 -0.22799942 0
2.3654797 -0.9841699 0.4980115 0
2.4081206 -1.0024039 -0.13670154 0
2.3692384 -0.98670393 0.59252107 0
2.4016528 -1.0002034 -0.045411162 0
2.3645844 -0.98524994 0.68638813 0
2.3999035 -1.0043936 0.045411162 0
2.3875928 -0.99973106 0.13565481 0
2.3906112 -1.0019759 0.22677925 0
2.3906593 -1.0029773 0.31832278 0
2.3733201 -0.99618989 0.40766826 0
2.4046066 -1.0098159 -0.22817372 0
2.36746 -0.99470234 0.49915636 0
2.4064476 -1.0115775 -0.1368062 0
2.3621871 -0.99345714 0.59162128 0
2.3870869 -1.0039291 -0.045201734 0
2.3629112 -0.99424708 0.68690574 0
2.3818228 -1.0061214 0.045131925 0
2.3932867 -1.0119485 0.13617818 0
2.3834293 -1.0087613 0.22643061 0
2.3873203 -1.0108995 0.31832278 0
2.3661911 -1.0029267 0.40704253 0
2.3827243 -1.010425 -0.22643061 0
2.358726 -1.0002482 0.4980115 0
2.4067574 -1.0211121 -0.13701554 0
2.3624673 -1.0028079 0.59252107 0
2.3817272 -1.0114739 -0.045166828 0
2.3523142 -0.99946725 0.68483526 0
2.3819752 -1.0159985 0.045201734 0
2.3880808 -1.0190953 0.1360735 0
2.3745742 -1.0143114 0.22590767 0
2.3837769 -1.0192267 0.31832278 0
2.3628521 -1.0107677 0.40704253 0
2.3830242 -1.0198888 -0.22677925 0
2.3498056 -1.0061573 0.49686664 0
2.4013426 -1.0287206 -0.13691087 0
2.3625348 -1.0125837 0.59342086 0
2.3838739 -1.0217297 -0.045271542 0
2.3436604 -1.0049783 0.68328232 0
2.3785927 -1.0238918 0.045201734 0
2.3826745 -1.0266347 0.13596882 0
2.3710191 -1.0225941 0.22590767 0
2.3712709 -1.0231936 0.31710407 0
2.3701901 -1.0237088 0.40891972 0
2.3794494 -1.0282009 -0.22677925 0
2.3446543 -1.0131654 0.49648505 0
2.3869183 -1.0319227 -0.13628285 0
2.3609526 -1.0211862 0.59387076 0
2.3857987 -1.0324273 -0.045376256 0
2.3401382 -1.0131532 0.68328232 0
2.3709764 -1.0314219 0.045131925 0
2.3770645 -1.0345638 0.13586415 0
2.3745618 -1.0344605 0.22660492 0
2.3673246 -1.0322911 0.31710407 0
2.3628011 -1.0308095 0.40829399 0
2.386621 -1.0416971 -0.22782511 0
2.3461442 -1.0245175 0.49762988 0
2.3774476 -1.0386814 -0.13596882 0
2.3534429 -1.0286831 0.59297097 0
2.3783343 -1.0395629 -0.045306448 0
2.348799 -1.0271416 0.68690574 0
2.3840225 -1.0465126 0.045446068 0
2.3697815 -1.0412481 0.13565481 0
2.3709364 -1.042743 0.22660492 0
2.369339 -1.0425341 0.31783527 0
2.3519573 -1.035866 0.40704253 0
2.3829703 -1.0500215 -0.22782511 0
2.3463273 -1.0338753 0.49839315 0
2.3831279 -1.0505879 -0.13649218 0
2.3411038 -1.0325497 0.59072149 0
2.3637137 -1.0430148 -0.04509702 0
2.3451993 -1.0353341 0.68690574 0
2.3840113 -1.0564483 0.045515876 0
2.3736193 -1.0523388 0.1360735 0
2.3601806 -1.0473669 0.22590767 0
2.3674998 -1.0516042 0.31807902 0
2.346704 -1.0428574 0.40672967 0
2.3649106 -1.0514427 -0.22643061 0
2.3427041 -1.0420593 0.49839315 0
2.3867452 -1.0621485 -0.13691087 0
2.3428259 -1.0430933 0.59207118 0
2.3565884 -1.0492208 -0.045027211 0
2.3276355 -1.036817 0.68276465 0
2.3622396 -1.0561861 0.045166828 0
2.3717544 -1.0614338 0.13617818 0
2.3492372 -1.0523411 0.22521043 0
2.3621879 -1.0586374 0.31783527 0
2.3466544 -1.0526596 0.4073554 0
2.3594084 -1.0588757 -0.22625631 0
2.3284886 -1.0449992 0.49610341 0
2.3759217 -1.0667849 -0.13649218 0
2.3464644 -1.0540507 0.59387076 0
2.3620315 -1.0615391 -0.045201734 0
2.3240023 -1.0449355 0.68276465 0
2.3512478 -1.0611351 0.045027211 0
2.3662148 -1.068884 0.1360735 0
2.3529968 -1.0634078 0.22590767 0
2.3440089 -1.0603313 0.31588537 0
2.3537626 -1.0657333 0.40923262 0
2.3611424 -1.0695714 -0.22677925 0
2.3230381 -1.0523106 0.49572179 0
2.364907 -1.0717741 -0.1360735 0
2.3427708 -1.062235 0.59387076 0
2.3637748 -1.072256 -0.045306448 0
2.3273773 -1.056235 0.68483526 0
2.3566284 -1.0734807 0.045201734 0
2.3479309 -1.0705087 0.13523613 0
2.3545213 -1.0745063 0.22643061 0
2.3475165 -1.0718048 0.31686032 0
2.3464351 -1.0723009 0.40860689 0
2.3646424 -1.0811205 -0.22747649 0
2.3263071 -1.0640844 0.49724829 0
2.3609629 -1.0804348 -0.1360735 0
2.3300025 -1.0667585 0.59162128 0
2.3581994 -1.079668 -0.045271542 0
2.327189 -1.0659615 0.68587047 0
2.3690286 -1.0896313 0.045515876 0
2.345994 -1.0795327 0.13534079 0
2.3489466 -1.0818852 0.22625631 0
2.3453753 -1.0812329 0.31710407 0
2.3319147 -1.075521 0.40672967 0
2.3608544 -1.089368 -0.22747649 0
2.3332736 -1.0771354 0.49953794 0
2.36443 -1.0920192 -0.13649218 0
2.3209577 -1.0724329 0.59027153 0
2.3453398 -1.0836991 -0.04509702 0
2.3234539 -1.0740786 0.68587047 0
2.3581464 -1.0941149 0.045376256 0
2.3494573 -1.0910803 0.13575949 0
2.341542 -1.0883982 0.22590767 0
2.3525767 -1.0940267 0.31856647 0
2.3281462 -1.0836543 0.40672967 0
2.3462002 -1.0925559 -0.22643061 0
2.3261292 -1.0832094 0.49877474 0
2.3662269 -1.1023842 -0.1368062 0
2.3244538 -1.0834167 0.59207118 0
2.3451674 -1.0935695 -0.045166828 0
2.3091862 -1.0772818 0.68276465 0
2.3398247 -1.095556 0.04509702 0
2.3528686 -1.1026649 0.13617818 0
2.3325083 -1.0936197 0.22538476 0
2.3451495 -1.1005455 0.31807902 0
2.3279254 -1.0934541 0.4073554 0
2.3389575 -1.0986359 -0.226082 0
2.3116732 -1.0863128 0.49648505 0
2.3695943 -1.1140363 -0.1372249 0
2.3277113 -1.0948416 0.59387076 0
2.3431454 -1.1026005 -0.045201734 0
2.3054116 -1.0853359 0.68276465 0
2.3323703 -1.1020083 0.045027211 0
2.3544219 -1.1134329 0.13649218 0
2.3340795 -1.1043112 0.22590767 0
2.3269408 -1.101928 0.31612909 0
2.3276644 -1.1032655 0.40798113 0
2.3423102 -1.1102073 -0.22677925 0
2.3043189 -1.0926929 0.49572179 0
2.3512552 -1.1154524 -0.13638751 0
2.318594 -1.1004534 0.59252107 0
2.3465078 -1.1142038 -0.04534135 0
2.3068438 -1.0958633 0.68431759 0
2.3375347 -1.114446 0.045201734 0
2.3324952 -1.113043 0.13544546 0
2.3374026 -1.1158855 0.22660492 0
2.3230801 -1.1100438 0.31612909 0
2.3237989 -1.1113838 0.40798113 0
2.3420153 -1.120096 -0.22712786 0
2.3075747 -1.1041193 0.49724829 0
2.3473473 -1.1236531 -0.13638751 0
2.3077083 -1.1051733 0.59072149 0
2.3371937 -1.1197956 -0.045236636 0
2.3030045 -1.1039091 0.68431759 0
2.3462446 -1.1286668 0.045446068 0
2.3231971 -1.1185787 0.13513145 0
2.3299034 -1.1223085 0.22625631 0
2.326344 -1.1215947 0.31710407 0
2.3163474 -1.1177717 0.4073554 0
2.3416798 -1.1299961 -0.22747649 0
2.3107786 -1.1155816 0.49877474 0
2.3613954 -1.1405263 -0.13743424 0
2.3055909 -1.1140697 0.59117132 0
2.322469 -1.1227252 -0.045027211 0
2.3043547 -1.1144648 0.68587047 0
2.3368933 -1.1342304 0.04534135 0
2.3246682 -1.1292996 0.13544546 0
2.3223872 -1.1286926 0.22590767 0
2.329555 -1.1331816 0.31807902 0
2.3088794 -1.124121 0.40672967 0
2.3305559 -1.1346745 -0.22677925 0
2.3068705 -1.123641 0.49877474 0
2.3502178 -1.1452625 -0.13701554 0
2.3086948 -1.1255269 0.59297097 0
2.3221302 -1.1325785 -0.04509702 0
2.2882969 -1.1165715 0.68224704 0
2.3275318 -1.1397425 0.045236636 0
2.326092 -1.1400442 0.13575949 0
2.3148553 -1.1350381 0.22555906 0
2.3202388 -1.1386826 0.31734779 0
2.3084874 -1.1339155 0.4073554 0
2.3230042 -1.141046 -0.22643061 0
2.2923622 -1.1264915 0.49648505 0
2.3408291 -1.150816 -0.13670154 0
2.3012545 -1.1318587 0.59207118 0
2.3253396 -1.1442089 -0.045236636 0
2.286119 -1.1254056 0.68276465 0
2.3235393 -1.1478601 0.045236636 0
2.3258798 -1.1495214 0.13596882 0
2.318023 -1.1466452 0.22625631 0
2.3109131 -1.1441325 0.31661656 0
2.3117952 -1.1450716 0.40860689 0
2.326148 -1.1526864 -0.22712786 0
2.2866571 -1.1336144 0.49610341 0
2.3242726 -1.1527678 -0.13596882 0
2.3025265 -1.1424832 0.59342086 0
2.3322804 -1.1572467 -0.045446068 0
2.294487 -1.1389933 0.68638813 0
2.3233001 -1.1573423 0.045306448 0
2.3093412 -1.1513951 0.13523613 0
2.315789 -1.1556193 0.22643061 0
2.3053303 -1.1509026 0.31637284 0
2.3113182 -1.1549002 0.40923262 0
2.3221102 -1.1607991 -0.22712786 0
2.2899094 -1.1447023 0.49762988 0
2.3257961 -1.1631491 -0.13628285 0
2.2917542 -1.1466246 0.59162128 0
2.3246503 -1.1635907 -0.045376256 0
2.2922244 -1.1478604 0.68690574 0
2.3246064 -1.1681387 0.045411162 0
2.3108637 -1.161738 0.13555014 0
2.3048248 -1.1597102 0.22573337 0
2.306618 -1.1616216 0.31710407 0
2.2933624 -1.155448 0.40672967 0
2.3218064 -1.1702868 -0.22747649 0
2.2876527 -1.1535727 0.4980115 0
2.3199387 -1.170361 -0.13617818 0
2.2825186 -1.1519831 0.59027153 0
2.3029268 -1.1622832 -0.045027211 0
2.2918544 -1.157197 0.68794107 0
2.3242874 -1.1776484 0.045480974 0
2.3103571 -1.1716039 0.13575949 0
2.3007627 -1.1677485 0.22573337 0
2.3133729 -1.1746566 0.31856647 0
2.2857935 -1.1616564 0.40610394 0
2.3034987 -1.1711603 -0.226082 0
2.2873149 -1.1629319 0.49877474 0
2.3249459 -1.1825753 -0.13670154 0
2.28737 -1.163965 0.59252107 0
2.307766 -1.1748509 -0.045201734 0
2.2705867 -1.1564225 0.68276465 0
2.3041368 -1.1775644 0.045166828 0
2.3169222 -1.1851188 0.13638751 0
2.2933304 -1.1735564 0.22538476 0
2.3057249 -1.1809148 0.31807902 0
2.2887559 -1.1732326 0.4073554 0
2.3029425 -1.1810123 -0.22643061 0
2.2727602 -1.165534 0.49648505 0
2.3243577 -1.192507 -0.13691087 0
2.2902279 -1.1755018 0.59432071 0
2.3054295 -1.1838127 -0.045236636 0
2.269973 -1.1661068 0.68379998 0
2.2964573 -1.1837677 0.04509702 0
2.3074465 -1.1904519 0.1360735 0
2.2960947 -1.1856104 0.226082 0
2.2910066 -1.1834896 0.31661656 0
2.2916656 -1.1848438 0.40860689 0
2.3005757 -1.1899592 -0.22660492 0
2.27196 -1.1756606 0.49724829 0
2.3057821 -1.1936725 -0.1360735 0
2.2876344 -1.1847841 0.59477055 0
2.3101618 -1.1964512 -0.045411162 0
2.2744651 -1.178467 0.68638813 0
2.2991996 -1.1958675 0.045236636 0
2.292438 -1.1933677 0.13544546 0
2.2954767 -1.1954588 0.22643061 0
2.2901742 -1.1937137 0.31710407 0
2.2908103 -1.1950624 0.40923262 0
2.3017073 -1.2007471 -0.22712786 0
2.2695827 -1.1844925 0.49762988 0
2.3033717 -1.2026384 -0.13617818 0
2.2748482 -1.188251 0.59252107 0
2.3057611 -1.2049104 -0.045411162 0
2.2752666 -1.1894805 0.68794107 0
2.2932405 -1.2029573 0.045201734 0
2.2917953 -1.2032194 0.13565481 0
2.2930536 -1.2043905 0.22660492 0
2.2912645 -1.2044716 0.31783527 0
2.2761357 -1.1975329 0.4073554 0
2.3045547 -1.212485 -0.22782511 0
2.2706463 -1.1951509 0.49877474 0
2.309763 -1.2162546 -0.1368062 0
2.2637904 -1.1925514 0.59072149 0
2.2873886 -1.2054931 -0.045131925 0
2.2711005 -1.1974155 0.68794107 0
2.2943301 -1.21376 0.045306448 0
2.2911117 -1.2130811 0.13586415 0
2.2800322 -1.2077245 0.22573337 0
2.2923079 -1.2152517 0.31856647 0
2.2719417 -1.2054707 0.4073554 0
2.2897487 -1.214919 -0.22677925 0
2.271663 -1.2058311 0.49991959 0
2.3090312 -1.2261832 -0.13701554 0
2.2699392 -1.2059319 0.59342086 0
2.2849324 -1.2144086 -0.045166828 0
2.2498496 -1.1962663 0.68276465 0
2.2812576 -1.2170551 0.045131925 0
2.2939105 -1.2248341 0.13628285 0
2.2758026 -1.2156758 0.22573337 0
2.2810495 -1.2195023 0.31759155 0
2.2746868 -1.2171218 0.40860689 0
2.2854939 -1.2229043 -0.22677925 0
2.2553239 -1.2072675 0.49724829 0
2.3047369 -1.2342359 -0.13701554 0
2.2691517 -1.2156888 0.59432071 0
2.2894921 -1.2271004 -0.04534135 0
2.2490656 -1.2059382 0.68379998 0
2.2739003 -1.2223222 0.045062114 0
2.2970867 -1.2358196 0.13670154 0
2.2684634 -1.2209311 0.22538476 0
2.2772071 -1.2266624 0.31759155 0
2.277807 -1.2280115 0.40985835 0
2.2851481 -1.2319692 -0.22712786 0
2.2515199 -1.2143469 0.49724829 0
2.2885442 -1.2348313 -0.13628285 0
2.2636063 -1.2218858 0.59387076 0
2.2944231 -1.2390379 -0.045515876 0
2.2486651 -1.2148345 0.68483526 0
2.2819262 -1.2369229 0.045306448 0
2.2787144 -1.2362113 0.13586415 0
2.2852011 -1.2402465 0.22747649 0
2.2659338 -1.2308137 0.31661656 0
2.2683001 -1.2331246 0.40891972 0
2.2878354 -1.2437447 -0.22782511 0
2.2541661 -1.2259507 0.49877474 0
2.2807112 -1.2409034 -0.1360735 0
2.252481 -1.2260532 0.59207118 0
2.286572 -1.2451267 -0.045446068 0
2.2579827 -1.2300698 0.68897635 0
2.2916322 -1.2525533 0.045585688 0
2.2691286 -1.2412825 0.13555014 0
2.2808578 -1.2482157 0.22747649 0
2.265106 -1.2406231 0.31710407 0
2.2570529 -1.2372369 0.40766826 0
2.2834799 -1.2517233 -0.22782511 0
2.2533159 -1.2356997 0.49953794 0
2.2868721 -1.254621 -0.13670154 0
2.2498956 -1.234846 0.59252107 0
2.2681887 -1.2454013 -0.045166828 0
2.2519815 -1.2370139 0.68845868 0
2.2802405 -1.2566841 0.045446068 0
2.2735264 -1.2540188 0.1360735 0
2.2677648 -1.251357 0.22660492 0
2.2729254 -1.2552398 0.31881022 0
2.2544494 -1.2460635 0.40798113 0
2.2651467 -1.2519761 -0.22643061 0
2.2472706 -1.2426078 0.49915636 0
2.2877214 -1.2654961 -0.13701554 0
2.2506869 -1.2455227 0.59387076 0
2.2655773 -1.2542796 -0.045201734 0
2.2408903 -1.2411234 0.68638813 0
2.2723439 -1.2626934 0.045376256 0
2.2743716 -1.2648592 0.13638751 0
2.2599008 -1.2573282 0.22625631 0
2.2702641 -1.2641319 0.31905395 0
2.2500861 -1.2539253 0.40798113 0
2.2625031 -1.2608452 -0.22660492 0
2.23949 -1.2485327 0.49839315 0
2.2885232 -1.2763928 -0.13732956 0
2.256536 -1.2590687 0.59657019 0
2.2699156 -1.2670536 -0.045376256 0
2.2314842 -1.2461122 0.68483526 0
2.2644336 -1.2686629 0.045306448 0
2.2716846 -1.2737675 0.13649218 0
2.2537601 -1.2642341 0.226082 0
2.2554522 -1.2662183 0.31759155 0
2.2525842 -1.2656426 0.40923262 0
2.2685103 -1.2745908 -0.22765081 0
2.2368295 -1.2573043 0.49877474 0
2.2718675 -1.2775208 -0.13659686 0
2.2487307 -1.2650269 0.5956704 0
2.2724495 -1.2788923 -0.045515876 0
2.237221 -1.2595807 0.68794107 0
2.2634735 -1.2785264 0.045376256 0
2.2533152 -1.2738261 0.13565481 0
2.2666762 -1.2819015 0.22782511 0
2.2527456 -1.2750614 0.31783527 0
2.2481525 -1.2734977 0.40923262 0
2.2655568 -1.2838789 -0.22782511 0
2.2307191 -1.2641367 0.49839315 0
2.2673943 -1.2854433 -0.13659686 0
2.2341304 -1.2671005 0.59297097 0
2.2610147 -1.2828696 -0.045376256 0
2.2328107 -1.2673823 0.68794107 0
2.269423 -1.2923572 0.045585688 0
2.2575312 -1.2866288 0.13617818 0
2.2515788 -1.2842778 0.22677925 0
2.253454 -1.2858686 0.31856647 0
2.2402627 -1.2793784 0.40860689 0
2.2627914 -1.2927679 -0.22799942 0
2.2380021 -1.2791235 0.50106448 0
2.2626677 -1.2937452 -0.13659686 0
2.2277796 -1.2743127 0.59252107 0
2.247844 -1.2857898 -0.045201734 0
2.2334032 -1.278047 0.68949395 0
2.2612028 -1.2986742 0.045515876 0
2.2512946 -1.2935061 0.1360735 0
2.2470822 -1.2921295 0.22677925 0
2.2521667 -1.2960995 0.31905395 0
2.2323592 -1.2852192 0.40798113 0
2.244453 -1.2927035 -0.22660492 0
2.2301214 -1.2849677 0.50030124 0
2.2737112 -1.3106122 -0.1375389 0
2.2351353 -1.288896 0.5956704 0
2.2468066 -1.2956263 -0.045271542 0
2.222235 -1.2819738 0.68742341 0
2.2499609 -1.302159 0.045376256 0
2.2536786 -1.305361 0.13649218 0
2.2373872 -1.2969679 0.22625631 0
2.2512908 -1.3055526 0.31954145 0
2.2398188 -1.2999449 0.41017124 0
2.2433729 -1.302531 -0.22695355 0
2.2207546 -1.2893986 0.49915636 0
2.2676256 -1.3171417 -0.13743424 0
2.2342186 -1.2982591 0.59657019 0
2.245728 -1.3054712 -0.04534135 0
2.2127366 -1.2868094 0.68587047 0
2.2436748 -1.3089972 0.04534135 0
2.2491083 -1.3132197 0.13649218 0
2.238235 -1.307395 0.22677925 0
2.2330101 -1.3053886 0.31759155 0
2.2386775 -1.3097506 0.41079697 0
2.2459199 -1.3139879 -0.22765081 0
2.2128515 -1.2951593 0.49839315 0
2.2457788 -1.3149574 -0.13638751 0
2.2313547 -1.3070349 0.59702009 0
2.2515092 -1.3193684 -0.045550782 0
2.2165642 -1.2994106 0.68845868 0
2.2459865 -1.320876 0.045480974 0
2.2359042 -1.3159971 0.13596882 0
2.2353745 -1.3162106 0.22695355 0
2.2318602 -1.3151909 0.31807902 0
2.234092 -1.3175569 0.41079697 0
2.2481842 -1.3258677 -0.22834805 0
2.2184625 -1.308861 0.50068283 0
2.2446148 -1.324819 -0.13659686 0
2.2133541 -1.3068892 0.59342086 0
2.2417247 -1.3241686 -0.045446068 0
2.2186677 -1.3110713 0.69052929 0
2.2448025 -1.3307472 0.045550782 0
2.2330148 -1.324813 0.1360735 0
2.2341928 -1.3260393 0.22730216 0
2.2340825 -1.3270285 0.31905395 0
2.219291 -1.3192908 0.40891972 0
2.2418296 -1.3326892 -0.22817372 0
2.2223172 -1.3216147 0.50259089 0
2.255425 -1.3418368 -0.1375389 0
2.2154772 -1.3185941 0.59522051 0
2.2336524 -1.3299394 -0.045376256 0
2.2140777 -1.3188077 0.69052929 0
2.2435765 -1.3406264 0.04562059 0
2.2283769 -1.3325998 0.1360735 0
2.2227116 -1.3297385 0.22660492 0
2.2362492 -1.3388977 0.32002893 0
2.2112834 -1.324999 0.40829399 0
2.2252007 -1.3333381 -0.22695355 0
2.2143226 -1.3273451 0.50182766 0
2.2507272 -1.3497015 -0.1375389 0
2.210861 -1.3263195 0.59522051 0
2.2238524 -1.3346411 -0.045271542 0
2.199523 -1.320562 0.68742341 0
2.2217534 -1.3381327 0.045271542 0
2.2307882 -1.3441049 0.13649218 0
2.2180564 -1.3374892 0.22660492 0
2.2315619 -1.3466954 0.32002893 0
2.215333 -1.3374292 0.40985835 0
2.2222385 -1.3421273 -0.22712786 0
2.2029543 -1.3310055 0.50030124 0
2.2494209 -1.3596162 -0.13774826 0
2.2162235 -1.3400787 0.59791994 0
2.2313929 -1.3492512 -0.045515876 0
2.1918261 -1.3258489 0.68638813 0
2.2207229 -1.3475678 0.04534135 0
2.2277899 -1.3529203 0.13659686 0
2.2201846 -1.3493626 0.22730216 0
2.2202992 -1.3499631 0.31905395 0
2.2157137 -1.3482347 0.41079697 0
2.2192419 -1.3509122 -0.22730216 0
2.1951745 -1.3362617 0.49953794 0
2.2329588 -1.3597963 -0.13701554 0
2.2084389 -1.3453928 0.59702009 0
2.2334998 -1.3611947 -0.045655496 0
2.1970811 -1.3395256 0.68949395 0
2.224535 -1.3605279 0.045515876 0
2.2128327 -1.3544325 0.13596882 0
2.2190959 -1.3587984 0.22765081 0
2.2155735 -1.3577051 0.31905395 0
2.2093101 -1.3549279 0.41048408 0
2.2215438 -1.3624306 -0.22799942 0
2.1955168 -1.3469959 0.50068283 0
2.2333052 -1.3707168 -0.13732956 0
2.1954255 -1.3479952 0.59477055 0
2.225327 -1.3668896 -0.045585688 0
2.2055595 -1.3552778 0.69363505 0
2.2316885 -1.37563 0.045760211 0
2.214891 -1.3663429 0.13638751 0
2.2126439 -1.3654898 0.22747649 0
2.2091317 -1.3643875 0.31881022 0
2.1995261 -1.3595157 0.40954545 0
2.2201638 -1.3722719 -0.22834805 0
2.1941411 -1.3567168 0.50144607 0
2.231904 -1.3806055 -0.1375389 0
2.1907067 -1.3556505 0.59477055 0
2.2120409 -1.3693864 -0.045411162 0
2.1893184 -1.3558484 0.69001162 0
2.2183802 -1.3781356 0.045585688 0
2.2103479 -1.3736802 0.13638751 0
2.206172 -1.3721529 0.22730216 0
2.2178383 -1.3804827 0.32076016 0
2.1950054 -1.3668021 0.40954545 0
2.2085958 -1.3757998 -0.22765081 0
2.1960571 -1.3685209 0.50297254 0
2.2338507 -1.3926145 -0.1379576 0
2.1925755 -1.3674142 0.59657019 0
2.2023973 -1.3735396 -0.045306448 0
2.1766152 -1.3579881 0.68742341 0
2.2053223 -1.38018 0.045411162 0
2.2106175 -1.384568 0.13670154 0
2.1963046 -1.3766711 0.22677925 0
2.2014754 -1.3804475 0.31905395 0
2.196914 -1.3786559 0.41079697 0
2.2037799 -1.3835007 -0.22765081 0
2.1865184 -1.3726641 0.50182766 0
2.2292204 -1.4000146 -0.1379576 0
2.1946294 -1.3788242 0.59836978 0
2.2094407 -1.3886676 -0.045550782 0
2.1767681 -1.3686626 0.68897635 0
2.2123308 -1.3953369 0.045655496 0
2.2142155 -1.3976063 0.1372249 0
2.1984656 -1.3882016 0.22747649 0
2.1916091 -1.3849423 0.31832278 0
2.2004359 -1.3915952 0.41236129 0
2.2056718 -1.3954458 -0.22834805 0
2.173418 -1.3750401 0.49991959 0
2.2074437 -1.3971061 -0.13691087 0
2.1914494 -1.3875191 0.59881973 0
2.2130265 -1.4017217 -0.045725305 0
2.1785045 -1.3803886 0.69104689 0
2.2074468 -1.4030508 0.045655496 0
2.1958418 -1.3967513 0.13638751 0
2.2034476 -1.4026697 0.22852236 0
2.1917846 -1.3957828 0.31905395 0
2.1905673 -1.3960828 0.4114227 0
2.2041476 -1.4052787 -0.22869666 0
2.1749847 -1.3872195 0.50144607 0
2.2090428 -1.4094846 -0.13732956 0
2.1781361 -1.3902994 0.59657019 0
2.2047489 -1.4072863 -0.045655496 0
2.1801858 -1.3921431 0.69311744 0
2.2107081 -1.4165264 0.045830019 0
2.1974328 -1.4091023 0.1368062 0
2.1968606 -1.4092768 0.22834805 0
2.1933358 -1.4080967 0.32002893 0
2.1754642 -1.3976957 0.40954545 0
2.198982 -1.413348 -0.22869666 0
2.1800382 -1.4011722 0.50373578 0
2.2108293 -1.4215078 -0.13774826 0
2.1716306 -1.3968397 0.5961203 0
2.1861231 -1.406701 -0.045376256 0
2.1750686 -1.4001249 0.69311744 0
2.20239 -1.4220653 0.045760211 0
2.1992109 -1.4211004 0.1372249 0
2.1883345 -1.4151555 0.22799942 0
2.1984074 -1.4222134 0.32149133 0
2.170572 -1.4052809 0.40954545 0
2.1906905 -1.418849 -0.22834805 0
2.1715932 -1.4070181 0.50297254 0
2.2123082 -1.4339466 -0.13816693 0
2.1746719 -1.4100909 0.59836978 0
2.1862328 -1.4175873 -0.045480974 0
2.1604435 -1.4014006 0.69001162 0
2.1859276 -1.4217287 0.045515876 0
2.2045295 -1.4349225 0.13785292 0
2.1822083 -1.420936 0.22782511 0
2.1936791 -1.4294959 0.32149133 0
2.179137 -1.4211036 0.41204843 0
2.1862223 -1.4257243 -0.22834805 0
2.1605847 -1.4095423 0.50144607 0
2.209465 -1.4419812 -0.13827161 0
2.1816535 -1.4243733 0.60151911 0
2.1932395 -1.4324838 -0.045725305 0
2.1557844 -1.4085574 0.69001162 0
2.1809516 -1.4293501 0.045515876 0
2.1944969 -1.4393228 0.1375389 0
2.1789007 -1.4296378 0.22799942 0
2.1820385 -1.4327863 0.32051641 0
2.1791158 -1.4319558 0.41298702 0
2.1812325 -1.4333467 -0.22834805 0
2.154011 -1.4159971 0.50106448 0
2.1910682 -1.4409055 -0.13743424 0
2.1717844 -1.4287671 0.60016942 0
2.1932375 -1.4434289 -0.045830019 0
2.1573088 -1.4203231 0.69208211 0
