# .PCD v0.7 - Point Cloud Data file format
VERSION 0.7
FIELDS x y z intensity
SIZE 4 4 4 4
TYPE F F F F
COUNT 1 1 1 1
WIDTH 1387
HEIGHT 1
VIEWPOINT 0 0 0 1 0 0 0
POINTS 1387
DATA ascii
8.9250536 -13.74863 -0.28611475 14
7.3811545 -11.374671 3.633302 72
0.92341256 -1.4273785 -0.45552155 4
22.235264 -34.370483 0.71453643 22
1.0698607 -1.6543859 -0.45485103 2
22.244982 -34.411839 2.1474493 70
1.2498626 -1.934213 -0.44763795 90
21.415543 -33.154114 3.4531105 34
1.5294815 -2.3678415 -0.446464 5
14.673507 -22.725248 3.3214273 14
1.9753876 -3.0605068 -0.44726053 4
11.737581 -18.192234 3.429044 38
2.7547696 -4.2712903 -0.44466859 5
4.5659065 -7.0821843 -0.44161084 5
8.9051647 -13.823408 -0.28702229 11
7.3706908 -11.445845 3.6477959 69
0.91867417 -1.4304328 -0.45552155 5
22.007118 -34.279613 0.71104592 21
1.0661843 -1.6613905 -0.45575082 2
22.012569 -34.314442 2.1365633 69
1.2445016 -1.9399996 -0.44801953 100
21.311934 -33.235012 3.4541564 34
1.5233388 -2.3764918 -0.44708973 5
14.632648 -22.8365 3.3302021 14
1.9497026 -3.0439816 -0.44384819 3
11.676138 -18.23642 3.4296696 38
2.7438135 -4.2854357 -0.44519153 5
4.5454617 -7.1048088 -0.44202951 4
8.8730125 -13.87968 -0.28754583 13
7.3494172 -11.500805 3.6571133 64
0.91575205 -1.4368891 -0.4565568 5
21.801371 -34.221302 0.70825356 21
1.0593317 -1.6634585 -0.45530096 3
21.793982 -34.236065 2.1269336 68
1.2313966 -1.9343951 -0.44572985 100
21.180815 -33.285667 3.4517157 34
1.519275 -2.3884621 -0.44834125 5
14.591187 -22.947742 3.3389764 14
1.9454546 -3.0608203 -0.44531062 3
11.603933 -18.263729 3.4271667 35
2.7352483 -4.3050776 -0.44623742 5
4.5291986 -7.1341214 -0.44286692 4
8.844862 -13.942652 -0.28820902 14
7.327848 -11.555756 3.6664307 69
0.90453529 -1.4302804 -0.45345098 4
21.581345 -34.138306 0.70497251 21
1.0535188 -1.667146 -0.45530096 4
21.583241 -34.154503 2.1174083 68
1.2267338 -1.9420012 -0.44649309 100
21.053862 -33.342556 3.4499731 34
1.511983 -2.395421 -0.44865409 6
14.557605 -23.072407 3.3497012 14
1.9389943 -3.0743089 -0.44628558 3
11.545411 -18.305449 3.4277923 35
2.7085159 -4.2960596 -0.44431996 5
4.5085258 -7.1566467 -0.44328558 5
8.819891 -14.005748 -0.28890714 15
7.3038964 -11.60288 3.6736777 66
0.90056396 -1.4350655 -0.45396861 4
1.0500556 -1.673932 -0.45620075 4
21.368395 -34.077347 2.1079879 67
1.2262036 -1.9562522 -0.44878277 100
20.939459 -33.41922 3.4503214 34
1.4987866 -2.3920522 -0.44708973 6
14.514731 -23.174389 3.3575008 14
1.9319495 -3.0857694 -0.44701681 3
11.481442 -18.345638 3.4277923 35
2.6977305 -4.3122444 -0.44501722 5
8.77139 -14.020814 3.2147503 1
4.4868865 -7.1749449 -0.44349492 4
7.5241055 -12.03641 3.277087 1
8.792141 -14.070367 -0.28960523 14
7.2797256 -11.654521 3.6819599 67
0.89784306 -1.4413235 -0.45500392 4
1.0400869 -1.6709694 -0.45440111 4
21.160679 -34.009281 2.0991952 66
1.2228211 -1.9653087 -0.44992763 100
20.820107 -33.474941 3.4489269 34
1.4893849 -2.395592 -0.4467769 6
14.469378 -23.282238 3.365788 15
1.9211663 -3.0924945 -0.44701681 3
11.42359 -18.395674 3.4296696 35
2.6889658 -4.3317914 -0.44606307 5
8.7182522 -14.044674 3.2132235 2
4.4576015 -7.1837759 -0.44307625 4
7.4522557 -12.014576 3.2640398 12
8.7788029 -14.158755 -0.29079199 12
7.2654591 -11.722554 3.6954186 66
0.90067786 -1.4577522 -0.45914501 4
19.443935 -31.470121 0.64570415 8
1.0321997 -1.6712738 -0.45350131 4
20.939014 -33.916386 2.0889375 48
1.2156096 -1.9697773 -0.44992763 100
20.697275 -33.551025 3.4489269 34
1.4805946 -2.4010348 -0.4467769 6
14.43282 -23.40526 3.3762684 15
1.9051515 -3.0907323 -0.4457981 3
11.365524 -18.44553 3.4315467 28
2.6748736 -4.3428478 -0.44623742 6
8.6955376 -14.123344 3.2239089 2
4.4396176 -7.2136726 -0.44391361 4
7.4040875 -12.03517 3.2622402 22
8.7544727 -14.23019 -0.29162973 10
7.2477703 -11.785692 3.707324 60
0.88548702 -1.4444174 -0.45396861 4
19.359802 -31.592333 0.64675128 17
1.0281032 -1.6783692 -0.45440111 3
20.725559 -33.83429 2.0794125 64
1.1994995 -1.95894 -0.44649309 89
20.580034 -33.623066 3.4489269 34
1.4794214 -2.4179833 -0.44896698 5
14.386295 -23.522354 3.3855305 15
1.8989875 -3.1061628 -0.44701681 3
11.30931 -18.498571 3.4340498 14
2.6617756 -4.3555584 -0.44658601 6
8.6748419 -14.200523 3.2345943 2
4.4206553 -7.2393537 -0.44454166 4
7.3671079 -12.069259 3.2644899 24
8.7318354 -14.305041 -0.29253724 15
7.2236938 -11.838955 3.7161241 64
0.88043964 -1.4474995 -0.45396861 4
20.520655 -33.737278 0.68926537 20
1.0306312 -1.6950903 -0.45800033 3
20.523308 -33.768185 2.0709341 64
1.1977512 -1.9715042 -0.44840118 100
20.44393 -33.664047 3.4457896 34
1.469344 -2.4194989 -0.44834125 5
14.35148 -23.641199 3.3957677 15
1.8886769 -3.112443 -0.44701681 3
11.2795 -18.59536 3.4446871 4
2.6382918 -4.3511939 -0.44519153 5
8.6439896 -14.256072 3.2407002 2
4.4069757 -7.2710528 -0.44558835 4
7.3290629 -12.096955 3.2653894 24
8.6932411 -14.354248 -0.29292119 15
7.1983314 -11.890539 3.7244062 66
0.88062704 -1.4586803 -0.4565568 5
20.320107 -33.671738 0.68647301 20
1.0206815 -1.6920031 -0.45620075 3
20.316612 -33.692528 2.0619323 64
1.195262 -1.9821904 -0.44992763 100
20.286922 -33.656574 3.4381196 46
1.4588506 -2.4212294 -0.44771552 5
14.30574 -23.752369 3.4045422 15
1.8808726 -3.1241186 -0.44774801 3
10.426146 -17.32461 3.2025266 1
2.6248758 -4.3616257 -0.44536582 5
8.6164389 -14.323167 3.2490957 2
4.3795099 -7.282969 -0.44537902 5
7.287796 -12.124136 3.2658393 24
8.6729507 -14.434214 -0.29393342 10
7.1766748 -11.948716 3.7347589 61
0.87453717 -1.460088 -0.45603919 4
20.144918 -33.646381 0.68451828 9
1.0107659 -1.688867 -0.45440111 3
20.118902 -33.629547 2.0537677 63
1.1903515 -1.98972 -0.4506909 100
20.100805 -33.612617 3.426441 46
1.452417 -2.429698 -0.44834125 5
14.25736 -23.8601 3.4128294 23
1.8730096 -3.1357775 -0.44847921 3
10.389913 -17.401606 3.2100356 1
2.6188271 -4.3861575 -0.44693464 5
8.5845003 -14.383503 3.255965 2
4.3540606 -7.2982125 -0.44537902 5
7.2444329 -12.147827 3.2653894 25
8.6511841 -14.512494 -0.29491076 9
7.1527224 -12.003567 3.7440765 56
0.87338269 -1.469775 -0.45810974 3
1.0048648 -1.6923848 -0.45440111 3
19.911421 -33.534649 2.0439286 63
1.1844008 -1.9955511 -0.45107248 95
19.902023 -33.545498 3.4124961 56
1.445942 -2.4381511 -0.44896698 5
14.205366 -23.962658 3.4203854 31
1.8488966 -3.120096 -0.44531062 3
10.33215 -17.435965 3.2100356 1
2.6136549 -4.412415 -0.44867775 5
8.5722494 -14.477575 3.2704666 3
4.3285594 -7.3133659 -0.44537902 5
7.1990085 -12.168009 3.2640398 25
8.6264305 -14.580687 -0.29571357 9
7.1384473 -12.070453 3.757535 59
0.86334151 -1.4644936 -0.45552155 3
0.99924695 -1.6957078 -0.45440111 4
19.715172 -33.469719 2.0357642 62
1.1714509 -1.9895227 -0.44878277 92
19.701933 -33.473965 3.3982024 56
1.4428586 -2.4514446 -0.4505313 4
14.168106 -24.08149 3.4306223 34
1.8405526 -3.1296318 -0.4457981 3
10.261211 -17.454897 3.206907 1
2.5911703 -4.4094872 -0.44745758 5
8.6137123 -14.658261 3.3048122 1
4.3103523 -7.3380122 -0.44600707 5
7.1556578 -12.186774 3.2626901 25
8.5937004 -14.641753 -0.29634187 9
7.1158209 -12.128623 3.7678878 64
0.85555357 -1.4623463 -0.45396861 2
19.522802 -33.382515 0.67502415 9
0.99627221 -1.7042327 -0.45575082 6
19.52545 -33.400421 2.0275998 54
1.158904 -1.9832264 -0.44649309 100
19.512442 -33.404926 3.3846061 55
1.434293 -2.456466 -0.4505313 4
14.11798 -24.189091 3.4389093 34
1.8336182 -3.1428959 -0.44677305 3
10.211237 -17.502474 3.20941 1
2.5775371 -4.4197764 -0.44763187 6
9.7489824 -16.72356 3.7627537 1
4.288734 -7.3599172 -0.44642577 5
7.1169972 -12.218413 3.2644899 27
8.5672426 -14.708184 -0.29710975 8
7.0901432 -12.177195 3.7756522 59
0.85820174 -1.4786905 -0.45810974 2
14.344943 -24.716484 0.49882469 20
0.99159336 -1.7092127 -0.45620075 4
14.343894 -24.734566 1.4984833 17
1.1608354 -2.0025461 -0.44992763 100
14.338266 -24.744762 2.5020671 15
1.4231678 -2.4560814 -0.44959271 4
14.047637 -24.252953 3.4413466 31
1.8321376 -3.1644206 -0.44896671 3
10.126331 -17.496981 3.201901 1
2.5630918 -4.4304709 -0.44780618 7
9.7308292 -16.820374 3.7772551 1
4.2703037 -7.3844719 -0.44705379 5
7.0822926 -12.252069 3.2671893 58
8.5448618 -14.788213 -0.29812202 10
7.0659518 -12.233654 3.7854874 59
0.86100686 -1.4949207 -0.46225086 1
14.195722 -24.657228 0.49662569 25
0.97687286 -1.6974623 -0.4521516 5
14.200699 -24.685804 1.492517 25
1.1541882 -2.0063846 -0.44992763 100
14.195548 -24.68681 2.4914339 25
1.4145862 -2.4610341 -0.44959271 4
13.953992 -24.28635 3.4391532 31
1.8141599 -3.158747 -0.44726053 3
10.059293 -17.521944 3.2000239 1
2.550586 -4.4445758 -0.44832912 6
9.7130966 -16.925756 3.793283 1
4.2405252 -7.3924026 -0.4466351 4
7.0569296 -12.307147 3.2752874 79
8.5270004 -14.876937 -0.29930878 11
7.0500956 -12.30518 3.7999816 54
0.8516897 -1.491356 -0.46018028 1
14.084772 -24.663219 0.49575308 30
0.97190773 -1.7025545 -0.45260152 5
14.071881 -24.660629 1.488016 33
1.1477996 -2.0123065 -0.45030925 94
14.072406 -24.681559 2.4856818 30
1.4075124 -2.469635 -0.45021844 4
13.860284 -24.319389 3.4369595 34
1.8050884 -3.16851 -0.44774801 3
10.003933 -17.567247 3.201901 1
2.539984 -4.4621096 -0.44920069 7
8.4470501 -14.845352 3.3200769 1
4.2193274 -7.4183121 -0.44726312 5
7.0291109 -12.363422 3.2833855 84
8.4918184 -14.936163 -0.29990214 9
7.0280986 -12.366664 3.8113694 57
0.84838307 -1.4976817 -0.46121556 1
13.981473 -24.692055 0.49529928 35
0.97238028 -1.7179766 -0.45575082 5
13.974892 -24.690481 1.4868647 33
1.1388348 -2.0128837 -0.44954604 93
13.965568 -24.694111 2.4820211 35
1.4008278 -2.4779723 -0.4508442 4
13.770082 -24.368296 3.4367156 31
1.7924867 -3.1733763 -0.44750425 3
9.9289513 -17.577982 3.1975207 1
2.5253727 -4.472683 -0.449375 6
8.4241276 -14.92604 3.3315253 1
4.2022386 -7.4486508 -0.44820517 5
7.0069704 -12.425227 3.2932835 84
8.4592752 -15.000551 -0.30060026 9
7.0095525 -12.434877 3.8248281 59
0.85639828 -1.524213 -0.4684625 1
13.887762 -24.717361 0.49488044 40
0.97335792 -1.7330856 -0.45890018 5
13.876887 -24.718212 1.4856086 33
1.126037 -2.0065739 -0.4472563 90
13.871486 -24.728809 2.4806268 35
1.3906698 -2.4791582 -0.45021844 4
13.690167 -24.415558 3.4369595 31
1.7858355 -3.1862292 -0.44847921 3
9.869463 -17.61598 3.1981466 5
2.5058508 -4.4745178 -0.44867775 6
8.3956881 -14.991578 3.339921 1
4.182394 -7.4712586 -0.44872853 5
6.9885664 -12.489209 3.3040812 89
8.4341965 -15.078853 -0.3015776 9
6.9811893 -12.486247 3.8331101 59
0.85322046 -1.5304192 -0.46949777 1
13.79361 -24.751717 0.49460122 40
0.96919918 -1.7398775 -0.45979998 3
13.796348 -24.77697 1.4862366 33
1.1241519 -2.0188735 -0.44916439 92
13.784562 -24.765966 2.4797552 35
1.3800865 -2.480545 -0.44959271 4
13.594245 -24.444115 3.4342785 31
1.7756672 -3.1941791 -0.44872296 4
9.8280602 -17.686584 3.2047167 9
2.4921513 -4.4867215 -0.44902641 5
8.3509321 -15.034523 3.3429737 1
4.1601667 -7.4927974 -0.44914722 5
6.9704628 -12.559533 3.3162284 84
8.4096432 -15.158914 -0.30258983 9
6.9544253 -12.540951 3.8424277 59
0.83826023 -1.5166284 -0.46432137 1
13.716798 -24.817215 0.49495023 35
0.95181113 -1.7227812 -0.45440111 3
13.719435 -24.842463 1.4872833 33
1.122438 -2.0332925 -0.45145413 95
13.711024 -24.847723 2.4828928 35
1.3662157 -2.476938 -0.44802836 4
13.501168 -24.47751 3.4323285 34
1.7721746 -3.2142646 -0.45067286 4
9.796773 -17.776146 3.2147286 11
2.4793584 -4.5006285 -0.44954932 5
9.5628653 -17.366058 3.8535788 1
4.1249709 -7.4939961 -0.44830981 6
6.9441099 -12.620851 3.3256762 86
8.3855953 -15.240736 -0.30363697 7
6.9385362 -12.615932 3.8579569 54
13.650729 -24.912916 0.49585778 30
0.94736278 -1.7296767 -0.45530096 3
13.640759 -24.915354 1.4886441 28
1.1162764 -2.0389202 -0.45183572 100
13.640466 -24.925144 2.4858561 30
1.3660933 -2.4972894 -0.4508442 4
13.408505 -24.521605 3.4315972 31
1.7527647 -3.2068036 -0.44872296 4
9.7618637 -17.867403 3.2247403 11
2.4666665 -4.5166798 -0.45024657 5
9.5379477 -17.464809 3.8680801 1
4.0987864 -7.5083499 -0.44830981 6
6.914948 -12.672384 3.3328748 89
8.3545752 -15.317013 -0.30454451 7
6.9144435 -12.681986 3.8703802 54
13.603786 -25.034214 0.49732378 25
0.94969058 -1.7483848 -0.45935005 3
13.588965 -25.027761 1.492517 25
1.1022404 -2.0309193 -0.44916439 100
13.581321 -25.034515 2.4917827 25
1.3578727 -2.5040159 -0.45115703 5
13.323773 -24.570007 3.4318411 31
1.7425065 -3.2146473 -0.44896671 4
9.7257833 -17.950001 3.2335007 11
2.4489872 -4.5217586 -0.44989792 5
9.5000401 -17.547991 3.8787656 3
4.0759935 -7.532105 -0.4488332 5
6.8907061 -12.73878 3.3436723 89
8.3200865 -15.381261 -0.3052426 7
6.890347 -12.74343 3.8817682 59
13.580131 -25.178909 0.49934825 15
0.94511813 -1.7530751 -0.45979998 3
13.568067 -25.17758 1.498902 17
1.0977169 -2.0378292 -0.44992763 100
13.557062 -25.167669 2.5010211 20
1.3513739 -2.5097733 -0.45146993 5
13.242753 -24.604752 3.430866 34
1.7352202 -3.2253501 -0.44969791 4
9.6936693 -18.025702 3.2416353 10
2.4243929 -4.5101266 -0.44798052 10
9.493187 -17.667681 3.8986096 1
4.05231 -7.5448732 -0.4488332 6
6.8759322 -12.802089 3.3549199 84
8.2963161 -15.45313 -0.30615014 8
6.8667221 -12.795654 3.8910856 57
17.510696 -32.75333 0.64828706 8
0.93409407 -1.7479337 -0.45755047 3
17.496763 -32.754761 1.946165 7
1.0883911 -2.0383749 -0.44916439 100
17.510338 -32.793941 3.2524779 10
1.3356549 -2.5025105 -0.44927984 4
13.149684 -24.647867 3.4301348 34
1.7327278 -3.2492044 -0.45213532 4
9.6628456 -18.12735 3.2535243 12
2.408783 -4.52074 -0.44815481 5
8.2156744 -15.425447 3.3971636 2
4.030261 -7.5702529 -0.44946122 5
6.8509426 -12.868488 3.3657176 84
8.2687435 -15.538157 -0.30723214 8
6.8415513 -12.86167 3.9035089 54
0.92768127 -1.7513456 -0.45755047 3
17.429064 -32.903885 1.9513987 7
1.0831064 -2.0456319 -0.44992763 93
17.376976 -32.833248 3.2500374 20
1.3273976 -2.509135 -0.44959271 4
13.049047 -24.676594 3.4274535 34
1.7130239 -3.2394392 -0.44994166 4
9.6327419 -18.223841 3.2647877 10
2.4022958 -4.5467362 -0.44989792 5
9.4050245 -17.808071 3.9146376 1
4.0019464 -7.5807424 -0.44925189 6
6.8305449 -12.938855 3.3778651 86
8.2433853 -15.621751 -0.3083142 11
6.8200469 -12.929899 3.9169676 59
0.92005551 -1.7509623 -0.45665067 2
1.0772297 -2.0509505 -0.45030925 94
17.34024 -33.02829 3.263634 10
1.3254952 -2.5257673 -0.45178279 4
12.968066 -24.721489 3.4276974 31
1.6995056 -3.2398283 -0.44921044 4
9.601613 -18.311666 3.2747996 12
2.3872049 -4.554678 -0.44989792 5
9.3468323 -17.8409 3.9150193 1
3.9814191 -7.6028185 -0.44977528 5
6.803874 -12.992508 3.3859634 91
8.2175026 -15.698607 -0.30929154 9
6.7941504 -12.984966 3.9268029 35
0.9178471 -1.7609159 -0.45845026 2
18.397013 -35.310238 2.0866349 8
1.0704225 -2.0545115 -0.45030925 70
1.3152878 -2.5266445 -0.45115703 4
12.887848 -24.767879 3.428185 34
1.6891021 -3.2475021 -0.44945419 4
9.564971 -18.39765 3.2841856 12
2.3785212 -4.5749431 -0.45111811 5
3.9589467 -7.6212964 -0.45008928 5
6.7809305 -13.059417 3.3972108 84
8.1829214 -15.766243 -0.31005946 9
6.7478929 -13.006888 3.9262853 20
0.91169471 -1.764109 -0.45845026 2
18.306648 -35.438118 2.0904028 8
1.0614426 -2.0547469 -0.44954604 69
1.3091784 -2.5364864 -0.45209566 4
12.806774 -24.823301 3.4296474 34
1.6823055 -3.2621999 -0.45067286 4
9.5314655 -18.490623 3.2948229 12
2.3661885 -4.5903015 -0.45181534 5
3.9359775 -7.6421728 -0.45050797 6
6.7593861 -13.129787 3.4093583 81
8.1497974 -15.837387 -0.31089717 5
6.6944957 -13.014901 3.9216263 20
4.1477451 -8.0914698 0.15871219 6
0.91264033 -1.7811552 -0.46204948 2
4.1571684 -8.1168318 0.47793198 6
1.0569485 -2.0636818 -0.4506909 70
4.1565146 -8.1190462 0.79799795 7
1.2913177 -2.5234556 -0.44896698 4
4.156548 -8.1261024 1.1207105 5
1.6781373 -3.282192 -0.45262277 4
4.148663 -8.1176786 1.4438903 5
2.3393781 -4.5794268 -0.44989792 5
4.144124 -8.1122894 1.7707076 5
3.9101863 -7.6576433 -0.45061263 6
4.1167531 -8.0691357 -0.1581188 13
4.1345773 -8.1075668 2.4385931 7
4.0941081 -8.0559826 0.15773484 16
0.8958264 -1.7634811 -0.45665067 2
4.0935445 -8.061841 0.4738498 17
1.048489 -2.0657911 -0.45030925 70
4.0834603 -8.0489407 0.78963101 14
1.2865272 -2.5369804 -0.4505313 4
4.0832663 -8.0520391 1.1085237 14
1.6639775 -3.2827179 -0.45189157 4
4.0890541 -8.0704355 1.4329399 15
2.3251796 -4.5911198 -0.45024657 5
4.0771217 -8.0538559 1.7546796 17
3.8793869 -7.6665778 -0.45029861 6
4.079371 -8.0652847 2.0866458 23
4.0587783 -8.0245705 -0.15696694 17
4.0713854 -8.0529871 2.4178874 16
4.0402679 -8.0227118 0.15679242 27
0.89110929 -1.7702341 -0.45755047 2
4.0357437 -8.017211 0.47039565 27
1.0448016 -2.0764532 -0.45183572 72
4.0374351 -8.0275469 0.78614479 25
1.2812126 -2.5485156 -0.45178279 4
4.0234218 -8.0066442 1.1002365 14
1.6439154 -3.2728298 -0.44969791 4
4.0324855 -8.0281734 1.4229281 21
2.314503 -4.6098914 -0.45129246 5
4.0216851 -8.0136442 1.7428495 20
3.8526027 -7.6800718 -0.45029861 6
4.023242 -8.0237312 2.0722492 35
4.0155044 -8.0082998 -0.15637356 24
4.0207458 -8.0222464 2.4044292 19
3.9984529 -8.0056543 0.15619904 27
0.88871592 -1.7801533 -0.45935005 2
3.9916816 -7.9990802 0.46851152 31
1.0322893 -2.0695469 -0.44954604 93
3.9907203 -8.0041475 0.78248423 31
1.2727542 -2.5527503 -0.45178279 4
3.9853375 -7.9968462 1.097068 20
1.6365937 -3.2853706 -0.45067286 4
3.9780223 -7.9891515 1.4135419 24
2.2975094 -4.616159 -0.45111811 5
3.9863405 -8.0093603 1.7390332 26
3.8360095 -7.7106876 -0.45134532 5
3.9792581 -8.0021305 2.0632513 41
3.9599338 -7.9667573 -0.15529151 22
3.9781051 -8.0068207 2.3956292 22
3.9580615 -7.994473 0.15571038 32
0.88854694 -1.7954707 -0.46249935 3
3.955389 -7.9925823 0.46736014 37
1.0271615 -2.076478 -0.45030925 70
3.9456112 -7.9798307 0.77882373 35
1.2673368 -2.564261 -0.45303425 4
3.9503658 -7.9964695 1.0951179 22
1.6303893 -3.3017428 -0.45213532 4
3.9410126 -7.9810443 1.4097875 28
2.2795434 -4.6183925 -0.45059517 5
3.9401181 -7.9862528 1.7310193 28
3.8143706 -7.7347794 -0.45197338 5
3.9392383 -7.9915013 2.0569522 44
3.9246514 -7.9619088 -0.15494247 25
3.9353087 -7.9870439 2.3857942 26
3.920953 -7.9860144 0.15529151 39
0.88001263 -1.793159 -0.46114969 3
3.921308 -7.9937887 0.46662742 45
1.017314 -2.0747626 -0.44916439 69
3.9098403 -7.9774528 0.77725488 40
1.2544796 -2.5595808 -0.45146993 4
3.9116001 -7.9845681 1.0917057 22
1.6168123 -3.3017826 -0.45140409 4
3.9044454 -7.9770103 1.4066589 31
2.2625332 -4.6245317 -0.45042086 3
3.8972194 -7.9657683 1.7237686 31
3.7904556 -7.7509727 -0.45218271 6
3.9050143 -7.9887624 2.0529034 46
3.8942018 -7.9701705 -0.15483776 26
3.8921454 -7.9694848 2.3764765 28
3.8825533 -7.9780755 0.15487266 43
0.86863327 -1.7857054 -0.45845026 2
3.8811533 -7.9822812 0.46516204 48
1.0164374 -2.0904839 -0.45183572 72
3.871172 -7.9652872 0.77481455 37
1.2446744 -2.5621669 -0.45115703 4
3.8706982 -7.9713879 1.0880497 24
1.6070106 -3.3109782 -0.45189157 4
3.8688169 -7.9745941 1.403843 31
2.2463765 -4.632401 -0.45042086 5
3.8616803 -7.9634252 1.7203341 29
3.7598913 -7.7569671 -0.45176399 5
3.871156 -7.9900699 2.0497539 46
3.8637426 -7.9783149 -0.15473303 31
3.8609362 -7.976068 2.3744061 28
3.8494682 -7.980773 0.15466323 47
0.86070186 -1.7852161 -0.45755047 2
3.8402612 -7.968792 0.46359196 48
1.0087688 -2.0941954 -0.45183572 72
3.8419516 -7.9794226 0.77481455 38
1.2387018 -2.5738318 -0.45240852 4
3.8351026 -7.9687524 1.085856 25
1.5920014 -3.309412 -0.45091662 5
3.8349636 -7.9755893 1.4016529 32
2.2379603 -4.6563759 -0.45198968 5
3.8299165 -7.9722166 1.719189 31
3.7357583 -7.7796988 -0.45228738 6
3.830883 -7.9813647 2.0439053 46
3.8306775 -7.9809365 -0.1545236 36
3.8330705 -7.9894967 2.3744061 30
3.819329 -7.9930239 0.15462832 50
0.85919231 -1.7989093 -0.46024984 2
3.8127491 -7.9864187 0.46380129 54
0.99468589 -2.0835302 -0.44878277 92
3.8089271 -7.9819956 0.77376866 42
1.2331115 -2.5852718 -0.45366001 4
3.8084314 -7.988131 1.0865872 28
1.582423 -3.3206007 -0.45164782 5
3.7980607 -7.9735417 1.3988371 34
2.2191224 -4.6587634 -0.45146674 5
3.7986889 -7.978447 1.7176627 33
3.70858 -7.7926912 -0.45228738 7
3.7996507 -7.9876494 2.0421057 49
3.7936721 -7.9786701 -0.15420946 28
3.7971272 -7.989532 2.3702648 32
3.787982 -7.9990768 0.1544887 52
0.85457516 -1.8054204 -0.46114969 2
3.781431 -7.9924564 0.46338257 58
0.98908627 -2.090539 -0.44954604 93
3.7708206 -7.973628 0.7716769 39
1.2223912 -2.5859885 -0.45303425 4
3.777133 -7.9941969 1.0856122 26
1.5759081 -3.3368742 -0.45311025 5
3.7659888 -7.977819 1.3972728 31
2.2036977 -4.6682825 -0.45164105 5
3.7683029 -7.986331 1.7165178 29
3.6898746 -7.8236542 -0.45333412 7
3.7717452 -8.000864 2.0421057 46
3.7649465 -7.9900546 -0.15417457 41
3.7642767 -7.9922523 2.3671591 30
3.7583368 -8.0086308 0.1544189 53
0.84661275 -1.8048637 -0.46024984 2
3.7557547 -8.0067596 0.46348724 60
0.98428339 -2.0993114 -0.4506909 94
3.7421181 -7.9849386 0.77150261 44
1.2100052 -2.5830843 -0.45178279 4
3.7458379 -8.0001411 1.0846373 28
1.5617266 -3.336961 -0.45237905 5
3.7420247 -7.9956312 1.3982115 33
2.1873889 -4.6759462 -0.45164105 5
3.7354126 -7.9887648 1.714228 30
3.6667714 -7.8455338 -0.45385748 8
3.7429702 -8.0122156 2.0416558 49
3.7358902 -7.9970598 -0.15406984 36
3.7336655 -7.9959393 2.3645709 32
3.7250111 -8.006546 0.15413967 53
0.83733612 -1.8005933 -0.45845026 2
3.7260995 -8.0162001 0.46327791 54
0.98356676 -2.1169782 -0.45374379 100
3.7192588 -8.0087948 0.7725485 44
1.1989368 -2.581708 -0.4508442 5
3.7126012 -7.9981155 1.0826874 26
1.5523231 -3.3457229 -0.45286649 4
3.7157547 -8.012228 1.3988371 33
2.1760809 -4.6943998 -0.45268691 5
3.7080746 -7.9993277 1.7138464 28
3.639055 -7.8540254 -0.45364809 9
3.7131042 -8.0175114 2.0398562 55
3.7113128 -8.0173111 -0.15420946 36
3.7081664 -8.014183 2.3661237 29
3.7020633 -8.0303955 0.15434909 50
0.82778329 -1.7964259 -0.45665067 2
3.6911368 -8.0103741 0.46223122 46
0.97243482 -2.1113122 -0.45183572 96
3.6951797 -8.026515 0.77307147 34
1.191569 -2.5894666 -0.45146993 5
3.683831 -8.0092211 1.0824436 17
1.5406352 -3.3511209 -0.45286649 4
3.6883392 -8.0227108 1.3985243 24
2.1629972 -4.7070212 -0.45320985 5
3.6834068 -8.0193596 1.715373 25
3.6141179 -7.8721256 -0.45396215 8
3.6753416 -8.0091696 2.0344574 30
3.6855397 -8.0313921 -0.15424436 32
3.6855969 -8.0352154 2.3687119 25
3.6787381 -8.049902 0.1544887 53
0.82667994 -1.8097961 -0.45935005 2
3.6714485 -8.0413771 0.46327791 55
0.96587414 -2.1164799 -0.45221734 100
3.6720998 -8.0502396 0.77411723 44
1.1895339 -2.6077812 -0.45397288 5
3.6654863 -8.0394564 1.0848809 21
1.5278674 -3.3525989 -0.45237905 4
3.6635864 -8.0427275 1.3997757 30
2.1457286 -4.7127295 -0.45303556 5
3.6624887 -8.0440369 1.7180443 27
3.5954382 -7.9004273 -0.45490417 8
3.6576374 -8.0408258 2.0394061 41
3.6607935 -8.0514889 -0.15438399 26
3.655129 -8.0427551 2.3671591 27
3.6530907 -8.0681601 0.15459342 43
0.82357126 -1.8197725 -0.46114969 2
3.6417112 -8.0505037 0.4630686 46
0.95561385 -2.1125162 -0.4506909 100
3.6363547 -8.0424023 0.77219987 33
1.1787968 -2.6083176 -0.45334715 6
3.643122 -8.0648651 1.0865872 15
1.5218735 -3.3705761 -0.4540852 4
3.6322401 -8.0482645 1.3985243 27
2.1243491 -4.7092934 -0.45198968 5
3.6376162 -8.0639296 1.7195706 22
3.5752268 -7.929316 -0.45584619 9
3.6319506 -8.0588741 2.040756 38
3.6318443 -8.062397 -0.15434909 34
3.6294107 -8.06075 2.3687119 25
3.6232681 -8.0772133 0.1545236 30
0.81641686 -1.820858 -0.46069977 3
3.6258385 -8.0905066 0.46463865 40
0.94786471 -2.1160045 -0.4506909 100
3.6141818 -8.0720425 0.77376866 30
1.1660011 -2.6054082 -0.45209566 5
3.6165686 -8.0811567 1.0870746 14
1.5092882 -3.3740561 -0.45384148 3
3.6121879 -8.078928 1.4016529 21
2.1087103 -4.7184992 -0.45216399 5
3.6040328 -8.0682468 1.7176627 19
3.5469558 -7.9441905 -0.45595092 8
3.6127131 -8.0952654 2.0466046 35
3.6110141 -8.0914593 -0.15466323 27
3.6036124 -8.0786619 2.3702648 24
3.6033802 -8.1123686 0.15494247 32
0.80499303 -1.8131514 -0.45800033 1
3.6042631 -8.1219969 0.4656854 39
0.94525063 -2.1300673 -0.45298058 98
3.5940604 -8.1028223 0.7755118 30
1.1568997 -2.6094623 -0.45209566 5
3.5933607 -8.1088781 1.0890245 15
1.4969114 -3.3795652 -0.45384148 4
3.5929487 -8.1155949 1.4057202 23
2.0938215 -4.7316623 -0.45268691 5
3.5822034 -8.0951395 1.7207156 18
3.5135469 -7.943737 -0.45521817 8
3.5907366 -8.1220856 2.0502038 24
3.5934567 -8.1320763 -0.1551868 23
3.5833447 -8.1130219 2.3764765 24
3.5871212 -8.1523533 0.15546604 29
0.80650443 -1.8337888 -0.46249935 1
3.5799084 -8.143671 0.46620873 34
0.94217563 -2.1443019 -0.45527029 100
3.5739527 -8.1378317 0.77760357 22
1.1489156 -2.6173024 -0.45272139 5
3.5650334 -8.1213713 1.0890245 13
1.4819152 -3.3774984 -0.45286649 3
3.5701504 -8.1407499 1.4079103 17
2.0876896 -4.7626643 -0.45495299 5
3.5635393 -8.1333904 1.7260582 15
3.4868119 -7.9620509 -0.45553222 7
3.5648506 -8.1441183 2.0524535 24
3.5698595 -8.1555614 -0.15539622 20
3.5635219 -8.1449499 2.3821707 20
3.5672619 -8.1807013 0.15578018 26
0.7988618 -1.8328801 -0.46159956 1
3.5544786 -8.1591597 0.46641809 28
0.92524099 -2.1238527 -0.45030925 94
3.5610952 -8.1782455 0.78039253 19
1.143841 -2.628144 -0.45397288 5
3.5547113 -8.1713753 1.094143 10
1.4738731 -3.3896761 -0.45384148 3
3.5502212 -8.1688499 1.4107262 14
2.0718851 -4.7695613 -0.45495299 6
3.5489206 -8.169755 1.7314008 12
3.4609864 -7.9711337 -0.45542756 8
3.5470052 -8.1731539 2.0569522 22
3.5531406 -8.1912031 -0.15584999 18
3.5495565 -8.1868534 2.3909705 18
3.5505772 -8.2206392 0.15630375 21
0.79091394 -1.8320795 -0.46069977 1
3.5418024 -8.2081928 0.46851152 24
0.91667318 -2.125427 -0.44992763 93
3.5358291 -8.2022219 0.78143841 15
1.1334189 -2.6305048 -0.45366001 6
3.5395203 -8.2147255 1.0982866 8
1.4620323 -3.3948002 -0.45384148 3
3.5334013 -8.2084084 1.4154192 10
2.0465617 -4.7566328 -0.45303556 5
3.5321386 -8.2133684 1.7378885 10
3.4396343 -8.0021143 -0.45647424 7
3.5285649 -8.2129564 2.0637012 19
3.5363665 -8.2311153 -0.15637356 18
3.5301034 -8.2204952 2.397182 15
3.5306432 -8.2575016 0.15675752 14
0.78495979 -1.836758 -0.46114969 1
3.5335357 -8.2682581 0.47123301 13
0.91696042 -2.146668 -0.45374379 99
3.5259533 -8.2584906 0.78562188 9
1.1219038 -2.6289942 -0.45272139 5
3.5257423 -8.2659883 1.1034052 7
1.4480228 -3.3964837 -0.453354 4
3.5209963 -8.258852 1.4219894 8
2.0330694 -4.7710791 -0.45373279 5
3.5180635 -8.2599659 1.7451392 7
3.4132462 -8.0177479 -0.45668361 8
3.5181866 -8.2682581 2.0744987 16
3.5311019 -8.2986116 -0.15742071 15
3.5180213 -8.2718773 2.4085703 13
3.5250821 -8.3207197 0.15773484 10
0.77734494 -1.8357617 -0.46024984 1
3.5248923 -8.3283644 0.47395447 11
0.91328603 -2.1588964 -0.45565188 100
3.5211565 -8.3276358 0.79102546 8
1.1139485 -2.6345201 -0.45303425 5
3.5207229 -8.3306608 1.1104735 6
1.4398414 -3.4085815 -0.45432895 4
3.516732 -8.3293276 1.4320012 7
2.0218258 -4.7909961 -0.45495299 5
3.5105002 -8.3186159 1.7550613 6
3.3827586 -8.0198212 -0.45616025 6
3.5164883 -8.3409348 2.0897954 10
3.5393851 -8.3993397 -0.15909614 9
3.5101228 -8.3339577 2.423064 10
3.5223203 -8.395669 0.15892163 3
0.7709319 -1.838464 -0.46024984 1
3.5151005 -8.3866673 0.47657129 2
0.90308619 -2.1546707 -0.45412543 99
3.5389438 -8.4476881 0.80130988 2
1.1100863 -2.6511469 -0.45522434 5
1.4218059 -3.398936 -0.45237905 5
3.5310702 -8.4454346 1.4498348 1
2.0074642 -4.8013506 -0.45530161 5
3.5155058 -8.4123335 1.772234 2
3.3562818 -8.0352659 -0.45636958 6
6.1601124 -14.755146 3.6914465 10
7.4343958 -17.816147 -0.33697107 8
4.909554 -11.771277 3.4174469 14
0.76600462 -1.8447435 -0.46114969 1
0.89179689 -2.1487434 -0.45221734 100
1.1023388 -2.6586552 -0.45585006 5
10.607069 -25.595095 3.4018612 15
1.4144906 -3.4148824 -0.45384148 4
1.9899298 -4.806488 -0.45512727 5
3.3320303 -8.0561609 -0.45689294 6
6.1301599 -14.828787 3.704494 26
7.395833 -17.899282 -0.33805311 8
4.8794966 -11.815125 3.4252112 32
0.76548856 -1.8618249 -0.46474886 1
0.88727576 -2.1591067 -0.45374379 100
1.0930512 -2.6624868 -0.45585006 6
10.511634 -25.61727 3.3999112 15
1.4018089 -3.4179623 -0.45359772 4
1.9738955 -4.8152485 -0.45530161 5
3.3114586 -8.0862255 -0.45793965 6
6.1049356 -14.915021 3.7206905 24
7.3643522 -18.000874 -0.33948421 8
4.8565025 -11.876791 3.4381523 32
12.548858 -30.811497 0.58071136 7
0.7516377 -1.8464363 -0.46024984 1
12.528842 -30.793127 1.7422642 5
0.88047349 -2.1640093 -0.45412543 100
1.0778004 -2.6516464 -0.45334715 5
10.411689 -25.628061 3.3964989 11
1.3906158 -3.424674 -0.45384148 4
1.9593232 -4.8276472 -0.45582449 5
3.2847123 -8.1014376 -0.45814902 6
6.0769887 -14.995839 3.7355373 22
7.3277469 -18.091339 -0.3407059 7
4.830965 -11.933065 3.4495404 32
12.392616 -30.734564 0.57844257 21
0.74664497 -1.8526638 -0.46114969 1
12.395159 -30.771833 1.7386006 46
0.87364787 -2.168891 -0.45450708 100
12.385624 -30.763653 2.9014146 30
1.0700126 -2.6590574 -0.45397288 5
10.310314 -25.634781 3.3925991 11
1.3845766 -3.4442422 -0.45579138 4
1.940974 -4.83076 -0.4554759 5
6.1757231 -15.378099 3.2212374 3
3.2549255 -8.1091461 -0.45793965 6
6.0463724 -15.071219 3.7490342 19
7.3017635 -18.20961 -0.34245113 7
4.8101244 -12.001859 3.4645519 31
12.248194 -30.684774 0.57669735 20
0.74017316 -1.8552589 -0.46114969 1
12.244762 -30.707312 1.7325296 28
0.86607164 -2.1719272 -0.45450708 100
12.244972 -30.723412 2.8935704 30
1.0629174 -2.668282 -0.4549115 6
10.227377 -25.687214 3.3947926 11
1.3703438 -3.4435208 -0.45506018 4
1.9321994 -4.8578706 -0.45739332 5
6.123457 -15.403214 3.2220011 3
3.2339733 -8.13902 -0.45898637 6
6.0131497 -15.141136 3.7611818 15
7.2617655 -18.294462 -0.34356809 7
4.7902837 -12.074243 3.4805987 31
12.101326 -30.626911 0.57481247 20
0.73655587 -1.8650812 -0.46294928 1
12.101051 -30.641861 1.7265633 28
0.85416025 -2.1639802 -0.45221734 100
12.094509 -30.65662 2.8832862 30
1.0564954 -2.6793263 -0.45616296 6
10.136196 -25.719063 3.3943052 11
1.3530941 -3.4332714 -0.45311025 4
1.9152304 -4.8645859 -0.45739332 3
6.0725293 -15.431803 3.2235274 3
3.2106612 -8.16327 -0.45971909 5
5.9828777 -15.211771 3.7737789 14
7.2252007 -18.379858 -0.34471995 6
4.7714124 -12.144002 3.4961278 26
11.964721 -30.577486 0.57313699 20
0.73178649 -1.8711432 -0.46384907 1
11.968092 -30.601841 1.7220626 28
0.84840894 -2.1704578 -0.45298058 100
11.954356 -30.5982 2.8740478 30
1.0490416 -2.6864953 -0.45678869 6
10.045078 -25.73774 3.3923552 7
1.3474753 -3.4525335 -0.45506018 3
1.9005363 -4.8746228 -0.45774195 3
6.0163298 -15.439052 3.220856 2
3.1900961 -8.1906214 -0.46066111 5
5.9599819 -15.302346 3.7913249 15
7.1961308 -18.485708 -0.34625572 5
4.7430229 -12.190365 3.5049276 27
11.826408 -30.521902 0.57135689 13
0.72557747 -1.8735597 -0.46384907 1
11.826594 -30.554024 1.7170383 22
0.84404171 -2.1805828 -0.45450708 100
11.815441 -30.54105 2.8649836 22
1.0351402 -2.6770623 -0.45459861 6
1.3354155 -3.4572163 -0.45506018 4
1.8807728 -4.8716044 -0.45687038 2
5.9608569 -15.447926 3.2185662 2
3.1657929 -8.2086086 -0.46107981 5
5.932466 -15.390336 3.8079715 13
7.1545625 -18.570431 -0.34737271 4
4.7177978 -12.251917 3.5178688 26
11.685431 -30.473373 0.56968147 13
0.71624357 -1.8688022 -0.46204948 1
11.682714 -30.498138 1.7115953 22
0.83782917 -2.1871827 -0.45527029 100
11.678843 -30.50396 2.8576624 22
1.0250834 -2.6788142 -0.45428574 6
1.3247569 -3.465565 -0.45554763 4
1.8694456 -4.8930297 -0.45826489 2
5.9083004 -15.472309 3.2193296 2
3.1328473 -8.2084141 -0.46045178 4
5.9009328 -15.469214 3.8223684 13
7.1281667 -18.696188 -0.34925756 5
4.6963267 -12.324271 3.5339153 24
8.6276608 -22.736382 0.42447743 3
0.70971584 -1.8712909 -0.46204948 0
11.554241 -30.480835 1.7083505 5
0.83018959 -2.1900938 -0.45527029 100
11.547587 -30.47933 2.8515615 14
1.0164255 -2.6842237 -0.45459861 5
1.3098422 -3.4627414 -0.45457271 3
1.8495352 -4.8920708 -0.45756766 2
5.8716059 -15.53875 3.2288699 3
3.1084089 -8.2305098 -0.46107981 4
5.8654799 -15.538945 3.8345158 13
7.0882721 -18.788311 -0.35051414 5
4.6764522 -12.40205 3.5515151 21
8.4807625 -22.586639 0.42112657 7
0.70181006 -1.8701081 -0.46114969 0
8.4793911 -22.606955 1.2653788 6
0.81702405 -2.1782725 -0.45221734 100
8.4827538 -22.627939 2.114224 3
1.0112084 -2.698854 -0.45647582 5
1.294964 -3.4598556 -0.45359772 3
1.8408246 -4.9208899 -0.45965937 1
5.8427663 -15.627191 3.2429898 2
3.084554 -8.2544069 -0.46181253 3
5.8357496 -15.625042 3.8507121 13
7.0450225 -18.872889 -0.35163108 4
4.6493392 -12.461737 3.5639384 22
8.3684444 -22.526127 0.41945112 11
0.70206124 -1.890815 -0.46564871 0
8.360816 -22.529686 1.2594125 9
0.81214732 -2.1884735 -0.45374379 100
8.3663015 -22.556538 2.1048112 7
1.003155 -2.7060716 -0.45710155 5
1.2883936 -3.4792473 -0.45554763 3
1.8222531 -4.9235487 -0.45931077 1
3.0619559 -8.2819834 -0.46275455 3
5.8014345 -15.700158 3.8642094 11
7.0151281 -18.994909 -0.35344613 4
4.6232057 -12.525011 3.5773969 22
8.2649288 -22.487633 0.41819459 11
0.69680047 -1.8969129 -0.4665485 0
8.2669792 -22.517485 1.2571098 9
0.80518001 -2.1931381 -0.45412543 100
8.2600594 -22.510786 2.0978386 7
0.98622078 -2.6891565 -0.45366001 4
1.2762408 -3.4837236 -0.45554763 2
1.7982054 -4.911171 -0.45756766 1
3.0357718 -8.3001242 -0.46317327 3
5.7746973 -15.797184 3.883105 11
6.9748569 -19.090656 -0.35477251 4
4.5986729 -12.593698 3.5924087 19
8.1768141 -22.490036 0.41770592 11
0.6861816 -1.888344 -0.46384907 1
8.1813488 -22.514742 1.255435 9
0.8008703 -2.2051623 -0.45603353 100
8.1664782 -22.49828 2.0940039 7
0.97884911 -2.6981535 -0.45459861 3
1.2694832 -3.503088 -0.45749757 2
1.7986923 -4.9661231 -0.46209973 1
3.0013444 -8.2956457 -0.46233588 3
5.7314496 -15.850232 3.8912032 5
6.9441533 -19.203945 -0.35644796 4
4.5765834 -12.663383 3.6079376 17
8.0967722 -22.501974 0.41742668 11
0.67859691 -1.8869418 -0.46294928 0
8.0891991 -22.505573 1.2533417 9
0.79184067 -2.2042489 -0.45527029 100
8.0878935 -22.526648 2.0940039 7
0.97123122 -2.7051027 -0.45522434 2
1.253839 -3.496067 -0.45603511 1
2.981225 -8.3262358 -0.46348724 1
5.6768861 -15.863647 3.889854 1
6.9046845 -19.305267 -0.35787904 3
4.5538101 -12.739312 3.6250196 18
8.0168381 -22.526333 0.41735685 15
0.67331237 -1.8929709 -0.46384907 0
8.0052347 -22.518616 1.2525042 9
0.78058106 -2.1957638 -0.45298058 100
8.0091486 -22.542082 2.092958 3
0.969715 -2.7308149 -0.4589788 1
1.2469367 -3.5153894 -0.45798501 1
2.9521422 -8.3365917 -0.46348724 1
4.6709085 -13.19756 3.2320969 1
6.8605952 -19.395233 -0.3591007 3
4.5247679 -12.798844 3.6374431 19
7.940146 -22.559839 0.41746157 7
0.66799384 -1.8989863 -0.46474886 1
7.935195 -22.570917 1.253865 6
0.77551639 -2.2058837 -0.45450708 100
7.9290886 -22.566141 2.0926092 3
0.9654128 -2.7490933 -0.46148172 1
1.2333438 -3.5159745 -0.45749757 1
2.9256649 -8.3543863 -0.46390596 1
4.6312509 -13.232178 3.2365956 3
6.8265228 -19.515329 -0.36088088 2
4.4966412 -12.861974 3.6509016 16
7.8679247 -22.606302 0.41781059 7
0.66008055 -1.8976254 -0.46384907 0
7.8668499 -22.628664 1.2555398 6
0.77103478 -2.2178493 -0.45641515 100
7.862042 -22.627558 2.095747 3
0.9467389 -2.7263217 -0.45710155 1
2.8990986 -8.372097 -0.46432465 1
4.5850329 -13.248262 3.2365956 3
6.7818947 -19.607073 -0.36213747 2
4.4681273 -12.925064 3.6643603 16
7.8006778 -22.667664 0.41843891 7
0.65345246 -1.899918 -0.46384907 0
7.7930093 -22.671095 1.2563771 6
0.75945932 -2.2093871 -0.45412543 74
7.8101974 -22.734003 2.1030681 3
0.93721646 -2.7296097 -0.45710155 1
2.8698566 -8.3821669 -0.46432465 1
4.5349746 -13.253125 3.2338963 1
6.7470613 -19.729015 -0.36395246 2
4.4454761 -13.006391 3.6829951 16
7.7446918 -22.762907 0.41969547 3
0.64807123 -1.9058775 -0.46474886 0
7.7292504 -22.743544 1.2588892 3
0.75237447 -2.2138836 -0.45450708 75
2.8418617 -8.3959169 -0.46453398 1
4.4911842 -13.276258 3.2356961 1
6.7063313 -19.8358 -0.36548829 2
4.419219 -13.078566 3.6990421 15
7.7072639 -22.914896 0.42199919 3
0.64514029 -1.919211 -0.46744829 0
7.681613 -22.865051 1.2641228 3
0.74401635 -2.2146354 -0.45412543 49
2.8176067 -8.4209375 -0.46537137 1
4.4398675 -13.27707 3.2320969 1
6.6687446 -19.953918 -0.36723354 2
4.3931251 -13.152547 3.7156065 15
0.63843703 -1.9214512 -0.46744829 0
0.73875648 -2.2246718 -0.45565188 25
2.7706351 -8.3776264 -0.46244055 0
4.3910499 -13.285085 3.2302971 1
6.6241403 -20.053026 -0.36862975 1
4.3629332 -13.215497 3.7290649 15
9.7993689 -29.822493 0.54793578 6
0.63537407 -1.9347769 -0.47014773 0
9.7801476 -29.799061 1.6436633 5
0.7444551 -2.268275 -0.46404752 28
2.7575076 -8.4366055 -0.46516204 0
4.3482814 -13.311445 3.2329965 3
6.5876131 -20.178679 -0.3705146 1
4.3365498 -13.291254 3.7461472 14
9.6581526 -29.742401 0.54584146 6
0.62260121 -1.9184471 -0.46564871 0
9.6625118 -29.791222 1.6413604 5
0.73653275 -2.2708597 -0.46404752 28
2.7317257 -8.4575834 -0.46579006 0
4.311964 -13.358071 3.2406449 6
6.5490642 -20.300512 -0.37232965 1
4.3096924 -13.366984 3.7632291 12
9.5383902 -29.726427 0.54493392 6
0.61709064 -1.9243202 -0.4665485 0
9.5377398 -29.760099 1.6378015 5
2.7009721 -8.4632626 -0.46558073 0
4.2866282 -13.439878 3.2568414 6
6.5085273 -20.418512 -0.37407491 1
4.2794228 -13.433487 3.7777228 10
9.420064 -29.713793 0.54409623 6
0.63509077 -2.0044868 -0.48544434 0
9.4088364 -29.696367 1.632568 5
2.6678095 -8.4612103 -0.46495271 0
4.2595992 -13.517953 3.2721379 4
6.4768367 -20.554417 -0.37616917 1
3.2884235 -10.442254 2.9334552 4
0.62844014 -2.006582 -0.48544434 0
9.2752924 -29.633726 1.6273344 5
2.6777699 -8.5920448 -0.47165167 0
4.2309771 -13.5841 3.2847352 4
6.4383326 -20.683823 -0.37812382 1
3.2485101 -10.442602 2.9303493 5
4.215621 -13.703092 3.3099298 4
6.4013553 -20.820854 -0.38021812 1
3.2109036 -10.450185 2.9293141 5
4.1819263 -13.764338 3.3211775 4
6.3576846 -20.938745 -0.38196337 1
3.1772118 -10.470572 2.9319022 5
4.1478539 -13.825516 3.3324251 4
3.1400883 -10.479748 2.9313846 4
4.1156187 -13.894096 3.3454721 4
3.1034877 -10.490644 2.9313846 4
4.0878792 -13.979452 3.3625684 3
3.0625172 -10.486579 2.9272435 4
4.0660758 -14.087253 3.3850634 3
3.0280347 -10.50463 2.9293141 4
4.0393014 -14.180076 3.4039595 3
2.9934621 -10.522569 2.9313846 4
4.0003266 -14.231609 3.4129574 1
2.9561913 -10.531095 2.930867 3
3.97562 -14.335624 3.4345527 1
2.9173512 -10.533901 2.9287965 3
3.946125 -14.424601 3.4525487 1
2.8815799 -10.547749 2.9298317 3
3.908947 -14.487206 3.4642463 1
2.8435698 -10.546054 2.9267259 3
3.8879633 -14.601777 3.4885409 1
2.8092217 -10.565251 2.9293141 4
2.7831025 -10.616104 2.9407022 4
2.7614973 -10.685607 2.9572666 4
2.7384856 -10.751344 2.9727957 4
2.7136374 -10.811428 2.9867721 3
2.6888669 -10.873344 3.0012658 3
2.6664417 -10.946481 3.0188653 3
2.6435368 -11.019592 3.0364652 2
2.6152689 -11.071996 3.0483708 1
2.5906067 -11.141271 3.0649354 1
2.5710919 -11.234988 3.0882289 1
2.5508108 -11.318837 3.1089346 1
2.5213199 -11.372936 3.1213577 1
2.4934778 -11.426534 3.1337812 0
-1.89583 -2.3765659 -0.48150533 1
-1.9016393 -2.3668542 -0.4808796 2
-1.9148602 -2.3663442 -0.48213109 1
-1.9177059 -2.3538554 -0.4808796 2
-1.9259108 -2.3471467 -0.4808796 2
-12.540668 -15.272695 3.1299412 3
-6.8627677 -8.3429852 2.8946323 1
-1.9236192 -2.3285642 -0.47837666 2
-12.614046 -15.253183 3.1349471 3
-6.8893809 -8.3160048 2.8935969 1
-1.9292083 -2.3187985 -0.47775093 3
-12.679852 -15.22424 3.1380758 5
-6.9158916 -8.2889385 2.8925617 2
-1.5833669 -1.8903315 -0.47931221 33
-1.9453086 -2.3207951 -0.47962815 3
-12.740534 -15.188966 3.1399529 5
-6.9323559 -8.2499561 2.8873854 3
-1.5697016 -1.8607829 -0.47320631 31
-1.9495751 -2.3094618 -0.47868952 3
-18.181719 -21.530407 3.4601147 7
-12.803774 -15.151218 3.1418302 7
-6.9712849 -8.2348137 2.8910089 4
-1.583814 -1.8642694 -0.47549605 31
-1.9563448 -2.3011382 -0.47837666 3
-18.282486 -21.497053 3.4649894 8
-12.857861 -15.107939 3.142143 8
-10.511108 -12.346143 3.1517832 2
-6.9849467 -8.1927881 2.8847973 4
-1.5903125 -1.858729 -0.47549605 31
-1.9566569 -2.2852919 -0.47649944 3
-18.367748 -21.445162 3.4669394 12
-12.929801 -15.085462 3.146836 12
-10.490246 -12.234855 3.1327024 2
-10.457534 -12.188097 3.7076433 1
-9.3177757 -10.852058 3.8325925 3
-1.6096059 -1.8680398 -0.47931221 33
-1.9646227 -2.2784474 -0.47649944 3
-18.45805 -21.398956 3.4698644 8
-13.006908 -15.068645 3.1527805 14
-10.512358 -12.174389 3.1265965 2
-10.39554 -12.030606 3.6707513 1
-9.3518095 -10.815084 3.8310397 5
-1.6083965 -1.8535129 -0.4770225 32
-1.9777443 -2.2775424 -0.47775093 4
-13.074978 -15.041043 3.1565351 15
-10.559943 -12.143545 3.1281228 2
-10.319777 -11.859002 3.6293602 3
-9.4009247 -10.795483 3.8356984 6
-1.6045218 -1.8360609 -0.47396958 31
-1.9934849 -2.2795467 -0.47962815 3
-13.137811 -15.007201 3.1590378 15
-10.607442 -12.112517 3.1296492 2
-10.269918 -11.718849 3.5974171 5
-9.4283581 -10.750984 3.8315573 6
-1.6161087 -1.8363442 -0.47549605 63
-18.240761 -20.719223 2.4150856 9
-2.0014298 -2.2725742 -0.47962815 4
-13.204487 -14.977551 3.1624796 19
-3.690572 -4.1861324 -0.48824647 4
-10.643164 -12.068054 3.1277411 3
-10.220499 -11.580652 3.5659242 4
-9.4683857 -10.720902 3.8325925 7
-1.6251137 -1.8336298 -0.47625926 64
-18.307688 -20.649462 2.4143884 9
-1.9988641 -2.2537515 -0.4771252 4
-18.138468 -20.444216 3.3557944 3
-13.277668 -14.955004 3.1674855 21
-12.767255 -14.375051 3.737185 1
-10.167648 -11.440034 3.5335312 4
-9.4967651 -10.677682 3.828969 7
-1.6393483 -1.8367342 -0.478549 65
-15.720433 -17.607077 2.065068 6
-2.001456 -2.2408667 -0.47587368 4
-18.019264 -20.167614 3.3206961 3
-13.356126 -14.938012 3.1737428 26
-12.81212 -14.324544 3.7356586 4
-10.126944 -11.314442 3.5056372 6
-9.5301104 -10.640152 3.8274162 8
-1.6404997 -1.8251605 -0.4770225 64
-2.0211551 -2.2470846 -0.47868952 4
-17.94084 -19.93932 3.2933974 3
-13.42405 -14.908916 3.1774971 31
-12.87518 -14.294324 3.739475 4
-10.065914 -11.167564 3.4709947 8
-9.5710783 -10.611123 3.828969 8
-1.6363209 -1.8077787 -0.47396958 62
-16.25219 -17.948828 2.1184075 7
-2.0303123 -2.2414804 -0.47900239 4
-17.863712 -19.714758 3.2665861 7
-13.48403 -14.876027 3.1800003 35
-12.924999 -14.249293 3.739475 5
-10.007297 -11.02877 3.4381518 9
-9.6075096 -10.580757 3.8294866 9
-1.639662 -1.7994399 -0.47320631 62
-15.993518 -17.545864 2.0770955 10
-2.0297484 -2.2259774 -0.4771252 3
-17.771132 -19.482351 3.2378249 6
-13.54793 -14.847284 3.1834416 40
-12.968208 -14.202004 3.7383301 5
-9.9675865 -10.912073 3.4120576 11
-9.6386337 -10.544561 3.8279338 10
-17.660603 -19.266415 0.4562059 4
-1.659207 -1.8081708 -0.4770225 64
-16.112232 -17.55879 2.0849397 7
-2.0384545 -2.2206893 -0.47743803 3
-17.682579 -19.256626 3.2100389 6
-13.627743 -14.830447 3.190012 46
-13.009732 -14.147981 3.7360406 5
-9.9251356 -10.789727 3.3846135 13
-9.6727657 -10.508008 3.8268983 12
-17.595436 -19.05464 0.45271543 4
-17.611811 -19.059032 1.3600023 3
-1.6738192 -1.8107272 -0.47931221 66
-2.0519447 -2.2190044 -0.47868952 3
-17.593977 -19.019735 3.1812778 6
-13.706161 -14.806492 3.1956437 45
-13.05883 -14.097321 3.7352769 5
-9.8838186 -10.666084 3.3571696 13
-9.7151556 -10.476736 3.8284514 15
-17.509886 -18.823112 0.44873628 4
-17.51553 -18.815998 1.3472323 3
-1.6590371 -1.7815924 -0.47320631 62
-17.709635 -19.017868 2.2735445 25
-2.0641036 -2.2158048 -0.47962815 4
-17.517412 -18.798275 3.1549537 6
-13.722617 -14.715706 3.1868834 16
-3.8366284 -4.1128411 -0.49208131 3
-13.113095 -14.052231 3.7360406 6
-9.8297606 -10.530069 3.3256762 14
-9.7521744 -10.439644 3.8279338 16
-17.450232 -18.621647 0.44545525 4
-17.412235 -18.568108 1.3340436 7
-1.6736155 -1.7840905 -0.47549605 63
-17.727427 -18.89761 2.2669208 17
-2.0695069 -2.2053442 -0.47900239 3
-17.450329 -18.589214 3.1305799 6
-13.652029 -14.532858 3.1580994 17
-3.8612278 -4.1089149 -0.49330151 3
-13.168541 -14.008368 3.737185 8
-9.7921925 -10.413054 3.3000321 16
-9.7863979 -10.399611 3.8263807 25
-17.3582 -18.400759 0.44154587 8
-17.355333 -18.391296 1.3252512 7
-1.6738211 -1.7731138 -0.47396958 62
-21.560024 -22.830992 2.7473233 13
-2.0768087 -2.1984692 -0.47900239 3
-17.37553 -18.386969 3.1062059 9
-13.583632 -14.369311 3.1318183 17
-3.8659027 -4.0880795 -0.49225563 3
-13.207089 -13.961224 3.7356586 9
-9.7422705 -10.291364 3.2716882 13
-9.7379932 -10.283249 3.794805 28
-17.253885 -18.16909 0.43735731 8
-17.279091 -18.182928 1.3145747 6
-1.6908219 -1.778643 -0.4770225 64
-17.265259 -18.155678 2.191967 7
-2.0772815 -2.184413 -0.47743803 4
-17.294117 -18.179668 3.0808573 9
-13.526107 -14.208781 3.1071017 17
-3.8691573 -4.0630169 -0.49086115 3
-13.246541 -13.910244 3.7337506 9
-9.7050934 -10.184231 3.2478433 21
-13.034845 -13.673599 -0.32974577 2
-9.697835 -10.169504 3.7652996 28
-17.192812 -17.978683 0.43421587 8
-17.190559 -17.963772 1.3030608 6
-1.6994253 -1.7758635 -0.47778577 65
-17.208263 -17.975988 2.1771505 11
-2.0780625 -2.1700149 -0.47587368 4
-17.196808 -17.951468 3.0523398 9
-13.479933 -14.061661 3.0852008 17
-3.8950183 -4.0631084 -0.49242991 2
-13.297738 -13.866751 3.7345138 9
-9.6528759 -10.058899 3.2185996 19
-13.099119 -13.645325 -0.33016464 2
-9.6677094 -10.067314 3.7399354 29
-17.102886 -17.760118 0.43037635 8
-17.100712 -17.745459 1.2915468 6
-1.6947154 -1.7586112 -0.47473282 63
-17.135393 -17.775238 2.1600678 11
-2.0911098 -2.1684356 -0.4771252 4
-17.127058 -17.754177 3.0289409 8
-13.476802 -13.960515 3.073312 11
-3.9174805 -4.0580878 -0.49347579 2
-13.351518 -13.825898 3.7360406 11
-9.6107435 -9.9452648 3.1929553 24
-13.25091 -13.707346 -0.33278248 4
-9.6289272 -9.9571285 3.7114654 29
-17.06176 -17.594078 0.42779338 7
-17.044323 -17.563826 1.2826498 9
-1.6981094 -1.7498671 -0.47396958 62
-17.105743 -17.620964 2.1485631 26
-2.1014192 -2.1639566 -0.47775093 3
-17.058903 -17.560444 3.0060294 11
-13.508931 -13.896387 3.0695577 11
-3.931623 -4.0443878 -0.49347579 2
-13.35042 -13.72854 3.7223022 19
-9.576088 -9.8404293 3.1700103 24
-13.249853 -13.610861 -0.33156082 1
-9.5935411 -9.8514872 3.6845481 30
-17.005709 -17.41424 0.4248614 3
-16.968729 -17.364233 1.2723918 13
-1.7042073 -1.7439287 -0.47396958 62
-17.160183 -17.554029 2.147692 45
-2.1172464 -2.1650827 -0.47962815 3
-16.989611 -17.367403 2.9831181 8
-13.560117 -13.851973 3.0701833 13
-3.9206283 -4.0050125 -0.49033821 2
-13.289744 -13.571042 3.6921542 20
-9.6035566 -9.7999859 3.1677608 22
-13.291684 -13.558815 -0.33142123 1
-9.548069 -9.736558 3.6540074 29
-16.90016 -17.179726 1.2629714 12
-1.7185462 -1.7463655 -0.47625926 64
-2.1123166 -2.1450112 -0.4768123 3
-16.921963 -17.177891 2.9606941 11
-13.608749 -13.809742 3.0708089 13
-3.942977 -3.9998155 -0.49138409 2
-13.226755 -13.412738 3.6616247 22
-9.6428452 -9.7750216 3.1700103 21
-13.373095 -13.551671 -0.33232874 1
-9.5070143 -9.6306028 3.6260548 30
-13.477365 -13.614494 0.33438814 2
-16.827747 -16.993025 1.2533417 12
-1.7215644 -1.7378675 -0.47549605 63
-17.122198 -17.278311 2.1281688 3
-2.1221995 -2.1408005 -0.47743803 3
-16.841856 -16.983543 2.9368076 10
-13.643342 -13.75332 3.068306 6
-3.9646397 -3.9952033 -0.49242991 2
-13.178492 -13.275452 3.6360567 26
-9.6724615 -9.7402248 3.1691103 21
-13.465876 -13.555482 -0.3335155 1
-9.4653654 -9.5250263 3.5981026 29
-13.525262 -13.57256 0.33445793 5
-16.752977 -16.799831 1.2433978 12
-1.727318 -1.7321489 -0.47549605 63
-17.038691 -17.080381 2.1107376 3
-2.1306825 -2.1351495 -0.47775093 3
-16.757837 -16.787109 2.9124339 10
-2.8642964 -2.8682995 -0.49771443 1
-14.509364 -14.524567 3.2516472 62
-3.9778664 -3.9820342 -0.49242991 1
-13.128076 -13.137242 3.6101062 24
-9.6940012 -9.6940012 3.1650612 22
-13.507455 -13.502741 -0.33337587 1
-9.4220324 -9.4154577 3.5691149 29
-13.637714 -13.590196 0.33606353 2
-16.688393 -16.618639 1.2342913 15
-1.7389184 -1.7316501 -0.4770225 64
-16.827101 -16.750919 2.07727 14
-2.140923 -2.1304858 -0.47837666 2
-16.698114 -16.610916 2.8919599 10
-14.571183 -14.484969 3.2541499 68
-3.9973946 -3.973743 -0.4931272 1
-13.079155 -12.997237 3.5841563 24
-9.730546 -9.6628494 3.165961 24
-13.597077 -13.497775 -0.33442301 1
-9.3917637 -9.3199158 3.5453036 30
-16.621649 -16.448488 0.40817687 14
-16.618488 -16.433891 1.2248708 15
-1.7309929 -1.7117651 -0.47320631 62
-16.840132 -16.647251 2.071692 7
-2.1511564 -2.1257768 -0.47900239 2
-16.638783 -16.436735 2.8717294 12
-2.8418779 -2.8063879 -0.49040228 1
-14.641336 -14.453451 3.2585304 70
-4.0119314 -3.9590659 -0.4931272 1
-13.022434 -12.850838 3.5562983 25
-9.7628269 -9.6274586 3.1655111 24
-13.664051 -13.469881 -0.33491167 1
-9.3430557 -9.2070723 3.5147629 32
-16.547741 -16.261423 0.40496564 14
-16.561754 -16.263824 1.2164971 15
-1.7456611 -1.7136611 -0.47549605 63
-16.804331 -16.490528 2.0598388 3
-2.1561139 -2.1151111 -0.47837666 2
-16.569939 -16.254829 2.8500369 12
-2.843152 -2.7881119 -0.48893982 1
-14.715678 -14.425762 3.263849 68
-4.0257277 -3.9450366 -0.4931272 1
