# .PCD v0.7 - Point Cloud Data file format
VERSION 0.7
FIELDS x y z intensity
SIZE 4 4 4 4
TYPE F F F F
COUNT 1 1 1 1
WIDTH 1425
HEIGHT 1
VIEWPOINT 0 0 0 1 0 0 0
POINTS 1425
DATA ascii
20.235405 10.234945 0.39582056 13
1.6973723 0.85814869 -0.43910447 5
20.938046 10.581148 1.2294763 33
1.9503909 0.98521399 -0.42474085 75
20.944031 10.575009 2.0526922 27
2.3754404 1.19888 -0.42143452 4
20.92942 10.563036 2.8785541 22
2.9739757 1.5003102 -0.40899354 3
18.819901 9.4901361 3.3383117 19
4.0351396 2.0338769 -0.39533845 4
17.259474 8.6957197 3.7566478 11
6.1381373 3.0911918 -0.36017609 3
15.272403 7.6878958 3.9474411 13
11.915455 5.9980593 -0.23285002 37
12.687413 6.3838844 3.8056753 6
1.47479 0.73948574 -0.44206294 7
20.126192 10.087234 0.39295837 13
1.7074752 0.85541356 -0.44090405 5
21.048119 10.540112 1.2336632 27
1.9538184 0.97839934 -0.42474085 75
21.036051 10.529477 2.0580957 27
2.3725436 1.187047 -0.42018303 4
21.031908 10.518225 2.8873289 20
2.9652503 1.4822983 -0.40704364 3
18.47817 9.2330294 3.2716708 12
4.0279546 2.0126572 -0.39394394 4
13.207916 6.5967417 2.8697674 4
6.1596131 3.075098 -0.36080414 4
12.957364 6.46596 3.3432226 9
11.976725 5.9739857 -0.23361792 36
13.480081 6.7209215 4.0360246 1
1.4790922 0.73519278 -0.44258058 7
20.014429 9.9439621 0.39009619 13
1.7104509 0.84944767 -0.44090405 5
21.172445 10.510085 1.2387923 30
1.9695315 0.97768325 -0.42741215 96
21.144064 10.49141 2.065068 27
2.3731337 1.1770021 -0.4195573 4
21.150311 10.485299 2.8985407 21
2.9899714 1.4816346 -0.40972477 3
13.380442 6.6275649 2.3649766 15
4.0456686 2.00389 -0.39498982 4
17.798326 8.8119421 3.8604476 10
6.1577783 3.0473783 -0.36007139 3
13.049726 6.4552493 3.3612187 4
12.045905 5.9560704 -0.23456034 28
12.708525 6.2809486 3.7984285 1
1.4851151 0.73173398 -0.44361585 7
19.909096 9.8051205 0.38737363 13
1.6994185 0.83658683 -0.43730485 6
21.275267 10.473351 1.2427697 31
1.9782162 0.97340399 -0.42855701 81
21.253862 10.453588 2.0722148 28
2.377228 1.1687105 -0.4195573 4
21.242006 10.438562 2.9060965 21
2.9933436 1.4703127 -0.40948102 3
13.405894 6.5848956 2.3656023 22
4.0669475 1.9967794 -0.39638433 4
17.663301 8.6684675 3.8245757 6
6.1504478 3.0170674 -0.35902467 3
12.797474 6.2749577 3.2905838 3
12.130226 5.9477878 -0.23581693 42
13.542861 6.6375179 4.0412006 6
1.4963398 0.73078394 -0.44620407 7
19.815718 9.6776209 0.38493028 19
1.7021832 0.83094704 -0.43730485 5
21.367342 10.426168 1.2460146 31
1.9851313 0.9682135 -0.42932025 99
21.367229 10.416882 2.0797102 28
2.3917439 1.1660151 -0.42143452 4
21.351454 10.404579 2.9163334 21
2.9964182 1.4595096 -0.4092373 3
15.83003 7.707149 2.7886009 6
4.0703092 1.980828 -0.39603567 5
20.22694 9.8435011 4.3725791 10
6.174787 3.0036459 -0.35986209 2
16.801781 8.1693754 4.3132119 12
12.170696 5.9150262 -0.23620087 36
17.190718 8.3510761 5.1209941 6
1.488323 0.72076541 -0.44309825 7
19.725183 9.5482779 0.38252184 19
1.7155987 0.83009243 -0.44000426 5
21.486296 10.396145 1.2509341 31
1.9741924 0.9547866 -0.42626733 78
21.482374 10.384994 2.0875545 28
2.3993566 1.1593788 -0.42206025 4
21.466297 10.367968 2.9270582 21
2.9997065 1.4481789 -0.40899354 3
18.705328 9.0304365 3.2898171 12
4.0858269 1.97165 -0.39690727 5
13.092492 6.3150668 2.8254998 9
6.1888309 2.9838095 -0.36007139 3
14.270638 6.8772063 3.6572545 10
12.215463 5.8867903 -0.23668954 34
12.649625 6.0932913 3.7621937 6
1.4908297 0.7155661 -0.44309825 7
19.608912 9.4118547 0.37965965 21
1.7183422 0.82439828 -0.44000426 5
24.002287 11.510274 1.3950675 26
1.9845945 0.95128441 -0.4277938 80
2.3996253 1.149708 -0.42143452 4
17.49192 8.3769712 2.3813272 2
3.0116549 1.4416512 -0.4099685 3
18.695755 8.9454737 3.2826211 6
4.0747113 1.9487785 -0.39516413 5
13.106277 6.2682304 2.8239734 1
6.2059007 2.9667141 -0.36049011 2
13.104744 6.2618785 3.3531206 4
12.273832 5.8622108 -0.23742254 30
13.15373 6.2796469 3.9055796 3
1.4844724 0.70646787 -0.44051 7
19.508015 9.2797871 0.37707669 18
1.7212096 0.8183946 -0.44000426 5
23.971785 11.398019 1.3910899 30
1.987738 0.94469839 -0.4277938 80
26.064278 12.381813 2.5245533 5
2.3929176 1.1362402 -0.4195573 4
16.572369 7.8656006 2.2523894 3
3.0202556 1.4328321 -0.410456 3
23.963476 11.368455 4.200892 20
4.0811515 1.9352543 -0.39516413 5
19.929836 9.4463444 4.2870965 11
6.2089977 2.9416142 -0.36007139 2
15.821221 7.4921722 4.041471 8
12.351039 5.8488598 -0.23853949 30
14.854247 7.0310946 4.4035473 11
1.4956659 0.70540172 -0.44309825 7
13.532207 6.3822017 0.26115781 11
1.7168628 0.80935973 -0.43820465 5
23.933733 11.277669 1.3865889 30
1.9999042 0.94193625 -0.42970186 67
24.142483 11.36575 2.3345537 4
2.4073951 1.1333487 -0.42143452 4
13.428132 6.318799 1.8221905 15
3.0178053 1.4194282 -0.40948102 3
16.239174 7.6346531 2.8421018 4
4.0950942 1.9243869 -0.39586139 5
18.118471 8.5143204 3.8913589 32
6.2132964 2.9184592 -0.35975742 3
14.111969 6.6255541 3.5992167 17
12.422067 5.8295012 -0.23951684 30
12.874354 6.0390115 3.8103342 2
1.5036145 0.702106 -0.44465113 7
13.505167 6.3033061 0.26014557 58
1.7165661 0.80081308 -0.43730485 5
13.51153 6.3034043 0.78137589 14
1.9946095 0.93010217 -0.4277938 80
23.900621 11.139972 2.3070126 8
2.4011819 1.11867 -0.4195573 4
13.456985 6.2665234 1.822678 25
3.0126805 1.4022771 -0.40801859 2
23.883196 11.116632 4.1724205 16
4.1114845 1.9128518 -0.39673293 4
13.924571 6.4753947 2.9850161 25
6.2122841 2.8875995 -0.35902467 4
17.812681 8.2759361 4.5345635 16
12.482442 5.799458 -0.24024983 34
13.437105 6.2401447 3.9697666 3
1.506056 0.6968534 -0.44465113 7
13.522363 6.2568092 0.26007575 67
1.7192125 0.79511595 -0.43730485 6
1.9924971 0.92066389 -0.42664891 78
23.863396 11.021382 2.2996914 17
2.4210186 1.1181548 -0.42237309 4
23.831982 11.001827 3.2229569 16
3.0137088 1.3906163 -0.40753111 3
13.41748 6.1883821 2.34026 11
4.1145186 1.8968192 -0.39638433 5
13.98876 6.4489069 2.994175 8
6.2272649 2.8694944 -0.3593387 4
13.032656 6.0026221 3.3126292 9
12.540756 5.7734084 -0.24098283 28
16.873957 7.7647319 4.9770904 13
1.4960672 0.68621701 -0.44102767 7
1.7396932 0.79722869 -0.44180387 6
13.511627 6.1889615 0.77886379 82
2.0008943 0.91650379 -0.4277938 80
13.456211 6.160737 1.2947857 22
2.4123333 1.1039436 -0.42018303 4
23.808861 10.890502 3.2146699 16
3.0257666 1.3833889 -0.4085061 3
13.489307 6.1644945 2.3490202 6
4.1099143 1.8781946 -0.39533845 4
14.004042 6.3967781 2.9926486 22
6.2535963 2.8552041 -0.36028075 4
15.12777 6.903686 3.8390145 7
12.5954 5.7453685 -0.24164602 29
15.174829 6.9187717 4.46877 6
1.4966948 0.68019092 -0.44051 7
19.044075 8.6507988 0.36510432 21
1.7353677 0.78792888 -0.44000426 5
2.0040815 0.90951324 -0.4277938 80
13.49578 6.1219554 1.2965288 31
2.4161718 1.0955168 -0.42018303 4
23.758137 10.767168 3.2027266 16
3.034194 1.3744559 -0.40899354 3
16.389959 7.4210315 2.8496106 4
4.1345935 1.8720577 -0.39708155 4
13.407426 6.0677752 2.8606086 10
6.2708044 2.8366485 -0.36069945 2
15.132241 6.8420177 3.8340657 5
12.64818 5.716188 -0.24227431 27
12.072141 5.4533167 3.5494444 6
1.5078671 0.67892903 -0.44309825 7
18.950155 8.5284681 0.3627308 20
1.7345532 0.78026718 -0.43910447 5
23.71537 10.663101 1.3627238 29
2.0144057 0.90573376 -0.42932025 99
13.537056 6.083796 1.2984462 23
2.4199815 1.0870755 -0.42018303 4
13.692418 6.1478672 1.8429084 7
3.0389729 1.3638569 -0.40899354 3
13.833003 6.2051964 2.4012692 15
4.1301966 1.85272 -0.39603567 4
13.550344 6.0755529 2.8865585 4
6.2824903 2.8155603 -0.36080414 4
14.677628 6.5748482 3.713042 7
12.644331 5.661376 -0.24182054 30
12.110498 5.4198275 3.5551386 13
1.5137566 0.67523503 -0.44413349 7
18.872055 8.4142179 0.36067143 23
1.7301463 0.77103508 -0.43730485 6
23.6667 10.542052 1.3578042 29
2.0211422 0.90029395 -0.43008351 100
23.670902 10.53896 2.2669208 25
2.4291751 1.0810314 -0.42112163 4
13.679329 6.0847144 1.8382773 20
3.0364597 1.3500139 -0.40801859 2
13.785981 6.1263914 2.3893805 26
4.1475625 1.843147 -0.39708155 4
13.643234 6.0601048 2.9018235 18
6.2922812 2.7936113 -0.36080414 4
18.811571 8.3479252 4.7514162 10
12.786485 5.6715369 -0.24415916 17
12.155835 5.3892622 3.5629032 35
1.5108036 0.66760403 -0.44258058 6
18.784235 8.2965965 0.35843751 20
1.7381755 0.76735163 -0.43865454 6
23.624784 10.424698 1.3533033 29
2.0224764 0.89244014 -0.42970186 100
23.630972 10.422516 2.2595997 28
2.4329343 1.0725448 -0.42112163 4
13.711388 6.0417271 1.8397398 12
3.0484197 1.342609 -0.40899354 2
4.1466775 1.8254461 -0.39638433 4
13.730794 6.0416956 2.9159431 16
6.292851 2.7676141 -0.36028075 3
15.693655 6.8988385 3.9577889 34
12.844651 5.6437578 -0.24489217 26
12.178107 5.3483596 3.5639384 24
1.5113548 0.66155201 -0.44206294 6
18.694002 8.1788731 0.35616872 19
1.7479856 0.76440233 -0.44045416 6
23.585993 10.309377 1.3490118 28
2.0093889 0.8782987 -0.42626733 100
23.586882 10.304862 2.25193 28
2.4366636 1.0640451 -0.42112163 4
23.573212 10.289093 3.1581225 19
3.049449 1.3303716 -0.4085061 2
15.633701 6.8171997 2.7013109 1
4.1493721 1.8093666 -0.39603567 4
13.814791 6.0211873 2.9292998 17
6.3116293 2.7496181 -0.36080414 4
14.958294 6.5133634 3.7665806 24
12.910111 5.6188407 -0.24576479 25
12.184304 5.3004203 3.5603149 23
1.5136551 0.65627193 -0.44206294 7
18.605011 8.0626755 0.35393479 22
1.7452781 0.75597358 -0.43910447 6
23.554071 10.202532 1.3452435 28
2.0160463 0.8728388 -0.42703056 12
23.53677 10.18527 2.2437375 28
2.4385493 1.0547506 -0.42080876 4
23.536102 10.175229 3.1483729 21
3.0722971 1.3275924 -0.41094348 3
16.040644 6.931438 2.7676389 3
4.148345 1.7917144 -0.39533845 4
17.483915 7.5478587 3.7016947 8
6.3175216 2.7259851 -0.36059478 4
15.33345 6.6131482 3.855211 9
12.958054 5.5886655 -0.24632326 27
12.198267 5.2584538 3.5592797 21
1.5177115 0.65174687 -0.44258058 7
18.526909 7.9559622 0.35194522 22
1.744194 0.74864417 -0.43820465 6
23.503275 10.083235 1.3403239 28
2.0299063 0.87043887 -0.42932025 11
23.497095 10.070873 2.2365906 28
2.4329555 1.0427666 -0.41924441 4
23.473003 10.055699 3.1354547 25
3.0730336 1.3158333 -0.410456 3
17.326893 7.4155836 2.9850829 8
4.1765566 1.7866251 -0.39743021 5
16.683947 7.13697 3.5272951 11
6.3191814 2.7018778 -0.36017609 4
13.962942 5.9672289 3.5056372 29
13.023456 5.5630403 -0.24719588 20
12.220103 5.2173553 3.5603149 21
1.5269748 0.64973623 -0.44465113 7
18.440477 7.8427243 0.34978116 22
1.7467968 0.74255073 -0.43820465 6
23.457552 9.9716358 1.3358232 28
2.0273612 0.86140001 -0.42817542 100
23.466175 9.9656448 2.2304897 24
2.4474909 1.0388981 -0.42112163 4
23.420244 9.936491 3.1237555 21
3.066642 1.300449 -0.40899354 3
16.262041 6.8961272 2.7976742 1
4.1824584 1.7727643 -0.39743021 5
13.957406 5.9130783 2.9464726 13
6.3285737 2.6798048 -0.36017609 4
13.67322 5.7870464 3.4278042 14
13.080505 5.5361862 -0.24792889 17
12.240894 5.1783109 3.5613501 21
1.5274535 0.64365155 -0.44413349 7
18.372402 7.7419219 0.34800097 18
1.7492496 0.73675442 -0.43820465 6
23.420422 9.8594742 1.3317409 28
2.0267365 0.85279447 -0.42741215 100
23.425522 9.8519983 2.2233431 28
2.4545641 1.0323083 -0.42174736 4
23.405487 9.8387651 3.1174181 25
3.0745976 1.291811 -0.40948102 3
16.122095 6.7704864 2.769516 1
4.188621 1.7581549 -0.39743021 4
13.935304 5.8492813 2.9376955 9
6.3355832 2.6580322 -0.36007139 3
16.01782 6.7168331 4.0099773 10
13.112659 5.4959064 -0.24817322 15
12.258894 5.1355534 3.5613501 21
1.5224485 0.63560605 -0.44206294 7
18.294125 7.6338429 0.3460114 21
1.7626019 0.73514515 -0.44090405 6
23.373583 9.7438421 1.3271353 28
2.0277414 0.84531295 -0.42703056 100
23.373466 9.7390041 2.2153246 28
2.4545052 1.0222156 -0.42112163 4
23.357222 9.7226706 3.1064498 25
3.0790884 1.28107 -0.40948102 3
15.820965 6.5791607 2.7138255 4
4.1778708 1.7373708 -0.39586139 5
17.008547 7.0695267 3.5803399 6
6.3577347 2.641263 -0.36080414 4
15.924184 6.6123071 3.9807339 26
13.152082 5.4585304 -0.24855718 17
12.266042 5.0882864 3.5582445 21
1.5193019 0.62807399 -0.44051 7
18.198683 7.5195427 0.34370768 21
1.7633563 0.72824371 -0.44045416 6
23.346529 9.6370516 1.3236811 27
2.0433826 0.84347367 -0.42970186 100
23.335487 9.6277266 2.2085266 28
2.4489281 1.0098757 -0.4195573 5
23.321274 9.6123381 3.0971878 24
3.0945539 1.2748517 -0.41094348 3
23.329199 9.6060791 3.9959624 10
4.1894374 1.7250515 -0.39638433 5
16.542931 6.8083754 3.4773033 11
6.365068 2.6182957 -0.36069945 5
14.617037 6.0097928 3.6487062 5
13.180303 5.4163909 -0.2487317 11
12.283728 5.0454412 3.5582445 22
1.5268488 0.62496185 -0.44206294 6
18.108221 7.4082642 0.34150869 21
1.7604762 0.7198717 -0.43910447 6
23.29147 9.5240536 1.3187616 27
2.0426798 0.83485067 -0.42893866 99
23.297022 9.5168219 2.2017283 28
2.4469514 0.99908149 -0.41861868 4
23.266462 9.494875 3.0854883 24
3.084281 1.2580432 -0.40899354 3
23.29874 9.5032911 3.9853251 7
4.1954341 1.710416 -0.39638433 4
14.170329 5.7741561 2.9743307 4
6.3797183 2.5983198 -0.36101347 5
14.675832 5.9741588 3.658154 1
13.181523 5.3658643 -0.24841754 13
12.303968 5.0061378 3.5592797 23
1.5397637 0.6239813 -0.44516876 6
18.047436 7.3136301 0.33990309 21
1.7592411 0.71256697 -0.43820465 6
23.248671 9.4119577 1.3144701 27
2.0492215 0.82918763 -0.42970186 100
23.25621 9.4055767 2.1947558 23
2.4612386 0.99540591 -0.4204959 4
23.227886 9.3893919 3.0762262 21
3.0847545 1.2463219 -0.4085061 3
23.229189 9.3805008 3.9678042 24
4.2087684 1.6987445 -0.39708155 4
18.413088 7.4318962 3.8596845 7
6.3827429 2.5749092 -0.36069945 4
15.69502 6.3284678 3.9069498 16
13.194609 5.3175797 -0.24831285 9
12.348248 4.9739819 3.5670443 40
1.5454103 0.62031066 -0.44620407 6
17.967066 7.2081518 0.33791351 21
1.7599092 0.70569599 -0.43775475 6
23.210936 9.3025064 1.3104925 27
2.0410259 0.81800479 -0.42741215 96
23.222544 9.3024673 2.1886549 27
2.472034 0.98974472 -0.42174736 4
23.199703 9.2839108 3.0681827 24
3.0890861 1.2355471 -0.4085061 3
16.410921 6.5605826 2.7992387 12
4.2180786 1.6862584 -0.39743021 4
14.112681 5.6389527 2.9541049 6
6.3898368 2.5518742 -0.36059478 6
15.785792 6.3010921 3.924046 20
13.172231 5.2551842 -0.24754494 9
12.394245 4.9422994 3.5753264 50
1.5296125 0.60777992 -0.44102767 6
17.902912 7.1099582 0.33623806 23
1.7786634 0.70601863 -0.44180387 5
23.169001 9.1919832 1.3063055 27
2.0438683 0.81087679 -0.42741215 96
23.16227 9.1846218 2.1799393 23
2.4736376 0.98038119 -0.42143452 4
23.16737 9.1773005 3.0596519 24
3.0970716 1.2262174 -0.40899354 3
23.163708 9.1664839 3.9455907 14
4.2128239 1.6671245 -0.39638433 4
16.37051 6.4749432 3.4219685 10
6.4061356 2.5324893 -0.36101347 4
16.43297 6.4930062 4.0792623 18
13.184911 5.2069778 -0.24744022 8
12.447362 4.913188 3.5856793 49
1.5371182 0.60455769 -0.44258058 6
17.806648 6.9998808 0.33396927 20
1.7720481 0.69624287 -0.43955436 5
23.137741 9.0862246 1.3027468 27
2.0539961 0.80660731 -0.42893866 99
23.12557 9.0767746 2.1734898 23
2.4807224 0.97318405 -0.42206025 4
23.125341 9.0673828 3.0499024 20
3.1142709 1.2204684 -0.41069973 3
16.208014 6.3485923 2.7570014 10
4.2133398 1.6494944 -0.39586139 2
16.403982 6.42205 3.4242585 11
6.414937 2.5101106 -0.36101347 4
14.477311 5.6619439 3.5888691 3
13.195558 5.1580067 -0.24730061 8
12.514821 4.889389 3.600173 47
1.5465251 0.60172206 -0.44465113 6
17.734068 6.899972 0.33215421 20
1.7708353 0.68863988 -0.43865454 5
23.104158 8.9800835 1.2990832 27
2.0624287 0.80120689 -0.43008351 84
23.082533 8.9623919 2.166343 23
2.4769061 0.961227 -0.42080876 4
23.06987 8.9528561 3.0384467 20
3.1092575 1.2060031 -0.40948102 3
16.285334 6.3133936 2.7663872 12
4.2265034 1.6376553 -0.39655861 2
16.440224 6.3668499 3.4269297 8
6.405468 2.4793737 -0.35996673 3
16.03373 6.2029824 3.9690363 36
13.202292 5.1075821 -0.24709117 8
12.58226 4.8651915 3.6146669 49
1.5468135 0.59562546 -0.44413349 5
17.667788 6.799736 0.33044386 20
1.7697096 0.68074596 -0.43775475 5
23.04962 8.8663902 1.2942684 26
2.057883 0.79118407 -0.42855701 81
23.052299 8.8581858 2.1605909 22
2.4820905 0.95328271 -0.42112163 4
23.026548 8.8390665 3.0284534 20
3.1080971 1.1924648 -0.40874982 3
23.066618 8.8498306 3.9130523 13
4.2396345 1.6257463 -0.39725587 2
17.085646 6.548306 3.55668 5
6.4215431 2.4598584 -0.36038542 3
16.093502 6.161612 3.9784844 32
13.229378 5.0650434 -0.24726568 7
12.660512 4.8447123 3.6322665 53
1.5488831 0.59022278 -0.44413349 5
17.604288 6.7083511 0.32883826 20
1.7755995 0.67626119 -0.43865454 5
23.016966 8.761713 1.2907095 29
2.0532925 0.78120387 -0.42703056 79
23.112877 8.7889996 2.1633797 30
2.4889307 0.94645131 -0.42174736 4
23.094704 8.7774639 3.033572 25
3.1176014 1.1842669 -0.40948102 3
23.016109 8.7384129 3.8992858 13
4.2378335 1.6081088 -0.39655861 2
17.683632 6.7103167 3.6765079 20
6.4446044 2.4442179 -0.3612228 3
16.137533 6.1171927 3.9843328 10
13.235759 5.0145793 -0.24705628 6
12.724319 4.8182797 3.6457253 52
1.5436019 0.58235514 -0.44206294 5
17.5303 6.6101665 0.32702321 20
1.779773 0.67074585 -0.43910447 6
22.963661 8.6543512 1.286104 29
2.0595465 0.77577406 -0.4277938 80
23.091553 8.693346 2.1586735 30
2.499615 0.94053966 -0.42299888 4
23.127056 8.6974974 3.0338156 14
3.114284 1.1705827 -0.4085061 3
22.956207 8.6286726 3.8842683 20
4.2394118 1.5926461 -0.39620999 2
17.12615 6.4304762 3.5559168 5
6.4643173 2.4259157 -0.36185086 4
16.273741 6.1039362 4.0126772 10
13.248569 4.9692583 -0.24698645 6
12.780025 4.7909732 3.6571133 52
1.5456253 0.57696372 -0.44206294 5
17.460327 6.5177345 0.32531285 22
1.7874646 0.66688412 -0.44045416 5
22.946943 8.5566998 1.2834872 29
2.0714397 0.77200872 -0.42970186 67
2.4916134 0.9281075 -0.42112163 4
23.068335 8.5882101 3.0223601 8
3.1330323 1.1657877 -0.410456 3
22.908424 8.5195618 3.8711276 20
4.2374749 1.5750625 -0.39551273 2
16.92655 6.2915702 3.5101225 7
6.4536037 2.397512 -0.36080414 4
17.537996 6.5118685 4.3190603 13
13.282706 4.9292464 -0.24730061 7
12.843762 4.763803 3.670572 56
1.5440053 0.57022679 -0.44102767 5
17.377169 6.4142208 0.32332328 22
1.7679577 0.65223396 -0.43505535 5
22.918182 8.4504318 1.2801377 32
2.079648 0.76681143 -0.43084675 85
23.07877 8.5050554 2.1518753 3
2.4875836 0.91623867 -0.41987014 4
23.000921 8.4672623 3.0094416 20
3.133558 1.152925 -0.4099685 3
22.883877 8.4150944 3.8617415 23
4.2504272 1.5630108 -0.39620999 2
16.942125 6.2267752 3.5085959 22
6.4529743 2.3703973 -0.36028075 5
17.558084 6.4462056 4.3181605 11
13.302563 4.8812151 -0.24733551 6
12.919176 4.737978 3.6871362 52
1.5586882 0.56947386 -0.44465113 6
17.31868 6.3240342 0.32182238 22
1.777546 0.64873147 -0.43685496 5
22.864985 8.3402615 1.2755321 29
2.0841565 0.76021963 -0.43122834 69
23.037184 8.3985176 2.1452513 3
2.5019028 0.91160786 -0.42174736 4
22.953865 8.359067 2.9994485 24
3.1189096 1.1351911 -0.40753111 3
22.846279 8.3108568 3.8504782 26
4.2708359 1.5536143 -0.3976045 2
17.011728 6.1850438 3.518518 7
6.4687185 2.3505845 -0.36069945 6
17.477905 6.3476276 4.2929659 14
13.304482 4.8292952 -0.24705628 7
13.002831 4.7172265 3.7062888 46
1.5643004 0.56534249 -0.44568643 6
17.248491 6.230258 0.32011205 19
1.7907976 0.64649248 -0.43955436 5
22.824888 8.2399702 1.2717639 32
2.0701773 0.74694252 -0.4277938 80
32.981125 11.893461 3.067359 8
2.5087864 0.90420789 -0.42237309 4
22.93248 8.2607212 2.9928675 41
3.1340592 1.1283323 -0.40899354 3
22.797512 8.2076206 3.8376508 26
4.2762337 1.5386956 -0.3976045 2
17.099724 6.1495371 3.5322564 6
6.4900389 2.3327234 -0.36143214 7
17.567816 6.3109517 4.3096123 17
13.307251 4.7804132 -0.24681193 8
13.067492 4.6917095 3.7202652 50
1.5571685 0.55662757 -0.44309825 5
17.193737 6.1460967 0.31871584 21
1.8039422 0.64448452 -0.44225377 5
22.783916 8.1354017 1.267891 28
2.0820169 0.74301142 -0.42970186 100
33.142548 11.821093 3.0785151 8
2.5154924 0.89721131 -0.42299888 4
22.892435 8.1606264 2.9840932 44
3.1359138 1.1172661 -0.40874982 3
22.753447 8.1021423 3.8254488 26
4.2740707 1.5210863 -0.39690727 2
17.153315 6.1046419 3.5391254 16
6.5127935 2.3165414 -0.36226952 7
17.546413 6.2376509 4.2992644 23
13.331394 4.7366076 -0.24695155 8
13.12566 4.6609383 3.7321708 48
1.5626483 0.55274951 -0.44413349 6
17.100082 6.0453796 0.31658667 19
1.7988311 0.63558716 -0.44045416 5
22.758038 8.0411758 1.2649603 28
2.082618 0.73544979 -0.42932025 99
22.838747 8.0607157 2.1189303 36
2.5074315 0.88448167 -0.42112163 4
22.85338 8.0569229 2.9753184 46
3.1397951 1.106312 -0.40874982 3
22.728027 8.0082579 3.8166885 26
4.2659364 1.502273 -0.39568707 4
17.163404 6.0408301 3.5368359 16
6.5208406 2.293792 -0.36226952 6
17.489029 6.1485672 4.2799187 25
13.358347 4.6963553 -0.24716099 8
13.199368 4.6378827 3.7487354 48
1.5645684 0.5472911 -0.44413349 6
17.050196 5.9642134 0.31529516 21
1.7898915 0.6257602 -0.43775475 5
22.716206 7.9373045 1.2610873 28
2.0814657 0.72688049 -0.42855701 81
22.887432 7.9881825 2.1208479 18
2.504755 0.87421077 -0.42018303 5
22.803125 7.9542809 2.9653251 49
3.141572 1.0952412 -0.4085061 3
22.694279 7.9074407 3.8063638 26
4.2767982 1.4893392 -0.39620999 2
21.403166 7.453373 4.4053984 12
6.5302973 2.2728133 -0.36237419 6
17.424656 6.0610819 4.259223 19
13.380324 4.65167 -0.24726568 7
13.261099 4.6076274 3.7616761 64
1.5809797 0.54715389 -0.44827461 5
16.987757 5.8759027 0.31375936 21
1.7994322 0.62205482 -0.43955436 5
22.664492 7.8305631 1.2566911 28
2.0782981 0.71805024 -0.42741215 80
22.872366 7.8979282 2.117013 3
2.5189958 0.86932814 -0.42206025 5
22.766951 7.8526216 2.9570382 44
3.1341155 1.0803874 -0.40704364 3
22.648907 7.8030744 3.794162 25
4.2932744 1.4782922 -0.39725587 4
21.417915 7.3747764 4.4031086 17
6.5325251 2.2480559 -0.36206019 6
17.348036 5.9666414 4.2353783 31
13.421064 4.6133828 -0.24771945 7
13.260657 4.5556631 3.7570174 59
1.5738349 0.53823036 -0.44568643 6
16.930588 5.7900329 0.31232825 21
1.7979047 0.61450881 -0.43865454 4
22.62364 7.7281737 1.2529229 37
2.0734839 0.70789129 -0.42588571 77
22.825739 7.7883019 2.1100404 3
2.5296433 0.86264062 -0.42331171 5
22.739731 7.7545376 2.9499695 44
3.130352 1.0668784 -0.40606871 3
22.612432 7.7023053 3.7835243 25
4.2965217 1.4626579 -0.39708155 4
21.444799 7.2962308 4.4031086 20
6.5445032 2.2253823 -0.36226952 6
17.277533 5.8716693 4.2128835 27
13.452231 4.5716629 -0.2479987 7
13.234407 4.4950533 3.7451117 56
1.5574032 0.52654558 -0.44051 6
16.866444 5.6991386 0.31075758 21
1.8112227 0.61165649 -0.44135398 5
22.595047 7.6260252 1.2497828 43
2.0796628 0.70190424 -0.42664891 63
22.841455 7.7047615 2.1089947 3
2.5288956 0.8525424 -0.42268598 5
22.704042 7.6495728 2.9416823 44
3.1492913 1.0604665 -0.40801859 3
22.574984 7.5973277 3.7725739 28
4.2978249 1.4463791 -0.39673293 4
21.473862 7.2225766 4.403872 17
6.5579104 2.2044346 -0.36258355 6
17.229574 5.7883568 4.1962371 23
13.484065 4.5274096 -0.24827793 6
13.199512 4.4293113 3.7306178 59
1.5610636 0.5217194 -0.44102767 6
16.787609 5.6072822 0.30894253 21
1.8096496 0.60409665 -0.44045416 5
22.566582 7.5287919 1.2467473 40
2.0969985 0.69961268 -0.42970186 83
22.83419 7.6136322 2.1058569 7
2.5168638 0.83871299 -0.42018303 5
22.666569 7.5489635 2.9333954 44
3.1642752 1.0532277 -0.40948102 3
22.537638 7.4972739 3.7619364 25
4.2933955 1.4282225 -0.39586139 5
21.502668 7.148818 4.404635 20
6.5731473 2.1840472 -0.36300224 6
17.164602 5.699924 4.1755414 23
13.518764 4.4866152 -0.24862698 6
13.180054 4.3716502 3.7207828 61
1.5665441 0.51747859 -0.44206294 5
16.712135 5.5173068 0.30719727 23
1.8061956 0.59594387 -0.43910447 5
22.526337 7.4280763 1.2430837 37
2.0975633 0.69167304 -0.42932025 66
22.853058 7.5313902 2.1051598 7
2.5160236 0.82868701 -0.4195573 5
22.623014 7.446825 2.924377 47
3.1603894 1.0396953 -0.4085061 3
22.511124 7.4012866 3.753176 25
4.3116031 1.4175841 -0.39708155 5
21.516296 7.0700431 4.4023452 17
6.5655513 2.1561024 -0.36216486 6
17.104776 5.6138463 4.1561956 25
13.564744 4.4493737 -0.24918546 6
13.162192 4.3147817 3.7114654 60
1.5793595 0.51560473 -0.44516876 5
16.668554 5.4384713 0.30604541 20
1.7990013 0.58661431 -0.43685496 6
22.487564 7.3283639 1.239525 42
2.0906317 0.68130589 -0.42741215 80
22.636721 7.3725896 2.0828478 38
2.5301714 0.82356721 -0.42143452 5
22.577139 7.344481 2.9151151 49
3.1677754 1.0298836 -0.40899354 3
22.482346 7.304955 3.744103 27
4.3127356 1.4012924 -0.39673293 4
21.555782 6.9997497 4.4053984 17
6.5635381 2.13009 -0.3616415 6
17.022316 5.5210338 4.1314511 24
13.583997 4.4032326 -0.24925527 6
13.142254 4.2575011 3.7016301 57
1.5848269 0.51127446 -0.44620407 5
16.624632 5.3600006 0.30489355 20
1.8195862 0.586308 -0.44135398 6
22.450274 7.2296143 1.2360708 42
2.0929973 0.67400354 -0.42741215 80
22.576969 7.2660661 2.0750039 73
2.5405526 0.81715012 -0.42268598 5
22.559172 7.2516484 2.9095089 52
3.1619008 1.0157846 -0.40777487 3
22.430592 7.2016792 3.7312753 24
4.3213949 1.3874489 -0.39708155 4
21.583824 6.9256573 4.4061613 17
6.5880504 2.1126564 -0.36258355 6
16.965397 5.4371996 4.1130052 26
13.622138 4.3631048 -0.24967413 6
13.120237 4.1998239 3.6912775 57
1.5755585 0.5022186 -0.44309825 5
16.559402 5.2752333 0.30335772 20
1.8197649 0.5793612 -0.44090405 5
22.420179 7.133636 1.2330352 36
2.089725 0.66490716 -0.42626733 78
2.5377419 0.80648148 -0.42174736 4
22.527592 7.1548262 2.9021969 52
3.1711035 1.0065438 -0.4085061 3
22.400988 7.10601 3.7222021 27
4.314817 1.3687401 -0.39603567 4
21.611612 6.8514543 4.4069247 20
6.6030002 2.0920613 -0.36300224 6
16.909962 5.3544111 4.0950089 26
13.637287 4.3155251 -0.24967413 6
13.09061 4.1400228 3.678854 64
1.5809871 0.4978767 -0.44413349 5
16.489975 5.1897793 0.30175212 20
1.8217758 0.57300675 -0.44090405 5
22.394173 7.0436835 1.2303138 39
2.0957792 0.65878654 -0.42703056 79
22.703178 7.1321568 2.0819762 10
2.5405414 0.79761869 -0.42174736 4
22.484241 7.0547566 2.8934221 52
3.1802804 0.99724936 -0.4092373 3
22.371653 7.0151415 3.7134418 27
4.3271732 1.3560543 -0.39673293 4
21.624157 6.7724581 4.404635 20
6.6121688 2.0695946 -0.36310691 6
16.850433 5.2709208 4.0761132 26
13.67824 4.2786388 -0.25016278 6
13.074766 4.0873632 3.670572 63
1.5827155 0.4923546 -0.44413349 5
16.419262 5.1077394 0.30014646 20
1.8087791 0.56233364 -0.43730485 6
22.353775 6.9453158 1.2267549 42
2.1018159 0.65263069 -0.4277938 80
22.65753 7.0310211 2.0755267 10
2.5337391 0.78626281 -0.42018303 5
22.433567 6.9572301 2.8839164 45
3.1721935 0.98317081 -0.40777487 3
22.333735 6.9177251 3.7031171 24
4.3280735 1.3397641 -0.39638433 4
21.627739 6.694911 4.4008188 20
6.6113639 2.0452933 -0.36268821 6
16.800798 5.1942873 4.0599165 24
13.721749 4.2397242 -0.25068635 6
13.059421 4.0325756 3.6622896 49
1.5898792 0.48880687 -0.44568643 5
16.370085 5.0298491 0.2989248 20
1.8144569 0.55716002 -0.43820465 5
22.302225 6.8482795 1.2226727 36
2.1058455 0.64623362 -0.42817542 81
22.640717 6.9435835 2.0718663 10
2.5459118 0.78030729 -0.42174736 4
22.406469 6.8631763 2.8773353 52
3.1737072 0.97151291 -0.40753111 3
22.303661 6.8274398 3.6943567 24
4.3363032 1.3265687 -0.39673293 4
21.665998 6.6239614 4.403872 17
6.6222825 2.023375 -0.36289757 6
16.71818 5.1048813 4.0356216 24
13.751036 4.1988664 -0.25096563 6
13.061634 3.9858663 3.6591837 24
1.58603 0.48157072 -0.44413349 4
16.335014 4.959846 0.29798239 24
1.8181592 0.55170614 -0.43865454 6
16.299641 4.9428835 0.8926422 15
2.1043303 0.63774049 -0.42741215 64
16.305473 4.938447 1.4905375 8
2.5541568 0.77357876 -0.42268598 5
22.391108 6.7773285 2.8724608 17
3.1807117 0.9621318 -0.40801859 3
16.289822 4.9243965 2.6953661 8
4.348537 1.3137279 -0.39743021 4
16.290316 4.9214349 3.3078649 8
6.630868 2.0019789 -0.36300224 6
14.781665 4.4600372 3.5645745 4
13.76178 4.149682 -0.2508958 6
13.077317 3.940809 3.6597013 20
1.5839174 0.47519866 -0.44309825 5
16.279442 4.8809676 0.29665601 24
1.8331412 0.54927117 -0.44180387 5
16.268957 4.8716445 0.89002532 33
2.0970294 0.62794328 -0.42550406 76
16.2645 4.8672085 1.4853082 21
2.554949 0.76409167 -0.42237309 4
16.269384 4.8624921 2.0849409 18
3.1954637 0.95443106 -0.40948102 3
16.253914 4.8516803 2.6866059 17
4.3337779 1.2936026 -0.39568707 5
16.250954 4.8477163 3.2964165 15
6.6626983 1.9862367 -0.36436296 6
14.817688 4.4145288 3.5695233 24
13.774262 4.1010585 -0.2508609 6
13.092846 3.8956838 3.660219 18
1.5837142 0.46911773 -0.44258058 5
16.223513 4.8025541 0.29532963 22
1.8275726 0.54065806 -0.44000426 6
16.22266 4.7961349 0.88657117 31
2.118036 0.626185 -0.42932025 83
16.214512 4.790657 1.4792072 24
2.5481281 0.75237221 -0.42080876 4
16.208199 4.7826338 2.0749476 15
3.194968 0.9421472 -0.40899354 3
16.198746 4.7736983 2.6747169 19
4.3439994 1.2801573 -0.39620999 5
16.173613 4.7632236 3.2773354 15
6.6638436 1.961274 -0.36404896 6
14.877874 4.3759789 3.5803208 50
13.792331 4.0540762 -0.2509307 6
13.09339 3.8461425 3.6565955 18
1.5909047 0.46521363 -0.44413349 5
16.159565 4.7223315 0.29386362 20
1.8182253 0.5309971 -0.43730485 5
16.177128 4.7243915 0.88322169 35
2.1164393 0.61768824 -0.42855701 81
16.179495 4.7189627 1.4745009 29
2.546946 0.74236679 -0.42018303 4
16.142839 4.7021585 2.0644667 16
3.2039545 0.93265563 -0.40972477 3
16.151896 4.7017388 2.6643922 20
4.3560948 1.2672112 -0.39690727 5
16.116619 4.6853681 3.2624526 19
6.6687298 1.9374483 -0.36394429 6
14.90429 4.3272753 3.5830202 32
13.822985 4.0133314 -0.25124484 6
13.120916 3.8070118 3.6607368 20
1.6073678 0.46394295 -0.44827461 5
16.10597 4.6487503 0.29260704 19
1.8274657 0.52712548 -0.43910447 6
16.107159 4.6430035 0.87851149 31
2.1223559 0.61138308 -0.42932025 83
16.115454 4.6393032 1.4671798 24
2.5531902 0.73501021 -0.42080876 4
16.076313 4.6249971 2.0539861 15
3.1784127 0.91379744 -0.40606871 3
16.099863 4.6256876 2.6531289 19
4.3585758 1.2514489 -0.39673293 4
16.071682 4.6145549 3.2502406 18
6.6789579 1.9164231 -0.36415362 6
14.897951 4.2719212 3.5780716 24
13.809996 3.9573467 -0.25075617 8
13.135981 3.7617226 3.6612544 18
1.5977502 0.45543304 -0.44516876 6
15.281668 4.3530936 0.27735364 26
1.8367914 0.52287775 -0.44090405 5
15.271488 4.3473206 0.83214176 36
2.1168184 0.60219347 -0.4277938 80
15.270265 4.3412032 1.3889139 24
2.5709417 0.73041272 -0.42331171 4
15.259766 4.3324699 1.947716 19
3.1892221 0.9048636 -0.40704364 3
15.244746 4.3253231 2.5098348 20
4.3627019 1.2369894 -0.39673293 4
15.241467 4.3186531 3.0792756 18
6.6894507 1.894184 -0.36436296 6
14.910895 4.2193642 3.5776215 22
13.840359 3.9164324 -0.25107032 6
13.144663 3.7170925 3.660219 18
1.5956107 0.44880727 -0.44413349 5
15.27099 4.2953653 0.2768999 32
1.8422674 0.517838 -0.44180387 5
15.240423 4.2810197 0.82962966 33
2.1189077 0.59480011 -0.4277938 80
15.24504 4.276576 1.3852534 27
2.57335 0.72188246 -0.42331171 4
15.254936 4.2764807 1.9452786 19
3.199851 0.89642543 -0.40801859 3
15.221705 4.261435 2.5035777 22
4.3554816 1.2185314 -0.39568707 5
15.231129 4.2612066 3.0743148 21
6.6956949 1.8719919 -0.36436296 6
14.92856 4.170939 3.5785215 22
13.865503 3.8713195 -0.25127974 6
13.146396 3.6680677 3.6571133 18
1.5935218 0.44192305 -0.44309825 5
15.233414 4.2217398 0.27592254 32
1.8386079 0.50920045 -0.44045416 6
15.241349 4.2182112 0.82879227 36
2.1172893 0.5859831 -0.42703056 79
15.216443 4.2084594 1.3812442 24
2.5627747 0.70831317 -0.42112163 4
15.221493 4.2041368 1.9389415 17
3.2128375 0.88677227 -0.4092373 3
15.205583 4.1940312 2.4982588 21
4.3676004 1.2046795 -0.39638433 4
15.194383 4.1880884 3.0636296 20
6.7143879 1.8494492 -0.36499101 6
14.946344 4.1141081 3.5789714 26
13.905333 3.8249426 -0.25173351 8
13.147345 3.613975 3.6534898 19
1.6025082 0.43839738 -0.44516876 5
15.197907 4.1548252 0.27501503 30
1.8290952 0.49969757 -0.43775475 6
15.205883 4.1513095 0.82607079 31
2.1231096 0.57962334 -0.4277938 80
15.196444 4.145875 1.3781066 23
2.5671375 0.69988203 -0.42143452 4
15.186277 4.1374149 1.9326042 17
3.2139978 0.87503117 -0.40899354 3
15.187728 4.1321077 2.4929399 20
4.3602448 1.1862868 -0.39533845 4
15.163441 4.1226659 3.0544708 20
6.7092376 1.8228596 -0.36436296 7
14.951211 4.0593529 3.5767217 26
13.955266 3.7863324 -0.2523967 8
14.865927 4.0306273 4.1271286 13
1.6152198 0.43581998 -0.44827461 5
15.19301 4.0965466 0.27466598 32
1.8364732 0.49483114 -0.43910447 6
15.177141 4.0894265 0.82376802 33
2.1289113 0.57322907 -0.42855701 65
15.176191 4.0834894 1.374969 24
2.5695648 0.69091731 -0.42143452 4
15.158453 4.0730433 1.927242 17
3.21895 0.86432087 -0.4092373 3
15.167007 4.0724959 2.4873083 20
4.3759046 1.1741585 -0.39638433 5
15.151192 4.0625877 3.0491278 20
6.7078433 1.7973596 -0.36394429 7
14.952113 4.0036139 3.5735724 34
14.002515 3.7493474 -0.253025 9
14.918402 3.9917972 4.1379991 24
1.6092638 0.42819178 -0.44620407 5
15.175592 4.0379109 0.27410749 34
1.8475205 0.49124265 -0.44135398 6
15.166231 4.0297518 0.82240731 40
2.1233096 0.56377846 -0.42703056 79
15.159539 4.0223174 1.37218 26
2.579479 0.68441945 -0.42268598 4
15.143094 4.0151176 1.9235859 18
3.2026095 0.84855813 -0.40679988 3
15.131478 4.006393 2.4791737 18
4.3684201 1.1558177 -0.39533845 5
15.134215 4.0042839 3.0430222 18
6.7292132 1.7791911 -0.36478165 7
15.027481 3.970439 3.5884192 55
14.046453 3.7086103 -0.25358346 8
14.965867 3.9485645 4.1473165 21
1.5975947 0.41942012 -0.44258058 6
15.147041 3.9737535 0.2733396 32
1.8492241 0.48479009 -0.44135398 6
15.131903 3.9641368 0.81979048 33
2.1232681 0.55623704 -0.42664891 63
15.130392 3.9609196 1.3683451 26
2.5894966 0.67741019 -0.42393744 4
15.12245 3.9531929 1.9191986 18
3.2151551 0.83988297 -0.40801859 3
15.103324 3.9425695 2.4722905 21
4.3683729 1.1403195 -0.39498982 4
15.102509 3.9395337 3.0338631 18
6.743113 1.7577075 -0.36520034 6
15.101596 3.9336741 3.6028161 54
14.084472 3.6661012 -0.25403723 8
14.964602 3.8924127 4.1431756 18
1.6027898 0.4148086 -0.44361585 6
15.1221 3.9108381 0.27264151 22
1.8490181 0.47784492 -0.44090405 6
15.130177 3.9073007 0.8189531 28
2.134701 0.55127698 -0.42855701 81
15.103616 3.8976221 1.3646846 22
2.5727174 0.66343504 -0.42080876 4
15.113086 3.8944478 1.9162737 15
3.2334466 0.83261418 -0.4099685 3
15.105515 3.8868675 2.4704134 18
4.3800454 1.127049 -0.39568707 4
15.08194 3.8780022 3.026994 16
6.749208 1.7341572 -0.36520034 6
15.09636 3.8760853 3.5983169 21
14.12236 3.623385 -0.254491 6
14.976228 3.839669 4.1426578 19
1.6098439 0.41064331 -0.44516876 6
15.205416 3.8758202 0.27389807 18
1.8374559 0.4680202 -0.43775475 6
15.216599 3.8758349 0.82293069 24
2.1404176 0.54479009 -0.42932025 83
15.175053 3.8596203 1.3699139 16
2.5750177 0.65444982 -0.42080876 4
15.174689 3.8538814 1.9223672 14
3.2324843 0.82034791 -0.40948102 2
15.194906 3.8562012 2.482928 13
4.3916774 1.1137128 -0.39638433 4
15.156284 3.8407612 3.0392058 14
6.7494111 1.7091213 -0.36488631 6
15.191033 3.8439248 3.6176629 22
14.149808 3.5804539 -0.25477022 6
14.987004 3.7895145 4.1421404 18
1.6206352 0.40737653 -0.44775698 6
15.2977 3.8453588 0.27532917 20
1.8371077 0.46145004 -0.43730485 6
15.284277 3.8363056 0.82586145 24
2.1384976 0.53636056 -0.42855701 81
15.281199 3.8298717 1.3782809 16
2.5810061 0.64686817 -0.42143452 4
15.258635 3.8213785 1.9313855 13
3.2159302 0.80480403 -0.40704364 3
15.265767 3.8175104 2.4923143 12
4.3916726 1.0974089 -0.39603567 4
15.250839 3.8109417 3.0556152 18
6.7434154 1.6838251 -0.36425829 6
15.239621 3.802495 3.6262109 22
14.171923 3.5334551 -0.25494474 6
15.013263 3.7404494 4.1457639 19
1.6201018 0.40153566 -0.44723931 6
15.266386 3.7808757 0.27452636 40
1.8481658 0.45737475 -0.43955436 6
15.25104 3.7714334 0.8233493 47
2.1326411 0.52738136 -0.42703056 79
15.257067 3.7700908 1.374969 35
2.5909195 0.63974828 -0.42268598 4
15.233333 3.7585926 1.9265107 25
3.21872 0.79357255 -0.40704364 3
15.221459 3.7500193 2.482928 32
4.3991566 1.0837938 -0.39638433 4
15.216391 3.7459614 3.0460749 33
6.7589493 1.6626595 -0.36478165 6
15.084378 3.7078714 3.5861697 55
14.166692 3.4796746 -0.25463063 5
15.016847 3.685714 4.1431756 21
1.6008497 0.39083746 -0.44154531 6
15.258121 3.7223532 0.27414241 68
1.8535376 0.4518441 -0.44045416 6
15.248589 3.7143888 0.82251197 73
2.1344693 0.51993328 -0.42703056 79
15.23529 3.7083251 1.3718314 63
2.5931368 0.63070095 -0.42268598 4
15.23093 3.7016408 1.9245608 42
3.2330451 0.78514218 -0.4085061 3
15.21142 3.6912768 2.4791737 43
4.3971043 1.0670226 -0.39586139 5
15.202662 3.6863425 3.0407324 36
6.7724767 1.6409357 -0.36520034 5
15.095334 3.6547391 3.5857198 66
14.186525 3.432086 -0.25477022 5
15.0146 3.6296375 4.1390343 18
1.6078392 0.38660231 -0.44309825 6
15.537397 3.7330735 0.27892435 19
1.8551035 0.44537079 -0.44045416 6
15.556668 3.7319608 0.83842206 24
2.1419985 0.51385391 -0.42817542 81
15.457389 3.7052913 1.3906569 13
2.5876386 0.61980414 -0.42143452 4
15.521758 3.7149928 1.9596591 11
3.2434878 0.77570111 -0.40948102 3
15.54891 3.7157457 2.5320485 16
4.4029236 1.0513608 -0.39603567 5
15.534335 3.7093973 3.1044624 13
6.7742782 1.6163598 -0.36499101 5
14.198421 3.3825412 -0.25477022 5
15.038454 3.5798922 4.1421404 17
1.6224052 0.38381955 -0.44672167 6
15.729364 3.7211649 0.28213561 36
1.8471645 0.43665144 -0.43820465 6
15.746485 3.7194118 0.8479473 43
2.1591535 0.50960684 -0.43122834 86
15.732656 3.7103481 1.414189 30
2.5918152 0.61076945 -0.42174736 4
15.714324 3.70313 1.9823269 23
3.2423115 0.76346368 -0.40899354 3
15.723304 3.6994536 2.5583293 26
4.4182034 1.0387222 -0.39708155 4
15.694991 3.687011 3.1338472 24
6.7665458 1.5883266 -0.36425829 5
15.234936 3.5733256 3.6127141 5
14.23545 3.3388982 -0.25522399 6
15.05462 3.5282609 4.1431756 18
1.6256164 0.37859246 -0.44723931 7
15.711735 3.6562409 0.28157714 34
1.8449564 0.42899513 -0.43730485 5
15.708795 3.6526589 0.84522581 46
2.1532698 0.5002901 -0.42970186 67
15.706698 3.6463931 1.4107028 30
2.601629 0.60350341 -0.42299888 4
15.687181 3.6360996 1.9772084 21
3.2373526 0.74978238 -0.40801859 3
15.684165 3.6325085 2.5498822 27
4.4218025 1.0232922 -0.39708155 4
15.665684 3.6224754 3.1254516 23
6.7778869 1.5660443 -0.36457232 4
15.218835 3.5135446 3.6059654 5
14.254812 3.2909822 -0.25536361 6
15.078136 3.4782975 4.1462812 17
1.6269282 0.37291527 -0.44723931 6
15.702334 3.5992002 0.2811932 40
1.857766 0.4254854 -0.44000426 5
15.686402 3.5897861 0.84334165 48
2.1396921 0.48926914 -0.42664891 63
15.696023 3.5862222 1.4086111 31
2.5997641 0.59399325 -0.42237309 4
15.670122 3.5774271 1.9735522 23
3.2514334 0.74169242 -0.40948102 3
15.654376 3.568084 2.542999 27
4.4214621 1.0069671 -0.39673293 4
15.650812 3.5643988 3.1201088 24
6.7947268 1.5462197 -0.36520034 5
15.226602 3.4621966 3.6050656 5
14.254513 3.2385485 -0.25515419 6
15.086419 3.4247847 4.145246 19
1.6206182 0.36581621 -0.44516876 6
15.683588 3.5373302 0.28063467 40
1.863042 0.41985521 -0.44090405 5
15.667664 3.5279844 0.84166694 50
2.1413031 0.48217037 -0.42664891 63
15.657291 3.5227776 1.404079 33
2.6114581 0.58708167 -0.42393744 4
15.645716 3.5144362 1.9689212 25
3.2578764 0.73120689 -0.4099685 2
15.63204 3.505641 2.5373673 28
4.4131126 0.98968452 -0.39568707 4
15.63059 3.5024431 3.1136215 22
6.7922873 1.520745 -0.36478165 5
15.2462 3.4107294 3.6068652 5
14.27549 3.1909487 -0.25532871 6
15.092627 3.3708348 4.143693 26
1.6162274 0.35890174 -0.44361585 6
15.643131 3.4708636 0.27969226 38
1.8683015 0.4141925 -0.44180387 6
15.652581 3.467236 0.84020156 46
2.1506402 0.47639281 -0.42817542 65
15.636419 3.4607854 1.4011157 31
2.6077054 0.57668221 -0.42299888 4
15.624936 3.4525311 1.9647778 20
3.2642858 0.72068697 -0.410456 2
15.621036 3.4459434 2.533613 26
4.4243226 0.97598946 -0.39638433 4
15.589039 3.4360318 3.102936 21
6.797554 1.4970276 -0.36478165 5
15.250401 3.3558106 3.6050656 5
14.30607 3.1453955 -0.25567776 7
15.083546 3.313575 4.1379991 34
1.6250198 0.35490623 -0.44568643 7
15.621941 3.4089859 0.27909887 40
1.8621198 0.40600821 -0.44000426 5
15.631413 3.4053454 0.83842206 43
2.169554 0.4726432 -0.43160996 86
15.613364 3.3985515 1.3979781 30
2.6000512 0.56547761 -0.42143452 4
15.594216 3.3886907 1.9594156 19
3.2667818 0.70928723 -0.410456 3
15.60208 3.3846974 2.5286071 26
4.4277024 0.96054065 -0.39638433 4
15.564483 3.3736968 3.0956852 23
6.7832189 1.4690614 -0.36373493 4
15.275354 3.3054445 3.6082149 12
14.313052 3.0945966 -0.25560796 6
15.064808 3.2543726 4.1297169 20
1.6300265 0.35004249 -0.44672167 6
15.602459 3.3477328 0.2785404 38
1.855904 0.39787126 -0.43820465 5
15.584617 3.338207 0.83528197 40
2.1673517 0.46424422 -0.43084675 85
15.597855 3.3382032 1.3955377 30
2.6020093 0.55639756 -0.42143452 4
15.569066 3.3263516 1.9547845 21
3.2537065 0.69456655 -0.4085061 3
15.575162 3.3219697 2.5223496 26
4.42908 0.94466239 -0.39620999 5
15.556963 3.3152497 3.0918691 25
6.7961183 1.4470429 -0.36415362 5
15.265834 3.2476389 3.6032662 28
14.331592 3.0462749 -0.25574756 7
15.043949 3.1949546 4.1209168 12
1.629348 0.34395182 -0.44620407 6
15.584701 3.287055 0.27801684 36
1.8763502 0.39540839 -0.44270366 5
15.574104 3.2819736 0.83413053 42
2.1459053 0.45182243 -0.42626733 78
15.576268 3.2767594 1.3925744 31
2.6194007 0.55056131 -0.42393744 4
15.553384 3.2662768 1.9513721 24
3.2598774 0.68458813 -0.40899354 3
15.535827 3.2597587 2.514215 27
4.4284511 0.92837751 -0.39586139 5
15.535772 3.2540865 3.0853815 22
6.8167677 1.4265823 -0.36499101 4
15.228832 3.1870213 3.5920184 14
14.341616 2.998729 -0.25574756 7
15.01286 3.1363542 4.109529 11
1.6229136 0.33697614 -0.44413349 6
15.568104 3.2296653 0.27752817 40
1.8719263 0.38799879 -0.44135398 6
15.553609 3.223835 0.83245581 43
2.1512365 0.44550052 -0.42703056 79
15.553881 3.2182214 1.3896111 31
2.6231465 0.54227251 -0.42425033 4
15.538856 3.209465 1.9482036 23
3.2582414 0.67297184 -0.4085061 3
15.515599 3.2018304 2.5092092 27
4.4295535 0.91328579 -0.39568707 5
15.515712 3.1962154 3.0792756 27
6.8195052 1.4035647 -0.36488631 5
15.241227 3.1368918 3.5924685 6
14.363233 2.9535737 -0.25595698 7
14.98533 3.0787797 4.0991759 11
1.6183438 0.33043265 -0.44258058 6
15.541501 3.1704307 0.27686498 40
1.8751121 0.38217866 -0.44180387 5
15.539326 3.1643379 0.8310951 49
2.1566265 0.43877083 -0.4277938 80
15.525418 3.1586838 1.3861248 35
2.6152513 0.53160387 -0.42268598 4
15.512453 3.1504078 1.9435725 23
3.2683525 0.66317242 -0.40948102 3
15.501511 3.1425521 2.5051417 31
4.4366198 0.89861006 -0.39603567 4
15.484442 3.1334653 3.0708799 27
6.8224058 1.379354 -0.36478165 6
15.34186 3.1018174 3.6136138 5
14.410697 2.9109442 -0.25662017 6
14.958114 3.0188048 4.0888233 11
1.6252266 0.32563788 -0.44413349 7
15.513799 3.1055999 0.27616689 42
1.8650351 0.373009 -0.43910447 5
15.509689 3.0991471 0.82889694 42
2.1774724 0.43470749 -0.43160996 86
15.488046 3.0920115 1.3817672 28
2.6055589 0.51969594 -0.42080876 4
15.477171 3.0842233 1.9377227 22
3.2590797 0.64886385 -0.40801859 3
15.489677 3.0810869 2.5013874 31
4.4437919 0.88312072 -0.39638433 5
15.455382 3.068665 3.062866 25
6.8234973 1.3535638 -0.36457232 6
15.393266 3.0535319 3.6230617 7
14.444807 2.8627753 -0.25703904 6
14.938756 2.9579601 4.0805411 11
1.641574 0.32265922 -0.44827461 6
15.483872 3.0406222 0.27543387 36
1.8740387 0.36767191 -0.44090405 5
15.479785 3.0342088 0.82669884 42
2.1751981 0.42596862 -0.43084675 85
15.487542 3.0329225 1.3807212 30
2.6190779 0.51241893 -0.42268598 4
15.455253 3.020998 1.9335792 21
3.2731261 0.6391964 -0.40948102 3
15.456273 3.0155969 2.4941914 26
4.4528656 0.86796993 -0.39690727 5
15.437621 3.0063648 3.057142 22
6.8225307 1.3274026 -0.36425829 6
15.387138 2.9937463 3.6190126 8
14.447351 2.8082831 -0.25689942 6
14.926741 2.8987637 4.0743294 12
1.6351577 0.31517819 -0.44620407 5
15.467422 2.9785528 0.2749452 36
1.8715464 0.3600648 -0.44000426 5
15.461382 2.9718006 0.82512879 42
2.1574645 0.41429037 -0.42703056 79
15.459423 2.9686191 1.3772351 30
2.6325781 0.50504977 -0.4245632 4
15.442825 2.9598508 1.9306543 21
3.2715478 0.62644804 -0.40899354 2
15.426476 2.9511354 2.4876211 27
4.4442754 0.84940034 -0.39586139 5
15.415754 2.9434991 3.0506544 21
6.8410826 1.305009 -0.36499101 6
15.392263 2.9362373 3.6176629 10
14.432012 2.7504418 -0.25644565 7
14.910697 2.8389726 4.0670824 12
1.6190035 0.30708542 -0.44154531 6
15.45065 2.9278097 0.27449146 38
1.876436 0.35523465 -0.44090405 5
15.446582 2.9214618 0.82387269 42
2.1624708 0.40899509 -0.4277938 96
15.432923 2.9160812 1.3740975 30
2.6263008 0.49577007 -0.42331171 4
15.426181 2.9092309 1.9274857 23
3.2889981 0.61967933 -0.41094348 2
15.402164 2.8991349 2.4823024 25
4.4290075 0.83366793 -0.39429256 5
15.39883 2.8957248 3.0456934 20
6.8584414 1.2884793 -0.3657237 5
15.385585 2.8876741 3.6140635 14
14.455832 2.7105601 -0.25672489 7
14.87728 2.7868967 4.0556946 12
1.6200657 0.30143175 -0.44154531 6
15.427354 2.86765 0.27389807 38
1.8853284 0.35010609 -0.44270366 5
15.425265 2.8616922 0.82219797 47
2.1754673 0.40359226 -0.43008351 84
15.411663 2.8563862 1.3713084 30
2.6202462 0.48516148 -0.42206025 4
15.403057 2.8492308 1.9233421 24
3.2716208 0.60458821 -0.4085061 2
15.381108 2.8396184 2.4772964 25
4.4318905 0.81820363 -0.39429256 4
15.36637 2.8341243 3.0372977 24
6.8570042 1.2634467 -0.36540967 6
15.385992 2.8321831 3.6118143 28
14.461272 2.659363 -0.2566551 7
14.850818 2.7283118 4.0458593 14
1.6420133 0.29958859 -0.44723931 5
15.403825 2.8076882 0.2733047 40
1.8750359 0.3414278 -0.44000426 4
15.405197 2.8051529 0.82062787 49
2.176863 0.39599541 -0.43008351 84
15.394095 2.7975881 1.368868 28
2.6180365 0.47530574 -0.42143452 4
15.373846 2.7883575 1.9184674 25
3.2854307 0.59528857 -0.4099685 2
15.37489 2.7857831 2.4747934 25
4.4504046 0.80556637 -0.39568707 5
15.345258 2.7748747 3.0311918 26
6.8554759 1.2384399 -0.36509567 6
15.361261 2.7722321 3.6037159 45
14.473948 2.6120994 -0.25672489 7
14.836968 2.6749396 4.0396481 16
1.6449507 0.29419553 -0.44775698 6
15.385493 2.7516592 0.27281603 40
1.8684843 0.33383745 -0.43820465 5
15.369672 2.7432935 0.81822044 45
2.1801646 0.38873941 -0.4304651 100
15.384152 2.7403374 1.3671249 28
2.627377 0.46800756 -0.42268598 4
15.336102 2.7290173 1.9126177 20
3.2795689 0.58299983 -0.40899354 2
15.355347 2.7269125 2.4701006 27
4.4531894 0.79002547 -0.39568707 4
15.327313 2.7191675 3.0258491 25
6.8615117 1.216046 -0.36520034 6
15.326237 2.7134662 3.5933683 54
14.473132 2.5598147 -0.25655037 7
14.825288 2.6194382 4.0339537 14
1.6383061 0.28740418 -0.44568643 6
15.365461 2.692755 0.27229246 40
1.8811556 0.32932901 -0.44090405 4
15.349643 2.6844687 0.81665033 42
2.1641028 0.37808537 -0.42703056 79
15.340164 2.6800444 1.3624185 28
2.6328869 0.45951205 -0.42331171 4
15.325977 2.672061 1.9101802 21
3.2737615 0.57018507 -0.40801859 2
15.312227 2.6641493 2.461653 30
4.4637713 0.77584386 -0.39638433 4
15.313965 2.6589448 3.0212698 25
6.8816662 1.1936182 -0.36603773 6
15.310654 2.6556175 3.5875194 40
14.476067 2.5082641 -0.25644565 8
14.794368 2.5607495 4.0230832 14
1.6336364 0.28041744 -0.44413349 5
15.333836 2.6293259 0.27155945 38
1.897716 0.32506451 -0.44450328 4
15.331818 2.6234789 0.81518495 42
2.1770849 0.37213618 -0.42932025 83
15.31257 2.6174271 1.3591067 28
2.6462364 0.45185447 -0.42518893 4
15.312189 2.6118541 1.9072554 21
3.2875705 0.5601837 -0.40948102 2
15.294626 2.6033723 2.457273 30
4.4469433 0.75613499 -0.39464122 4
15.290704 2.597213 3.0147824 23
6.8879638 1.1687232 -0.36614239 6
15.29915 2.595901 3.5825706 35
14.457562 2.4505007 -0.25595698 12
14.759844 2.4990938 4.011178 12
1.6365584 0.2747466 -0.44465113 6
15.313787 2.5681491 0.27103588 38
1.8950508 0.31746334 -0.44360349 4
15.319214 2.5663106 0.81403357 43
2.1764345 0.36420986 -0.42893866 66
15.300443 2.5576761 1.3571892 31
2.6322875 0.43955025 -0.42268598 4
15.294246 2.5511453 1.903843 20
3.2973385 0.55001009 -0.410456 3
15.278289 2.5457506 2.4532056 28
4.4495549 0.74061072 -0.39464122 4
15.266752 2.5383444 3.0082948 20
6.9057932 1.1469613 -0.36687508 6
15.279283 2.5376878 3.5758219 35
14.466026 2.4000294 -0.25595698 9
14.73989 2.4428153 4.0034132 14
1.6393669 0.26963195 -0.44516876 7
15.298539 2.5134654 0.27061701 38
1.8884012 0.3099145 -0.44180387 4
15.296106 2.5103168 0.8123588 43
2.1795676 0.35730857 -0.42932025 83
15.289178 2.5037074 1.3554461 33
2.6259329 0.42954257 -0.42143452 4
15.259521 2.4933741 1.8984808 24
3.3030624 0.53971356 -0.41094348 3
15.2652 2.4915748 2.449764 26
4.4559197 0.72649139 -0.39498982 4
15.238269 2.4817114 3.001044 22
6.8859019 1.120211 -0.36561903 6
15.254913 2.4816968 3.5681736 39
14.489697 2.3546071 -0.25623626 8
14.732656 2.3914492 3.9992721 15
1.6497884 0.2657297 -0.44775698 7
15.281125 2.4585862 0.27016324 42
1.8855702 0.30303255 -0.44090405 5
15.25942 2.4496229 0.80995136 50
2.1846175 0.35070068 -0.43008351 84
15.258052 2.4466794 1.3519598 35
2.6351447 0.42208254 -0.42268598 4
15.240263 2.4383633 1.8950685 24
3.297085 0.52692807 -0.4099685 2
15.242595 2.4332876 2.4447582 30
