# .PCD v0.7 - Point Cloud Data file format
VERSION 0.7
FIELDS x y z intensity
SIZE 4 4 4 4
TYPE F F F F
COUNT 1 1 1 1
WIDTH 1337
HEIGHT 1
VIEWPOINT 0 0 0 1 0 0 0
POINTS 1337
DATA ascii
6.9961591 0.53218418 -0.36771247 4
14.746582 1.1191553 3.4143071 39
14.494106 1.0999942 -0.25372308 34
14.237561 1.0780321 3.8258634 22
1.656824 0.12312348 -0.44516876 7
14.763229 1.0945086 0.25840032 40
1.9201107 0.1420152 -0.44450328 4
14.759565 1.089057 0.77561897 50
2.2163787 0.16353887 -0.43199161 70
14.74364 1.0852948 1.2933912 36
2.6694472 0.19603243 -0.42393744 4
14.749411 1.0805436 1.8158534 29
3.3498416 0.24482206 -0.41240588 2
14.744582 1.0750159 2.3415112 36
4.4988284 0.32800603 -0.39464122 4
14.724777 1.0709884 2.8697674 29
6.9979749 0.50775796 -0.36771247 4
14.730964 1.0662696 3.4098082 37
14.474106 1.0451382 -0.25330424 34
14.202881 1.0230553 3.8155105 18
1.6649516 0.11788546 -0.44723931 7
14.735044 1.0407176 0.25784186 36
1.9069873 0.13435271 -0.44135398 5
14.749331 1.0365528 0.77488625 50
2.2188945 0.15593936 -0.4323732 70
14.72945 1.0325724 1.2918224 37
2.6740565 0.186988 -0.4245632 4
14.717447 1.0265688 1.811466 26
3.3704789 0.23450597 -0.41484326 3
14.722627 1.0217593 2.3374441 33
4.5158467 0.31340253 -0.39603567 4
14.691213 1.0170099 2.8625166 27
6.9718084 0.481406 -0.36624706 4
14.717097 1.0136333 3.4057589 35
14.465695 0.99378854 -0.25309479 36
14.200583 0.97308534 3.8139577 20
1.6614981 0.1118131 -0.44620407 7
14.72462 0.98833489 0.25759751 38
1.9074446 0.12769566 -0.44135398 4
14.711011 0.98226345 0.77268815 50
2.2135487 0.14780004 -0.43122834 69
14.723024 0.98048478 1.2909508 36
2.6825771 0.17817688 -0.42581466 4
14.699153 0.97374177 1.808785 25
3.347508 0.22116806 -0.4119184 3
14.708364 0.96919566 2.3346283 36
4.5248652 0.29816231 -0.39673293 4
14.686836 0.96520287 2.8609903 28
6.9854045 0.45784879 -0.36687508 4
14.687489 0.96009707 3.3981106 42
14.457104 0.94250339 -0.25288537 42
14.184615 0.92225289 3.8087811 20
1.6657342 0.10625824 -0.44723931 6
14.719998 0.93642569 0.25745791 38
1.9117683 0.12128383 -0.44225377 5
14.694416 0.92964154 0.77164137 50
2.208173 0.13969997 -0.43008351 67
14.696531 0.92720723 1.2883362 37
2.6792397 0.16856436 -0.42518893 4
14.68067 0.92105502 1.8061038 26
3.3601465 0.21022615 -0.41338086 3
14.67617 0.91563708 2.3289967 35
4.5219021 0.28211865 -0.39638433 4
14.6764 0.91307306 2.8583188 28
6.9869604 0.43346384 -0.36687508 4
14.665465 0.90725416 3.392262 45
14.4144 0.88919717 -0.25208256 37
14.166537 0.87143207 3.803087 22
1.6583816 0.099978425 -0.44516876 7
14.703216 0.88383371 0.25710884 42
1.9238514 0.11530973 -0.44495317 5
14.681468 0.87996197 0.77080405 50
2.2066875 0.1318745 -0.42970186 67
14.663878 0.87376404 1.2851986 27
2.679812 0.15921032 -0.42518893 4
14.677852 0.86945528 1.8053726 28
3.3648233 0.19872895 -0.41386834 3
14.651518 0.8653295 2.3246164 36
4.5029697 0.26516011 -0.39464122 4
14.6599 0.86068982 2.8545027 30
6.9884305 0.40907031 -0.36687508 4
14.65687 0.85537845 3.3895626 45
14.397307 0.84023035 -0.25173351 35
14.134635 0.82242554 3.7937698 22
1.6606492 0.094298862 -0.44568643 7
14.67612 0.83337367 0.25658527 45
1.910604 0.10815786 -0.44180387 4
14.670492 0.8279171 0.77007133 53
2.2090945 0.12428167 -0.43008351 67
2.680325 0.15032342 -0.42518893 3
14.658851 0.819561 1.8026915 29
3.3733919 0.18801063 -0.41484326 3
14.634727 0.81308818 2.3214879 35
4.5118251 0.24988186 -0.39533845 4
14.631308 0.81033689 2.8483968 31
6.9997206 0.38644218 -0.36739844 4
14.644059 0.80590916 3.3859634 47
14.392165 0.78953409 -0.25159389 34
14.121988 0.77223378 3.7896287 22
1.6705983 0.0893066 -0.44827461 7
14.656973 0.78097206 0.25620133 45
1.8992939 0.10086735 -0.43910447 4
14.64537 0.77522051 0.76860595 56
2.2212574 0.11757739 -0.4323732 70
12.078998 0.63726705 1.0582449 0
2.6808336 0.1409657 -0.42518893 3
14.618011 0.76609761 1.7973293 29
3.3740275 0.17623647 -0.41484326 2
14.623667 0.76127577 2.3192978 33
4.51267 0.23412992 -0.39533845 4
14.602678 0.75762773 2.8422909 29
6.9850698 0.36118594 -0.36656106 3
14.621484 0.75348622 3.3801146 43
14.374864 0.73826176 -0.25124484 35
14.105304 0.72195643 3.7844522 25
1.6786323 0.08356753 -0.45034516 6
14.635645 0.72860789 0.25578249 49
1.9015808 0.094333924 -0.43955436 4
14.618065 0.72261786 0.76703584 53
2.2138302 0.10904942 -0.43084675 68
12.081252 0.59298217 1.0582449 0
2.6813321 0.13113961 -0.42518893 3
14.612664 0.71468168 1.7963543 27
3.3547947 0.16349068 -0.41240588 2
14.604532 0.70916718 2.3158562 35
4.52739 0.21905129 -0.39655861 4
14.583786 0.7030645 2.838093 28
6.9903364 0.33576849 -0.36677042 3
14.58327 0.69793773 3.3706667 35
14.357377 0.68712676 -0.2508958 33
14.078794 0.67133135 3.7766876 32
1.676984 0.077617735 -0.44982749 6
14.616242 0.67395073 0.25539851 12
1.9116472 0.087810263 -0.44180387 4
14.594562 0.67039168 0.76567513 10
2.2024298 0.10078199 -0.42855701 65
12.035481 0.54863793 1.0540615 0
2.6975605 0.12249537 -0.42769188 4
14.597339 0.66030777 1.7941607 28
3.3633039 0.15155181 -0.41338086 2
14.581264 0.65703762 2.3117888 37
4.5340981 0.20351323 -0.39708155 4
14.586151 0.65214944 2.838093 26
6.9814892 0.31092611 -0.36624706 3
14.571989 0.64641988 3.3675172 34
14.333718 0.63585007 -0.25044203 38
14.069471 0.62166768 3.773582 21
1.661804 0.071103193 -0.44568643 6
7.2802296 0.31149739 0.12719314 17
1.9216628 0.081885733 -0.44405338 4
7.1537356 0.30358705 0.37524885 1
2.2125759 0.093508415 -0.4304651 68
8.1078253 0.34123734 0.70997071 1
2.6861098 0.1130514 -0.42581466 4
14.587548 0.61139476 1.7926983 30
3.3598213 0.14023139 -0.41289338 2
14.559784 0.60514724 2.3080344 37
4.5307994 0.18751904 -0.39673293 4
14.564694 0.6027981 2.8335137 26
6.9944553 0.28826448 -0.36687508 3
14.562371 0.59761733 3.3648179 32
14.303884 0.58450204 -0.24988356 8
14.044532 0.57145566 3.766335 24
1.6716824 0.065973312 -0.44827461 6
7.1453981 0.28074232 0.12481961 8
1.9219369 0.075177781 -0.44405338 4
7.1187792 0.27845559 0.37336475 2
2.2050266 0.085865602 -0.42893866 66
2.6825404 0.10352266 -0.42518893 4
14.567774 0.55964279 1.790017 29
3.3880613 0.12956366 -0.41630572 2
14.539997 0.55602753 2.3045928 36
4.5154691 0.17189009 -0.39533845 4
14.533359 0.55070049 2.8270264 28
7.0053988 0.26422206 -0.36739844 3
14.546841 0.54611963 3.3607688 35
7.2437935 0.27194756 -0.12652995 7
14.021254 0.5239442 3.7596056 25
1.6622493 0.059789989 -0.44568643 6
7.114315 0.2558971 0.12426113 13
1.9065956 0.068246692 -0.44045416 4
7.1676116 0.25530913 0.37587687 1
2.2327814 0.079141133 -0.43428129 73
14.535404 0.51267576 1.2724738 36
2.682869 0.094627008 -0.42518893 4
14.521935 0.50965619 1.7841673 26
3.3686335 0.11763562 -0.41386834 2
14.541849 0.50528008 2.3045928 41
4.5279889 0.15653895 -0.39638433 4
14.509599 0.50161725 2.8220651 27
6.9982524 0.24071664 -0.36697978 3
14.527149 0.49714738 3.3558199 42
7.0748229 0.24087806 -0.12356304 4
14.007551 0.47447073 3.7554643 22
1.6778946 0.05448927 -0.44982749 6
7.1311946 0.23033814 0.12454037 6
1.9048853 0.061194241 -0.44000426 4
7.1205502 0.22874694 0.37336475 2
2.2134216 0.070720308 -0.4304651 68
14.517193 0.46129793 1.2707307 38
2.6910951 0.085040763 -0.42644039 4
14.499897 0.45568219 1.7812425 27
3.3769784 0.10553695 -0.41484326 2
14.515883 0.45364875 2.3002126 37
4.5384645 0.14104058 -0.39725587 2
14.491715 0.44783032 2.818249 29
6.9930983 0.21488266 -0.36666575 3
14.499656 0.44300297 3.3490713 45
6.9896736 0.21355309 -0.12206213 2
14.00526 0.42545804 3.7544291 22
1.6742125 0.048519615 -0.44879225 6
7.1359172 0.20680287 0.12461019 6
1.9226091 0.055382468 -0.44405338 5
7.0833721 0.20280902 0.37137598 5
2.2058051 0.062769622 -0.42893866 66
14.333496 0.40537849 1.2545198 38
2.7032099 0.076451913 -0.42831761 4
14.324724 0.40263525 1.7595497 28
3.3693726 0.094115265 -0.41386834 2
14.32584 0.39765552 2.2698643 33
4.5349464 0.12508862 -0.39690727 4
14.326307 0.39516634 2.7858114 29
7.0137372 0.19223678 -0.36771247 4
14.315984 0.3898809 3.3063307 42
6.9663887 0.18850565 -0.12164328 7
13.983485 0.37594122 3.7482176 22
1.6627769 0.04267044 -0.44568643 6
7.1166048 0.18138461 0.12426113 9
1.9188945 0.048572756 -0.44315359 5
7.1339531 0.17933512 0.37399277 2
2.2138515 0.055652358 -0.4304651 68
14.316835 0.35740003 1.2529509 34
2.6935866 0.066771284 -0.42675328 4
14.31612 0.35238215 1.7583311 27
3.3776186 0.08254648 -0.41484326 2
14.299494 0.34697875 2.2654841 33
4.5273685 0.10985709 -0.39620999 2
14.307974 0.344686 2.7819953 30
7.0303388 0.16813324 -0.36854982 4
14.307517 0.33967814 3.3040812 40
6.9650054 0.16414163 -0.12160837 3
13.953813 0.32640091 3.7399354 25
1.6609844 0.036823537 -0.44516876 6
7.1131959 0.15645546 0.12419132 9
1.9190524 0.041873757 -0.44315359 5
7.1325388 0.15439016 0.37388811 4
2.2218835 0.048094645 -0.43199161 52
14.298077 0.30699128 1.2512078 37
2.6799786 0.057073381 -0.4245632 4
14.305354 0.30215886 1.7568686 27
3.3778861 0.070756599 -0.41484326 2
14.286795 0.29677111 2.263294 31
4.5277247 0.094051741 -0.39620999 2
14.273758 0.29401496 2.7751262 31
7.0208988 0.14338933 -0.36802649 3
14.291081 0.28937468 3.3000321 39
7.0155182 0.14082971 -0.12248099 2
13.931688 0.27723271 3.7337236 25
1.6688287 0.031169254 -0.44723931 6
7.0977039 0.13132699 0.12391209 19
1.9113932 0.035032317 -0.44135398 5
7.1470127 0.12974386 0.37462083 2
2.2338154 0.040551744 -0.43428129 54
14.277149 0.25668883 1.2492903 36
2.6860867 0.047824219 -0.42550179 4
14.290443 0.25193831 1.7549187 22
3.3860519 0.059104439 -0.41581824 2
14.275892 0.24669732 2.2614169 22
4.539978 0.078453965 -0.39725587 2
14.058771 0.240491 2.7331481 42
7.0113721 0.11871336 -0.36750311 3
14.264725 0.23903362 3.2937334 25
7.0619535 0.11710416 -0.1232838 3
13.920981 0.22841315 3.7306178 25
1.6805173 0.025519319 -0.45034516 6
7.0741258 0.10619189 0.12349322 13
1.9076067 0.02830177 -0.44045416 6
7.1074815 0.10420784 0.37252739 2
2.2221651 0.032580741 -0.43199161 52
14.269988 0.20673828 1.2485931 36
2.6961131 0.038588367 -0.42706612 4
14.311087 0.20233063 1.7573562 54
3.3782978 0.047174398 -0.41484326 2
14.318146 0.19743179 2.2679873 68
4.5601459 0.062879495 -0.39899898 2
14.045783 0.19122446 2.7304769 50
7.0137405 0.094266705 -0.36760777 3
14.197271 0.18833049 3.2779868 52
7.1782918 0.093968913 -0.12530828 4
13.913968 0.17972161 3.7285473 25
1.6767325 0.019608235 -0.44930989 6
7.1064463 0.081864603 0.12405171 3
1.9154884 0.021731639 -0.44225377 6
2.2104864 0.024692632 -0.42970186 67
14.256677 0.15676831 1.247373 37
2.7021573 0.029241635 -0.42800474 5
3.370502 0.035297602 -0.41386834 2
4.5583453 0.046941679 -0.39882466 4
14.034587 0.14207807 2.7281871 50
7.028007 0.069920823 -0.36834049 3
7.2785563 0.069872722 -0.12705351 7
13.891329 0.13092948 3.7223358 24
1.6652001 0.013659701 -0.44620407 6
7.1666775 0.057541128 0.12509885 1
1.9291934 0.015152751 -0.4454031 6
2.2144856 0.017006006 -0.4304651 85
14.221276 0.10673612 1.2442354 34
2.7042181 0.019824222 -0.42831761 5
14.643651 0.10478766 1.7980604 4
3.3944252 0.02369754 -0.41679317 2
14.494979 0.098671056 2.2958324 3
4.5305891 0.030840887 -0.39638433 4
14.019292 0.092979454 2.7251341 50
7.0322022 0.045411997 -0.36854982 3
14.609417 0.091800727 3.372916 8
7.3427453 0.044854347 -0.12817048 7
13.85886 0.082240321 3.7135358 23
1.6691014 0.0078663388 -0.44723931 6
7.2788167 0.033030655 0.12705351 3
1.9136447 0.0083499774 -0.44180387 6
2.2184579 0.0092938766 -0.43122834 69
14.193669 0.056978196 1.2417951 34
2.688468 0.010323216 -0.42581466 4
18.121786 0.066430226 2.2250907 5
3.3944871 0.011849355 -0.41679317 2
14.297699 0.047414597 2.2645457 2
4.546608 0.015077641 -0.39777881 4
13.986156 0.043947194 2.7186468 52
7.0482965 0.020913644 -0.36938724 4
14.629137 0.040854312 3.3774152 14
7.3348584 0.019200217 -0.12803085 12
13.832017 0.0338002 3.7062888 23
1.6749141 0.0020466771 -0.44879225 6
7.3228812 0.0076667625 0.12782143 3
1.9136622 0.0016704629 -0.44180387 6
8.0189934 0.0056003984 0.42025778 1
2.2420361 0.0015658194 -0.43580776 75
14.18382 0.0074237036 1.2409234 34
2.6924384 0.00094059476 -0.42644039 4
18.2827 0.0031962618 2.2448335 3
3.3945079 -0 -0.41679317 2
14.278024 -0.0024919852 2.2614169 3
4.5446405 -0.00079318939 -0.3976045 2
13.970517 -0.0048766308 2.7155938 53
7.0123758 -0.0036716717 -0.36750311 5
14.636984 -0.010218544 3.3792148 17
7.1329117 -0.0062246406 -0.12450547 8
13.820459 -0.014472756 3.7031829 24
1.6729794 -0.0037958762 -0.44827461 6
7.4028506 -0.018088613 0.12921762 3
1.9097589 -0.004999748 -0.44090405 6
8.0309515 -0.021025028 0.42088583 1
2.2322118 -0.0062335269 -0.4338997 72
14.175789 -0.042060539 1.2402261 34
2.6924253 -0.0084585315 -0.42644039 4
18.711378 -0.062049508 2.2974811 4
3.3786066 -0.011793609 -0.41484326 2
14.252256 -0.049749959 2.2573495 4
4.5386329 -0.016635032 -0.39708155 4
13.958635 -0.053597573 2.713304 53
7.0243034 -0.02819751 -0.36813116 4
14.537475 -0.060894787 3.3562698 11
7.134851 -0.029886568 -0.12454037 4
13.816472 -0.060286112 3.7021477 23
1.6768194 -0.0096578924 -0.44930989 6
7.3467598 -0.042314764 0.12824029 11
1.9136293 -0.011355838 -0.44180387 6
2.2164707 -0.013926677 -0.43084675 68
14.151647 -0.09138862 1.2381344 33
2.7081852 -0.01748894 -0.42894334 4
18.90362 -0.12537539 2.3211238 4
3.3745787 -0.022970382 -0.41435578 2
14.200638 -0.099140756 2.2492149 7
4.5405393 -0.032491975 -0.39725587 2
13.944638 -0.099787451 2.7106326 45
7.0361547 -0.051578633 -0.36875919 4
14.513809 -0.10892695 3.3508708 11
7.1467009 -0.0548838 -0.1247498 3
13.789132 -0.1083018 3.694901 26
1.6651876 -0.015113177 -0.44620407 7
7.304575 -0.067571029 0.12750728 24
1.9233212 -0.018127412 -0.44405338 6
2.2124858 -0.021238994 -0.43008351 67
14.131345 -0.13812195 1.2363913 34
2.7002068 -0.02686356 -0.42769188 4
19.0837 -0.19318916 2.3433039 4
3.3943281 -0.034954131 -0.41679317 3
14.186404 -0.14608884 2.2470248 10
4.5483756 -0.047632214 -0.39795309 2
13.932426 -0.1483373 2.708343 45
7.0439205 -0.076225534 -0.36917788 3
14.564004 -0.16014604 3.3625684 13
7.178473 -0.07893461 -0.12530828 3
13.765516 -0.15376869 3.6886892 27
1.668988 -0.020974226 -0.44723931 7
7.332304 -0.092145301 0.12799595 14
1.9232504 -0.024505273 -0.44405338 6
2.2222137 -0.029090371 -0.43199161 70
2.696152 -0.035765212 -0.42706612 4
19.285416 -0.25919297 2.3681653 4
3.3981633 -0.046263982 -0.41728067 2
14.164081 -0.19530815 2.2435834 20
4.5641193 -0.063731268 -0.3993476 2
13.902412 -0.1941269 2.7026188 42
7.0516171 -0.099696524 -0.36959657 4
14.559496 -0.20838535 3.3616683 19
7.2621322 -0.10520829 -0.12677428 3
13.74558 -0.20153515 3.6835127 28
1.6727726 -0.026570041 -0.44827461 7
1.9134108 -0.031060375 -0.44180387 6
2.23192 -0.036620378 -0.4338997 72
2.6881104 -0.045043934 -0.42581466 4
19.449135 -0.32929933 2.3883955 11
3.3979812 -0.058125503 -0.41728067 3
14.157388 -0.24464642 2.2426448 33
4.5598845 -0.079593077 -0.39899898 2
13.885946 -0.24238008 2.6995659 43
7.0372472 -0.12406423 -0.36886385 3
14.552835 -0.25910214 3.3603189 24
7.4276686 -0.13354076 -0.12967138 13
13.735135 -0.24933964 3.6809247 28
1.68039 -0.032851923 -0.45034516 7
8.1691942 -0.15970922 0.14262106 1
1.9113424 -0.037700806 -0.44135398 6
8.0413713 -0.1600183 0.42151386 3
2.2298079 -0.044761125 -0.43351805 72
14.083307 -0.28516704 1.2323822 34
2.695827 -0.055057388 -0.42706612 4
19.433971 -0.39690372 2.3866894 11
3.3858495 -0.069741033 -0.41581824 2
14.122874 -0.29336604 2.2373261 39
4.5675473 -0.095676474 -0.39969626 2
13.877113 -0.29310712 2.6980393 42
7.0287585 -0.1496861 -0.36844519 3
14.528407 -0.31193724 3.3549199 24
7.6950545 -0.16521935 -0.13434863 9
13.728386 -0.29715726 3.6793716 29
1.674471 -0.038583867 -0.44879225 7
8.192544 -0.19020669 0.14303991 1
1.9228806 -0.044979397 -0.44405338 6
14.210547 -0.33489013 0.74495006 37
2.2217872 -0.052359316 -0.43199161 70
14.066291 -0.33394691 1.2309877 34
2.7035179 -0.064656168 -0.42831761 4
19.549473 -0.47095078 2.4010701 5
3.385571 -0.082150325 -0.41581824 2
14.090106 -0.34435478 2.2323201 42
4.5612102 -0.11147358 -0.39917332 4
13.868156 -0.34135231 2.6965129 38
7.0401735 -0.1745171 -0.36907321 3
14.509697 -0.36221126 3.3508708 26
13.694375 -0.3466413 3.670572 28
1.6627392 -0.044121161 -0.44568643 7
8.2398071 -0.22008429 0.14387764 1
1.9246598 -0.051743604 -0.44450328 6
14.225265 -0.38492435 0.74578744 49
2.233366 -0.060433108 -0.43428129 73
14.031182 -0.38212332 1.2280245 36
2.7032757 -0.074092813 -0.42831761 4
19.764002 -0.54515427 2.4276373 1
3.381295 -0.093857519 -0.41533077 3
14.074996 -0.39315021 2.23013 48
4.5588012 -0.12733884 -0.39899898 2
13.849216 -0.38926271 2.6930783 31
7.0495028 -0.19937314 -0.36959657 4
14.484968 -0.41219217 3.3454721 22
7.9135513 -0.22657463 -0.13818815 1
13.677632 -0.39399645 3.6664307 28
1.6645058 -0.049982917 -0.44620407 7
1.918624 -0.058284093 -0.44315359 6
14.201949 -0.43142778 0.74463606 48
2.2292168 -0.068108737 -0.43351805 72
14.015821 -0.43067062 1.2268041 37
2.6990519 -0.08340653 -0.42769188 4
19.94849 -0.61993641 2.4505491 1
3.4126928 -0.10665198 -0.41923055 2
14.059793 -0.43939051 2.2279398 52
4.538415 -0.14262544 -0.39725587 2
13.824227 -0.43685901 2.688499 23
7.0527563 -0.22410613 -0.3698059 4
14.023773 -0.44806501 3.2392952 9
13.938765 -0.44534895 -0.24342617 18
13.656941 -0.4387306 3.6612544 28
1.6720444 -0.056051727 -0.44827461 7
14.177876 -0.47528309 0.24761474 29
1.9047868 -0.064186744 -0.44000426 6
14.186385 -0.48052594 0.74390334 49
2.236814 -0.076156951 -0.43504456 74
14.002287 -0.47918347 1.2257584 37
2.6987603 -0.092356443 -0.42769188 4
20.172489 -0.69386387 2.4783351 1
3.4004169 -0.11755677 -0.41776815 2
14.048304 -0.4881227 2.2263756 57
4.5538192 -0.15902287 -0.39865038 2
16.724585 -0.58403534 3.2529118 9
7.0240302 -0.24651198 -0.36834049 4
13.9521 -0.49209431 3.2230988 55
13.935126 -0.49393073 -0.24339128 39
13.649535 -0.4861933 3.6597013 28
1.6795715 -0.06188063 -0.45034516 6
14.166139 -0.52440029 0.24744022 40
1.9064984 -0.070907727 -0.44045416 6
14.154683 -0.52892399 0.74233329 46
2.2287016 -0.083280832 -0.43351805 72
14.000621 -0.52561408 1.2257584 37
2.6984215 -0.10177632 -0.42769188 4
3.3841166 -0.12882164 -0.41581824 3
14.028749 -0.53647816 2.2235599 61
4.5691638 -0.17552957 -0.40004486 2
14.005343 -0.53803098 2.724371 28
7.0351014 -0.27149102 -0.36896852 4
14.055449 -0.54486948 3.2473934 72
13.90734 -0.54155886 -0.24293751 43
13.640034 -0.53353411 3.6576309 28
1.6812636 -0.068114348 -0.4508628 6
14.164222 -0.57384616 0.24744022 42
1.9179221 -0.078037567 -0.44315359 6
14.13479 -0.57759595 0.74139124 46
2.2244582 -0.091287874 -0.43275481 71
13.974712 -0.57594091 1.2236667 37
2.7059252 -0.11199258 -0.42894334 4
14.018631 -0.58020186 1.7227452 65
3.3995135 -0.14129311 -0.41776815 3
14.003107 -0.58445579 2.2198052 70
4.5685234 -0.19147784 -0.40004486 4
14.001315 -0.58927691 2.7239895 63
7.0460324 -0.29778013 -0.36959657 5
13.994948 -0.59390289 3.2338963 82
13.869403 -0.58857512 -0.24230921 39
13.614927 -0.58015651 3.6514192 28
1.6694357 -0.073472999 -0.44775698 6
14.136052 -0.62460929 0.24698645 39
1.9273574 -0.0854984 -0.4454031 6
14.126593 -0.62913203 0.74107724 45
2.2241259 -0.099052124 -0.43275481 71
13.940768 -0.62329435 1.2208776 34
2.7055178 -0.12143735 -0.42894334 4
13.998564 -0.63077468 1.7205516 41
3.3910403 -0.15339316 -0.41679317 2
13.987057 -0.63514853 2.2176151 67
4.551868 -0.2074952 -0.39865038 2
13.985445 -0.63752127 2.721318 47
7.0469446 -0.32246485 -0.36970121 5
13.990844 -0.64266127 3.2334464 54
13.847177 -0.63848394 -0.24196015 38
13.585691 -0.62880331 3.6441724 27
1.665296 -0.079407267 -0.44672167 7
14.119803 -0.6732828 0.24674211 40
1.9270473 -0.092225611 -0.4454031 6
14.11234 -0.67786431 0.74044919 46
2.223748 -0.1072033 -0.43275481 53
13.926451 -0.67380792 1.2198317 34
2.6853237 -0.13039465 -0.42581466 4
3.4063461 -0.16600218 -0.4187431 3
13.972917 -0.6833896 2.2157381 75
4.5610662 -0.22387132 -0.39952192 4
7.0556898 -0.34878409 -0.3702246 5
14.377665 -0.71324694 3.323427 24
13.84087 -0.68661761 -0.24189036 38
13.569909 -0.67555004 3.6405489 28
1.6785289 -0.085618027 -0.45034516 7
14.093403 -0.7213394 0.24632326 37
1.9111441 -0.098152079 -0.44180387 6
14.10191 -0.72671026 0.74003047 48
2.2351441 -0.11518314 -0.43504456 74
13.916181 -0.71957445 1.2191346 37
2.6927674 -0.13970819 -0.42706612 4
21.249432 -1.1061978 2.6126354 5
3.3978164 -0.17747737 -0.41776815 3
13.960582 -0.73164314 2.2141736 74
4.5682569 -0.23941222 -0.40021914 4
16.65876 -0.87596405 3.2426083 6
7.0465164 -0.37175876 -0.3698059 5
14.363543 -0.76030302 3.3207276 29
13.8304 -0.73450285 -0.24175073 38
13.565538 -0.72281098 3.6400313 31
1.6724328 -0.091161229 -0.44879225 7
14.082812 -0.77009338 0.24618365 40
1.9107898 -0.10482263 -0.44180387 6
14.059402 -0.77373564 0.73793703 51
2.2386491 -0.1232003 -0.43580776 75
13.909605 -0.76792693 1.2187859 37
2.6981804 -0.14943455 -0.42800474 4
21.481302 -1.1934695 2.6416399 5
3.3932123 -0.18911593 -0.41728067 3
13.93822 -0.77926743 2.211045 72
4.5654044 -0.25524572 -0.40004486 2
16.573275 -0.92949152 3.2265804 3
7.0471702 -0.39646566 -0.36991057 5
14.331616 -0.80878949 3.3139789 30
13.807787 -0.7816453 -0.24140169 38
13.551361 -0.76950198 3.6369255 31
1.6701758 -0.09688668 -0.44827461 7
14.072053 -0.81878227 0.24604402 42
1.9220849 -0.1121731 -0.44450328 6
14.050777 -0.820005 0.73762304 49
2.2225261 -0.13009611 -0.43275481 71
13.890928 -0.81554168 1.2173914 38
2.7114463 -0.15966491 -0.43019485 4
21.712822 -1.2823734 2.670645 6
3.3964949 -0.20119406 -0.41776815 3
13.907954 -0.82384872 2.2066648 70
4.5803967 -0.27212569 -0.40143937 4
16.528769 -0.98488486 3.2185662 2
7.0437498 -0.42094329 -0.3698059 6
14.31898 -0.85822821 3.3117294 29
13.783163 -0.82611322 -0.24101773 36
13.535235 -0.81362426 3.633302 29
1.6678993 -0.10259748 -0.44775698 7
14.063274 -0.8650741 0.24593931 43
1.9236474 -0.11866633 -0.44495317 6
14.037862 -0.86842978 0.73709965 51
2.2240181 -0.13797496 -0.43313646 71
13.864135 -0.86254054 1.2152996 38
2.6951294 -0.16767426 -0.42769188 4
14.050956 -0.8766253 1.7285949 11
3.4037337 -0.21295196 -0.4187431 3
13.889221 -0.87140197 2.2041619 72
4.5635114 -0.28711176 -0.40004486 2
14.00957 -0.88140738 2.7285688 7
7.0522814 -0.44492769 -0.37032926 6
14.152688 -0.89537144 3.2739377 25
13.764229 -0.87320757 -0.2407385 37
13.509177 -0.85939431 3.6270902 30
1.665622 -0.10800286 -0.44723931 7
14.020258 -0.91156405 0.24524122 35
1.9290553 -0.12576072 -0.44630289 6
14.014815 -0.91612303 0.73605299 48
2.2157118 -0.14483705 -0.43160996 69
13.849271 -0.90772921 1.2142538 39
2.6905851 -0.17682187 -0.42706612 3
3.4108927 -0.2253554 -0.41971806 3
13.880181 -0.91948742 2.2032232 75
4.5824142 -0.30356029 -0.40178797 2
7.0606494 -0.47020561 -0.37085262 6
13.879204 -0.92672181 3.2114012 58
13.753117 -0.92071414 -0.24059887 33
13.481037 -0.90486294 3.6203611 31
1.6710168 -0.1142115 -0.44879225 7
13.995046 -0.95899445 0.24485727 34
1.9111072 -0.13129155 -0.44225377 7
14.011533 -0.96503824 0.73605299 48
2.2367377 -0.15405434 -0.43580776 75
13.846017 -0.95606655 1.2142538 42
2.7057171 -0.18730405 -0.42956907 4
13.858342 -0.96177822 1.7056835 57
3.4100854 -0.23726027 -0.41971806 3
13.869004 -0.96738285 2.2019718 67
4.5674138 -0.31858364 -0.40056777 4
13.842482 -0.96796048 2.6972761 66
7.0370488 -0.4933126 -0.36970121 6
13.860332 -0.97407079 3.2078018 76
13.739845 -0.96801317 -0.24042436 30
13.477796 -0.95191514 3.6203611 31
1.6744618 -0.12032067 -0.44982749 7
13.979647 -1.0069785 0.24464783 34
1.9222993 -0.13880385 -0.44495317 6
13.976381 -1.0091954 0.73437822 46
2.2401025 -0.16214454 -0.436571 76
13.828684 -1.0033829 1.2130336 41
2.7011065 -0.19646104 -0.42894334 3
13.852921 -1.0100026 1.7054397 40
3.3815188 -0.24713649 -0.41630572 3
13.846019 -1.0119289 2.198843 67
4.5861444 -0.33598065 -0.40231091 4
13.805731 -1.0138295 2.6907885 60
7.0332928 -0.5177269 -0.36959657 5
13.812148 -1.0191482 3.1974542 69
13.728581 -1.0129822 -0.24028473 32
13.466859 -0.99603391 3.6182904 28
1.6798109 -0.12660046 -0.45138043 5
13.984206 -1.0539323 0.24478745 37
1.9159988 -0.14473727 -0.44360349 6
13.970782 -1.0578252 0.73427355 49
2.2258196 -0.16892299 -0.4338997 72
13.805231 -1.0501367 1.2112905 41
2.7043793 -0.2057168 -0.42956907 3
13.982111 -1.0660462 1.7217702 30
3.4004741 -0.25986126 -0.4187431 2
13.818768 -1.0584441 2.1950886 64
4.5730247 -0.35107219 -0.40126503 4
13.800336 -1.0594552 2.690407 56
7.027554 -0.54074085 -0.36938724 5
13.707019 -1.0595108 -0.23997059 34
13.447892 -1.0418421 3.6141493 29
1.6659003 -0.13110921 -0.44775698 5
13.970474 -1.1019535 0.24461293 42
1.9290806 -0.1524995 -0.44675279 6
13.941121 -1.104535 0.73291278 48
2.2193758 -0.17583795 -0.43275481 71
13.775853 -1.0938606 1.2090244 42
2.7075832 -0.21546902 -0.43019485 3
13.980285 -1.1150043 1.7220141 30
3.3876736 -0.27078053 -0.41728067 2
13.801205 -1.1055701 2.1928985 55
4.5618415 -0.3662357 -0.40039349 4
7.037569 -0.56622934 -0.37001523 5
2.7077556 -0.21833651 0.62716353 1
13.671346 -1.1047735 -0.23941211 37
13.42877 -1.0875303 3.6100082 28
1.6634834 -0.13705553 -0.44723931 5
13.934655 -1.1480857 0.24405445 42
1.9285365 -0.1592323 -0.44675279 6
13.941162 -1.1535214 0.73312211 48
2.2206731 -0.18413344 -0.43313646 71
13.747926 -1.1423645 1.2069327 37
2.6910269 -0.22408001 -0.42769188 3
13.954547 -1.1619858 1.7193328 12
3.4104464 -0.28458497 -0.42020553 2
4.5724478 -0.38315552 -0.40143937 2
2.6919637 -0.22605048 0.52510637 2
7.0394268 -0.59235448 -0.3702246 5
2.6816931 -0.22613075 0.62131482 33
13.663422 -1.1521527 -0.2393423 34
13.409492 -1.1330974 3.6058671 28
1.6668445 -0.14319202 -0.44827461 5
13.914414 -1.1977789 0.2437752 39
1.9085248 -0.16462497 -0.44225377 6
13.915162 -1.20029 0.73197079 45
2.2278404 -0.19256015 -0.43466291 73
13.741869 -1.1901748 1.2067584 20
2.6981001 -0.23415525 -0.42894334 3
3.3975663 -0.29545602 -0.4187431 3
2.7117937 -0.2362974 0.43113342 6
4.5849762 -0.40032706 -0.40265954 4
7.021399 -0.61552763 -0.36938724 4
2.6867523 -0.23553288 0.62266451 65
13.393909 -1.178882 3.6027613 28
1.6779056 -0.14974909 -0.45138043 5
1.9099091 -0.17112687 -0.44270366 6
2.2271895 -0.19994687 -0.43466291 73
2.7091131 -0.24416509 -0.43082058 3
2.7006469 -0.24387723 0.33294708 7
3.3886597 -0.30600703 -0.41776815 3
4.575686 -0.41480961 -0.40196225 4
2.6805868 -0.24348079 0.52319831 87
6.3609476 -0.57889152 -0.33474082 13
2.6781938 -0.2437347 0.62086493 81
6.3666143 -0.58052772 -0.11159069 19
6.3679094 -0.58176649 1.7133821 4
1.6773999 -0.1553124 -0.45138043 5
6.3836145 -0.59219003 0.11190483 24
1.9190332 -0.17836113 -0.44495317 6
6.3815961 -0.59424961 0.3358922 1
2.2147853 -0.20623921 -0.4323732 70
2.7257068 -0.25429571 0.23950398 13
2.7082887 -0.25314748 -0.43082058 4
3.3915236 -0.31820461 -0.41825563 3
2.7002888 -0.25382599 0.42956907 91
4.5980897 -0.43221846 -0.40405402 4
2.6856284 -0.25292081 0.52434313 96
6.3570042 -0.59979445 -0.33463615 17
2.6753864 -0.25289848 0.62041503 82
6.346632 -0.60105097 -0.11127654 20
6.3312221 -0.60070652 1.7040646 12
1.6730014 -0.16079701 -0.45034516 5
1.9222784 -0.18543297 -0.44585299 6
2.7156043 -0.2624397 0.14298184 9
2.2257769 -0.21510212 -0.43466291 73
2.6995237 -0.26183683 -0.42956907 4
2.7147307 -0.26379004 0.33489698 99
3.402247 -0.33119532 -0.41971806 3
2.6915221 -0.2624833 0.42831761 100
4.5886207 -0.4474926 -0.40335676 4
2.6710517 -0.2609576 0.52167183 100
6.3707743 -0.62353724 -0.33547351 7
2.682245 -0.26299644 0.62221462 90
6.3386998 -0.6237489 1.7066529 19
1.6647407 -0.16586977 -0.44827461 5
2.7081287 -0.27030718 0.04750545 29
1.9254974 -0.19252962 -0.44675279 6
2.2250125 -0.22287022 -0.43466291 73
2.7040405 -0.27132916 0.23776087 110
2.6514223 -0.26651672 -0.42206025 7
2.7137935 -0.27326462 0.33489698 114
3.4129202 -0.34426472 -0.42118049 3
2.6866589 -0.2714797 0.42769188 110
4.5770383 -0.46330446 -0.40248519 2
2.6623111 -0.26948881 0.52014536 103
2.7302339 -0.27684563 -0.14381923 1
2.6793721 -0.27216068 0.62176472 86
2.731478 -0.27793509 -0.047924306 18
6.3134208 -0.64352047 1.7004411 18
1.671808 -0.17276455 -0.45034516 6
2.7230816 -0.28140312 0.04778469 78
1.9112451 -0.19784512 -0.44360349 6
2.7057595 -0.28056765 0.14256316 96
2.2339447 -0.23203795 -0.436571 76
2.7010462 -0.28103194 0.23758654 120
2.6818631 -0.27950916 -0.42706612 4
2.687156 -0.2800608 0.33172837 115
3.3919544 -0.35411474 -0.4187431 3
2.6876593 -0.28106165 0.42800474 110
2.7167017 -0.28457811 -0.23898104 4
2.6671631 -0.27985951 0.52129018 109
2.7212558 -0.28601551 -0.14340053 32
2.6802943 -0.28218326 0.62221462 92
2.718559 -0.28621179 -0.047714882 51
6.318821 -0.66636497 1.7025118 18
1.6731156 -0.17880447 -0.4508628 6
2.7140784 -0.29053041 0.04764507 90
1.9085695 -0.20464107 -0.44315359 6
2.7047637 -0.29001078 0.14256316 115
2.2350733 -0.24004412 -0.43695265 76
2.6960871 -0.29003242 0.23723793 115
2.7044394 -0.29140845 -0.43082058 4
2.6801906 -0.28926879 0.33099717 119
3.3906336 -0.36654451 -0.4187431 3
2.686662 -0.29044163 0.42800474 113
2.6661701 -0.28916797 0.52129018 109
2.7321539 -0.2968069 -0.14402856 55
2.6657319 -0.29006192 0.61906528 86
2.7254953 -0.29656485 -0.047854498 92
6.3126154 -0.68799907 1.7014765 18
1.6744015 -0.18485564 -0.45138043 6
2.7051499 -0.29865128 0.04750545 109
1.9233757 -0.21268244 -0.44675279 6
2.6938093 -0.29835111 0.14203981 121
2.2225137 -0.24654576 -0.43466291 73
2.7049589 -0.30054182 0.23810948 120
2.6995313 -0.29993877 -0.43019485 4
2.6831625 -0.29859415 0.33148462 116
3.3933454 -0.37822601 -0.41923055 3
2.6718895 -0.2982839 0.42581466 115
2.7186089 -0.30397993 -0.23932965 90
2.6808054 -0.29975295 0.52434313 108
2.7232156 -0.30497628 -0.14360988 79
2.6666923 -0.29911745 0.61951524 82
2.7125201 -0.30473724 -0.04764507 104
6.3101754 -0.71003008 1.7014765 18
1.6661013 -0.1895337 -0.44930989 8
2.7060778 -0.30831861 0.047540355 116
1.9187493 -0.2189531 -0.44585299 6
2.7006886 -0.30865958 0.14245848 122
2.2197335 -0.25369161 -0.43428129 73
2.6841528 -0.30724433 0.23636638 119
2.7043557 -0.31003508 -0.43113342 4
2.6899922 -0.30886406 0.3324596 117
3.4077809 -0.39188296 -0.42118049 3
2.6649449 -0.30693063 0.42487606 110
2.6958139 -0.31048593 -0.23741224 106
2.6680405 -0.30775905 0.52205342 110
2.7221344 -0.31448022 -0.14360988 100
2.6656318 -0.30842412 0.61951524 90
2.691576 -0.31190199 -0.047296021 107
6.282712 -0.72915709 1.6947472 16
1.6596736 -0.19467318 -0.44775698 8
2.6970408 -0.31682947 0.047400735 122
1.9218441 -0.22610487 -0.44675279 5
2.7075286 -0.31901971 0.14287716 123
2.222734 -0.26189783 -0.43504456 74
2.683064 -0.31661192 0.23636638 119
2.69541 -0.31854579 -0.42988196 4
2.6849551 -0.31778541 0.33197212 116
3.4063923 -0.40377593 -0.42118049 3
2.6658189 -0.31646407 0.42518893 109
2.6947136 -0.31989419 -0.23741224 111
2.6552529 -0.31567976 0.51976377 112
2.7190366 -0.32374418 -0.1435052 111
2.6703441 -0.31841925 0.62086493 97
2.70437 -0.32295531 -0.047540355 118
6.2762918 -0.75062454 1.6937119 17
1.6724092 -0.20208758 -0.45138043 7
2.6899626 -0.32552126 0.047296021 123
1.9094356 -0.23140526 -0.44405338 6
2.698468 -0.32750627 0.14245848 123
2.2257042 -0.27012813 -0.43580776 75
2.6819425 -0.32597563 0.23636638 120
2.6903598 -0.32747522 -0.42925623 4
2.6798882 -0.32667524 0.33148462 114
3.4187558 -0.41734788 -0.42288667 3
2.6803842 -0.32768527 0.42769188 114
2.6935804 -0.32929856 -0.23741224 111
2.654135 -0.3249464 0.51976377 108
2.7040133 -0.33153203 -0.14277251 113
2.6692164 -0.32773855 0.62086493 97
2.7191043 -0.33434576 -0.047819596 121
6.2755508 -0.7727645 1.6942296 15
1.6755277 -0.20840102 -0.4524157 7
2.6888101 -0.33490899 0.047296021 123
1.9124837 -0.23855142 -0.44495317 5
2.6893809 -0.33593348 0.14203981 125
2.2286439 -0.27838233 -0.436571 76
2.6926503 -0.33681914 0.23741224 121
2.6872404 -0.33661878 -0.42894334 4
2.6747925 -0.33553365 0.33099717 114
3.3995514 -0.42705217 -0.42069301 2
2.6733441 -0.33629993 0.42675328 113
2.7042751 -0.34019098 -0.2384581 116
2.658828 -0.3349452 0.52090853 113
2.7028394 -0.34096879 -0.14277251 119
2.6564558 -0.33558837 0.61816549 97
2.6941137 -0.34082344 -0.047400735 120
6.2785649 -0.79539388 1.6957825 16
1.6709577 -0.2137582 -0.45138043 7
2.6995256 -0.34581718 0.04750545 123
1.919371 -0.24621759 -0.44675279 5
2.6822491 -0.34455574 0.14172579 124
2.2081859 -0.28365865 -0.43275481 71
2.6855297 -0.34545362 0.2368893 120
2.7056408 -0.34852064 -0.43207204 4
2.6716363 -0.34461445 0.33075345 114
3.3862274 -0.43739045 -0.41923055 3
2.6623588 -0.34436259 0.42518893 114
2.7030711 -0.34962854 -0.2384581 113
2.6673777 -0.34548512 0.52281672 109
2.7016327 -0.35040137 -0.14277251 119
2.6514032 -0.3443571 0.6172657 100
2.6790268 -0.34842029 -0.047156405 121
6.2757502 -0.81730539 1.6957825 10
1.6567937 -0.21782686 -0.44775698 7
2.6943371 -0.35471621 0.047435641 123
1.922364 -0.25342533 -0.44765261 5
2.6968706 -0.35600752 0.14256316 127
2.2266462 -0.29393429 -0.436571 76
2.6764066 -0.35378137 0.23619205 121
2.7004912 -0.35744458 -0.43144631 4
2.6841919 -0.35576382 0.3324596 116
3.38468 -0.44920796 -0.41923055 3
2.6591823 -0.35339361 0.42487606 113
2.6820841 -0.35643718 -0.23671499 117
2.6622632 -0.35427591 0.52205342 112
2.7142513 -0.36167631 -0.1435052 119
2.6521163 -0.35386789 0.6177156 100
2.6797764 -0.35803455 -0.047191311 122
6.2422228 -0.83510816 1.6875002 10
1.6636811 -0.22464284 -0.44982749 7
2.6911006 -0.36385107 0.047400735 123
1.9214677 -0.26013413 -0.44765261 5
2.6916533 -0.36488256 0.1423538 124
2.2236609 -0.30144116 -0.43618938 75
2.6731813 -0.36285368 0.23601775 121
2.6874826 -0.36527258 -0.42956907 4
2.675066 -0.36406049 0.33148462 117
3.4027605 -0.46370026 -0.42166796 2
2.6638041 -0.36347497 0.42581466 114
2.6808236 -0.36579725 -0.23671499 113
2.6473939 -0.36170644 0.51938212 105
2.707036 -0.37033644 -0.14319119 113
2.6566572 -0.36391678 0.61906528 100
2.6844535 -0.36820173 -0.047296021 122
6.2545805 -0.85899526 1.6916413 7
1.6628869 -0.2304488 -0.44982749 7
2.6779299 -0.37159348 0.047191311 123
1.912827 -0.26576698 -0.44585299 5
2.6962974 -0.37510151 0.14266783 123
2.2342622 -0.31082445 -0.4384791 78
2.6738718 -0.37245744 0.23619205 121
2.6881478 -0.37492433 -0.42988196 4
2.661983 -0.37174869 0.33002222 117
3.3893254 -0.47392592 -0.42020553 3
2.6723008 -0.37414062 0.42737901 117
2.6874232 -0.37625787 -0.23741224 117
2.6383383 -0.3698552 0.51785564 105
2.6938598 -0.3781178 -0.14256316 119
2.6592302 -0.37373045 0.61996508 100
2.6910729 -0.37868464 -0.047435641 122
2.6360548 -0.37141168 0.71330529 19
1.6697228 -0.23733944 -0.45189807 7
2.6865151 -0.38234767 0.047365833 126
1.9080292 -0.27189249 -0.44495317 4
2.6831086 -0.38281846 0.14203981 124
2.23122 -0.31834427 -0.43809745 78
2.686362 -0.38376111 0.23741224 122
2.6868227 -0.38430542 -0.42988196 4
2.6645992 -0.3816013 0.33050969 119
3.3955102 -0.48688096 -0.42118049 3
2.6670675 -0.38290495 0.42675328 117
2.6939819 -0.38676897 -0.23810948 114
2.640918 -0.37962109 0.51861888 107
2.6925232 -0.38751882 -0.14256316 115
2.6482654 -0.38162088 0.6177156 100
2.6917138 -0.38836145 -0.047470544 123
2.6481264 -0.38254446 0.71692878 27
1.6707957 -0.24344495 -0.4524157 7
2.693079 -0.39287773 0.04750545 126
1.9224948 -0.28080434 -0.4485524 4
2.6698985 -0.39044785 0.14141177 124
2.2106695 -0.3232899 -0.43428129 73
2.6810629 -0.39255854 0.2370636 122
2.6893737 -0.39425486 -0.43050769 4
2.6632509 -0.39090014 0.33050969 116
3.3820064 -0.49699891 -0.41971806 3
2.6481259 -0.38962451 0.42393744 115
2.6926155 -0.39617035 -0.23810948 113
2.6609418 -0.39198464 0.52281672 108
2.6911542 -0.39691514 -0.14256316 112
2.6449895 -0.39057806 0.6172657 100
2.6804507 -0.39629257 -0.047296021 123
2.6467748 -0.39178583 0.71692878 38
1.6622932 -0.24813478 -0.45034516 7
2.6798248 -0.40050247 0.047296021 127
1.9157209 -0.28664821 -0.44720268 8
2.6804407 -0.4010728 0.14203981 123
2.2095275 -0.33100462 -0.43428129 73
2.6757357 -0.40132377 0.23671499 123
2.6997018 -0.40540019 -0.43238491 4
2.6677592 -0.40107965 0.33124092 120
3.3920283 -0.51057404 -0.42118049 3
2.6507261 -0.39899191 0.4245632 118
2.6754549 -0.40319169 -0.23671499 116
2.6479096 -0.39951327 0.52052695 108
2.7035761 -0.40839481 -0.14329587 119
2.64361 -0.39980841 0.6172657 100
2.6791217 -0.40517908 -0.047296021 125
2.6263604 -0.39766857 0.71175241 47
1.6575974 -0.25335196 -0.44930989 7
2.6705751 -0.40817839 0.047156405 127
1.9282441 -0.29506278 -0.45035201 8
2.6829727 -0.41103172 0.14224915 125
2.216121 -0.33990589 -0.43580776 75
2.6664414 -0.40945181 0.23601775 123
2.6827228 -0.41195196 -0.42988196 4
2.6605284 -0.40901914 0.33050969 118
3.3942409 -0.52242362 -0.42166796 3
2.6434603 -0.40733975 0.4236246 117
2.6740313 -0.41252831 -0.23671499 108
2.631048 -0.40589717 0.517474 110
2.6962855 -0.41644335 -0.14298184 120
2.6518989 -0.41006172 0.61951524 100
2.687572 -0.41605812 -0.047470544 124
2.6268654 -0.40712968 0.71227002 58
1.658657 -0.25914559 -0.44982749 7
2.6691341 -0.41749796 0.047156405 127
1.9021738 -0.29787245 -0.44450328 7
2.685468 -0.42101321 0.14245848 126
2.2188609 -0.34786105 -0.436571 76
2.6729419 -0.4195275 0.23671499 124
2.6812687 -0.42131388 -0.42988196 4
2.6532013 -0.41737816 0.32977846 119
3.4041619 -0.53612149 -0.42313039 2
2.6615348 -0.4196412 0.42675328 118
2.6785529 -0.42232445 -0.23723793 107
2.6296151 -0.41507885 0.517474 109
2.6829786 -0.42398208 -0.1423538 120
2.6427519 -0.418098 0.6177156 100
2.6940036 -0.42668825 -0.047610167 125
2.625428 -0.41629672 0.71227002 60
1.6634653 -0.26584843 -0.45138043 7
2.6755588 -0.42807615 0.047296021 128
1.9030466 -0.30481863 -0.44495317 6
2.6701775 -0.42817113 0.14172579 127
2.2195716 -0.3559151 -0.43695265 76
2.6793303 -0.4301185 0.23741224 123
2.687583 -0.43192449 -0.43113342 4
2.6478086 -0.42600635 0.32929099 120
3.378752 -0.54421294 -0.42020553 3
2.6444523 -0.42641345 0.42425033 120
2.6809964 -0.43230608 -0.23758654 105
2.6320264 -0.42488113 0.51823723 109
2.6775391 -0.43270761 -0.14214447 122
2.6335816 -0.42607549 0.61591601 100
2.666836 -0.43193319 -0.047156405 126
2.6334937 -0.42700464 0.71485823 29
1.6682469 -0.27258798 -0.45293337 7
2.677995 -0.43805861 0.047365833 129
1.9077405 -0.31240448 -0.44630289 6
2.6607828 -0.43619674 0.14130709 127
2.2163782 -0.36334303 -0.436571 76
2.6758466 -0.4391458 0.23723793 124
2.6977544 -0.44322479 -0.43301064 4
2.6521819 -0.43621287 0.33002222 121
3.3768318 -0.55600369 -0.42020553 3
2.6390495 -0.43499914 0.4236246 118
2.673573 -0.44068971 -0.2370636 108
2.6382756 -0.43534455 0.51976377 109
2.6838946 -0.44335344 -0.14256316 122
2.6301556 -0.43494782 0.61546606 100
2.6771491 -0.44319919 -0.047365833 124
2.6167405 -0.43366775 0.71071708 26
1.6482304 -0.27522776 -0.44775698 7
2.6725051 -0.44674447 0.047296021 127
1.9143264 -0.32034835 -0.4481025 7
2.6671233 -0.44680196 0.14172579 127
2.2054148 -0.36945561 -0.43466291 73
2.6428578 -0.44321114 0.23444894 126
2.6845021 -0.45067668 -0.43113342 4
2.6623888 -0.44744205 0.33148462 121
3.3827004 -0.56910503 -0.42118049 3
2.6336195 -0.44355237 0.42299888 118
2.6621952 -0.44836506 -0.23619205 105
2.6406116 -0.44520399 0.52052695 110
2.6823306 -0.45271924 -0.14256316 120
2.6363075 -0.4454248 0.6172657 100
2.6598125 -0.44987357 -0.047086593 123
2.5923538 -0.4389292 0.70450544 30
1.6491641 -0.2813043 -0.44827461 7
2.6610734 -0.45438758 0.047121495 129
1.9074337 -0.32604364 -0.44675279 6
2.6694846 -0.45678291 0.14193512 127
2.2118523 -0.37847617 -0.43618938 75
2.6354034 -0.45142457 0.233926 125
2.6770718 -0.45904306 -0.43019485 5
2.6588542 -0.45639697 0.33124092 119
3.3846064 -0.58158171 -0.42166796 2
2.6340017 -0.45307761 0.42331171 115
2.6606138 -0.45765519 -0.23619205 107
2.6235633 -0.4517535 0.517474 110
2.6846704 -0.46275806 -0.14277251 122
2.6404977 -0.45561856 0.61861545 100
2.6700487 -0.4611975 -0.047296021 123
2.5869987 -0.44731721 0.70347023 33
1.6557848 -0.28838515 -0.45034516 7
2.6555312 -0.4629868 0.047051687 130
1.9024447 -0.33202973 -0.44585299 6
2.6796787 -0.46816078 0.14256316 127
2.2221215 -0.38822195 -0.4384791 98
2.6593254 -0.46508321 0.23619205 124
2.6754529 -0.46838498 -0.43019485 6
2.637692 -0.46224871 0.32880351 119
3.3942869 -0.5954507 -0.42313039 3
2.6538057 -0.4660275 0.42675328 119
2.664887 -0.46797347 -0.23671499 110
2.6142359 -0.45954904 0.51594758 110
2.6712365 -0.47004968 -0.14214447 120
2.6350527 -0.46415666 0.6177156 100
2.6763 -0.47190392 -0.047435641 123
2.6025434 -0.45936695 0.70812893 28
1.6623762 -0.29551566 -0.4524157 7
2.6578364 -0.47295418 0.047121495 130
1.8955185 -0.33764324 -0.44450328 7
2.6545157 -0.47284123 0.14130709 127
2.2149546 -0.39494237 -0.43733424 100
2.6557245 -0.47401309 0.23601775 127
2.6854694 -0.4798058 -0.43207204 5
2.6380162 -0.47180262 0.32904723 121
3.3843718 -0.60589594 -0.42215544 3
2.6366901 -0.47204033 0.42425033 118
2.6710823 -0.47867864 -0.23741224 111
2.6203456 -0.47005826 0.517474 112
2.6617162 -0.47795919 -0.14172579 120
2.6314986 -0.47300714 0.6172657 100
2.6766887 -0.48112997 -0.047470544 124
2.6105123 -0.46970528 0.71071708 27
1.6651362 -0.30200616 -0.45345098 7
2.6601889 -0.48247907 0.047191311 130
1.8982232 -0.34462342 -0.4454031 7
2.652849 -0.48210439 0.14130709 127
2.2019732 -0.40056336 -0.43504456 100
2.6501336 -0.48256657 0.23566914 127
2.6838634 -0.4887085 -0.43207204 5
2.648155 -0.48268384 0.33050969 123
3.3823438 -0.61711568 -0.42215544 2
2.6233668 -0.47911182 0.42237309 120
2.6654749 -0.48728287 -0.2370636 116
2.6284285 -0.48051029 0.51938212 115
2.6738691 -0.48929971 -0.14245848 122
2.6241648 -0.48067757 0.61591601 100
2.6631913 -0.48830655 -0.047261119 124
2.6202576 -0.48090723 0.71382296 64
1.6432291 -0.30366462 -0.44775698 7
2.656522 -0.49139816 0.047156405 131
1.9123379 -0.35408565 -0.4490023 7
2.6590912 -0.49235341 0.14172579 127
2.2102847 -0.40965205 -0.43695265 100
2.6465597 -0.49098864 0.23549481 129
2.6821413 -0.49807388 -0.43207204 5
2.6542606 -0.49337572 0.33148462 123
3.3840721 -0.62964469 -0.42264292 3
2.6178794 -0.48708594 0.42174736 117
2.6560097 -0.49466008 -0.23636638 113
2.6267352 -0.48968229 0.51938212 113
2.6799979 -0.50009573 -0.14287716 122
2.6243868 -0.4901925 0.61636591 100
2.6674545 -0.49823684 -0.047365833 125
2.6129515 -0.48852858 0.71227002 106
1.6459559 -0.31011412 -0.44879225 7
2.6509478 -0.49946433 0.047086593 131
1.9073232 -0.35970294 -0.4481025 7
2.6632442 -0.50274378 0.14203981 128
2.2165575 -0.41882291 -0.4384791 98
2.635041 -0.49837252 0.23462325 129
2.6824155 -0.50733262 -0.43238491 4
2.6409073 -0.49995938 0.33002222 121
3.3741643 -0.63938487 -0.42166796 2
2.6336303 -0.4995341 0.4245632 118
2.6483946 -0.5028134 -0.23584343 107
2.6096666 -0.49546066 0.51632917 114
2.6724389 -0.50786161 -0.14256316 121
2.6284897 -0.49998501 0.6177156 100
2.6676633 -0.50791895 -0.047400735 124
2.5998442 -0.49547657 0.70916426 104
1.6468157 -0.31593457 -0.44930989 7
2.6452603 -0.50796062 0.047016785 131
1.8907465 -0.36341596 -0.44450328 7
2.661473 -0.51203716 0.14203981 129
2.2151566 -0.42617095 -0.4384791 98
2.6333737 -0.50710785 0.23462325 127
2.6728697 -0.5151974 -0.43113342 4
2.6313493 -0.50767064 0.32904723 121
3.3836062 -0.65341735 -0.42313039 2
2.6299312 -0.50834924 0.42425033 119
2.6564038 -0.51394725 -0.23671499 116
2.6040661 -0.50382119 0.51556593 117
2.6588848 -0.51490873 -0.14193512 122
2.6248155 -0.50878632 0.6172657 100
2.6698005 -0.51798952 -0.047470544 125
2.6037881 -0.5056535 0.71071708 108
1.6570221 -0.32419389 -0.4524157 7
2.6356211 -0.51565534 0.046877164 129
1.8952036 -0.3711372 -0.44585299 6
2.6439898 -0.518251 0.14120242 132
2.2097266 -0.43353108 -0.43771586 96
2.6471381 -0.5198276 0.23601775 127
2.6709635 -0.52499044 -0.43113342 4
2.6217699 -0.51532125 0.32807231 121
3.3696184 -0.66292524 -0.42166796 3
2.6242642 -0.51676303 0.4236246 118
2.6585031 -0.52398723 -0.2370636 114
2.6060543 -0.51412219 0.51632917 115
2.65502 -0.52426362 -0.14183044 123
2.6171978 -0.51726979 0.61591601 100
2.6679761 -0.52730572 -0.047470544 125
2.6057975 -0.51548916 0.71175241 110
1.6520913 -0.32922089 -0.45138043 6
2.6533244 -0.52922338 0.047226213 128
1.8900084 -0.37731794 -0.44495317 6
2.6382475 -0.52669501 0.14099309 132
2.2120502 -0.44201124 -0.4384791 98
2.6316316 -0.52632952 0.23479758 126
2.6807363 -0.53663713 -0.43301064 4
2.6334882 -0.52765697 0.32977846 122
3.3671658 -0.67527109 -0.42166796 3
2.6108236 -0.52358979 0.42174736 118
2.6566577 -0.53326392 -0.2370636 117
2.6157928 -0.52553612 0.51861888 117
2.6590481 -0.53470945 -0.14214447 120
2.6096451 -0.52524883 0.61456627 100
2.6347532 -0.53030241 -0.04691207 128
2.6039822 -0.52458197 0.71175241 109
1.6395725 -0.33268082 -0.44827461 7
2.6476352 -0.53722388 0.047156405 128
1.9059347 -0.38707399 -0.4490023 7
2.6442218 -0.53749239 0.14141177 132
2.2027986 -0.44816443 -0.43695265 95
2.6239212 -0.5343197 0.23427464 127
2.678942 -0.54552382 -0.43301064 4
2.6433947 -0.53876567 0.33124092 122
3.3804681 -0.6896075 -0.42361787 2
2.6089799 -0.53270006 0.42174736 120
2.637212 -0.53894395 -0.23549481 119
2.6063414 -0.53263521 0.51709241 115
2.6631305 -0.54472488 -0.14245848 122
2.6117072 -0.5346815 0.61546606 100
2.6270089 -0.53829193 -0.046807356 128
2.5945652 -0.53211588 0.70968187 108
1.6346761 -0.33733514 -0.44723931 7
2.6418271 -0.54565364 0.047086593 129
1.9007552 -0.39293557 -0.4481025 7
2.6521087 -0.54874259 0.14193512 133
2.2051451 -0.45626226 -0.43771586 100
2.6221352 -0.54301804 0.23427464 128
2.6692846 -0.55326813 -0.43175918 4
2.6376107 -0.5471831 0.33075345 122
3.3858151 -0.70301765 -0.42459282 3
2.6109726 -0.54260767 0.42237309 121
2.6412623 -0.54890245 -0.23601775 121
2.5967777 -0.54013056 0.51556593 117
2.6651235 -0.55483174 -0.14266783 122
2.6155481 -0.54498732 0.61681581 100
2.629029 -0.54827505 -0.046877164 128
2.5851278 -0.53959048 0.70761132 109
1.6429417 -0.34502438 -0.44982749 7
2.6340353 -0.55363798 0.046981879 129
1.8822089 -0.3959575 -0.44405338 6
2.6521316 -0.55840832 0.14203981 133
2.2035391 -0.46395686 -0.43771586 96
2.6260724 -0.55340022 0.23479758 128
2.6615386 -0.56135929 -0.43082058 5
2.620146 -0.55310667 0.32880351 122
3.3755715 -0.71319062 -0.42361787 3
2.6206586 -0.55417049 0.42425033 121
2.6393301 -0.55811882 -0.23601775 121
2.5948765 -0.54919171 0.51556593 117
2.6475394 -0.56082028 -0.14183044 122
2.6098173 -0.55330569 0.61591601 100
2.6407921 -0.56035429 -0.047121495 128
2.5870078 -0.54941362 0.7086466 109
1.6530627 -0.35317901 -0.45293337 7
2.6379535 -0.56408364 0.047086593 129
1.8789098 -0.4021174 -0.44360349 6
2.6286836 -0.56306106 0.14088841 133
2.209585 -0.47329065 -0.43924233 99
2.6358132 -0.56506938 0.23584343 128
2.6672883 -0.57230401 -0.43207204 5
2.6162586 -0.56183255 0.32855979 121
3.36918 -0.72413498 -0.42313039 2
2.6109836 -0.56165326 0.42299888 118
2.6490526 -0.56984234 -0.2370636 121
2.5967822 -0.55907261 0.51632917 117
2.6475182 -0.57047927 -0.14193512 122
2.60025 -0.56076896 0.61411637 100
2.6310012 -0.56788135 -0.046981879 128
2.590739 -0.55966437 0.71019953 106
1.6518198 -0.3589471 -0.45293337 7
2.6418304 -0.57456326 0.047191311 132
1.8908237 -0.41157487 -0.44675279 6
2.6286535 -0.5726586 0.14099309 134
2.2060013 -0.48058277 -0.43886071 100
2.6318784 -0.57384223 0.23566914 128
2.6729944 -0.5832957 -0.43332353 5
2.6181602 -0.5718087 0.32904723 121
3.354996 -0.73334783 -0.42166796 3
2.6051474 -0.56991947 0.42237309 121
2.6431549 -0.57823426 -0.23671499 120
2.6024864 -0.56981331 0.51785564 115
2.6513636 -0.58099985 -0.14224915 123
2.5925663 -0.56858981 0.61276668 100
2.6250968 -0.57620442 -0.04691207 128
2.5925434 -0.56953329 0.71123475 103
1.635529 -0.3610909 -0.44879225 7
2.6360049 -0.58245784 0.047121495 132
1.893254 -0.41868439 -0.44765261 6
2.6345403 -0.58309877 0.14141177 135
2.1947267 -0.48615727 -0.43695265 95
2.614399 -0.57911956 0.23427464 128
2.6652596 -0.59087384 -0.43238491 4
2.6259394 -0.58263761 0.33026594 122
3.360297 -0.74619067 -0.42264292 2
2.5955298 -0.57684112 0.42112163 121
2.6255615 -0.58399642 -0.23532049 121
2.5928159 -0.57718778 0.51632917 117
2.653218 -0.59112 -0.14245848 123
2.5963726 -0.57845515 0.61411637 100
2.6192679 -0.58403593 -0.046842258 129
2.5830989 -0.57644427 0.70916426 104
1.6417341 -0.36877659 -0.4508628 7
2.6299508 -0.5912382 0.047051687 132
1.893608 -0.42604846 -0.4481025 6
2.6362822 -0.59362841 0.14162111 135
2.194845 -0.49462968 -0.43733424 77
2.6142023 -0.58913589 0.23444894 128
2.6650028 -0.60107309 -0.43269777 5
2.6199136 -0.59138405 0.32977846 122
3.3652847 -0.7602514 -0.42361787 2
2.6011052 -0.5880928 0.42237309 121
2.6292334 -0.59493476 -0.23584343 120
