# .PCD v0.7 - Point Cloud Data file format
VERSION 0.7
FIELDS x y z intensity
SIZE 4 4 4 4
TYPE F F F F
COUNT 1 1 1 1
WIDTH 1349
HEIGHT 1
VIEWPOINT 0 0 0 1 0 0 0
POINTS 1349
DATA ascii
-7.2876444 9.028451 3.1089346 33
-0.82143545 1.0202 -0.35095865 8
-0.86389083 1.0733119 0.024049416 36
-0.74152237 0.92160863 -0.2730906 22
-0.79236531 0.98515129 0.066257328 36
-0.94498551 1.1749047 -0.29308262 31
-0.76779008 0.95493793 0.10720156 14
-0.91080755 1.1332207 -0.23027156 18
-0.749726 0.93313754 0.14697444 6
-0.89127147 1.1097071 -0.17476064 40
-0.74573243 0.9288308 0.18866 5
-0.86672318 1.0799142 -0.12114649 37
-0.75942767 0.94622689 0.23583993 1
-0.85990351 1.0718004 -0.07201428 34
-7.4031768 9.2307625 2.7318058 1
-0.82180178 1.0250424 -0.022932461 39
-7.2754164 9.0779524 3.1172168 33
-0.97447473 1.2193937 -0.4182516 8
-0.84266126 1.054451 0.023560748 22
-0.78452086 0.98204833 -0.29018685 22
-0.78393608 0.98166859 0.065838635 45
-0.93944776 1.1768262 -0.29270101 32
-0.77795523 0.97487587 0.10911899 23
-0.91157502 1.1427284 -0.23152302 19
-0.74275011 0.93109363 0.14624323 7
-0.88120395 1.1050515 -0.17354195 37
-0.73756021 0.92524993 0.18740851 6
-0.87660623 1.1000733 -0.12306391 46
-0.76329356 0.95821774 0.23812963 1
-0.85845745 1.0780699 -0.072223626 27
-7.376574 9.266983 2.7345049 1
-0.82195473 1.0325987 -0.023037177 40
-7.2653337 9.1305046 3.1265342 31
-0.98462164 1.2409478 -0.42446327 8
-0.82760715 1.0434318 0.023246605 25
-0.92499191 1.1666307 -0.34372523 28
-0.77802318 0.98126888 0.065629296 45
-0.93411499 1.1785595 -0.29231939 39
-0.76464891 0.9650926 0.1077245 29
-0.91984558 1.1613885 -0.23465173 23
-0.74672604 0.9431476 0.14770564 7
-0.88207591 1.1144999 -0.17451692 35
-0.73555207 0.92936754 0.18772139 7
-0.86534393 1.0937513 -0.12201804 40
-0.75994432 0.96087611 0.23812963 1
-0.86335999 1.0920269 -0.072956331 20
-7.3611002 9.3140793 2.7408037 1
-0.80842602 1.0229102 -0.022757938 38
-7.2465887 9.1724863 3.1322281 31
-0.9766978 1.2398244 -0.42291033 9
-0.82166785 1.0430287 0.023176797 26
-0.95246464 1.2094982 -0.35542265 30
-0.77582878 0.9855479 0.065733969 64
-0.95063519 1.2080412 -0.29880691 41
-0.75511605 0.95992631 0.10685294 30
-0.93552995 1.1892738 -0.23965763 24
-0.74604869 0.94873935 0.14819314 9
-0.89554983 1.1392682 -0.17792925 29
-0.72620076 0.92416358 0.18615703 6
-0.85905933 1.0936314 -0.12166941 34
-0.74947751 0.95412743 0.23583993 2
-0.87823582 1.1184471 -0.074526407 19
-7.3518281 9.3660326 2.7489018 2
-0.80361634 1.0241526 -0.022723034 37
-7.2216821 9.2068443 3.135334 29
-0.97377104 1.2445781 -0.42342797 8
-0.81063002 1.03644 0.022967368 28
-0.95183814 1.2174211 -0.35677236 32
-0.77361345 0.98982388 0.065838635 89
-0.95750439 1.2251089 -0.30224147 46
-0.74947554 0.95928484 0.10650431 25
-0.93137312 1.1925321 -0.23965763 24
-0.74273217 0.95133805 0.14819314 22
-0.9013384 1.1549063 -0.17987917 20
-0.72540063 0.92980766 0.18678276 6
-0.85787886 1.0996163 -0.12201804 33
-0.7388981 0.94744927 0.23355024 2
-0.86695874 1.1120547 -0.073898375 13
-7.3286753 9.4039335 2.7525012 2
-0.79880732 1.0253743 -0.022688128 34
-7.20612 9.253334 3.142581 28
-0.97653168 1.2571234 -0.42653382 7
-0.80332804 1.0345248 0.022862652 32
-0.93682861 1.2068814 -0.35272324 34
-0.76403183 0.9846285 0.065315276 71
-0.96646154 1.2455052 -0.30643925 47
-0.7510072 0.96819216 0.10720156 18
-0.92841542 1.1973367 -0.23997049 21
-0.7333259 0.94608021 0.14697444 28
-0.90216523 1.164322 -0.18085413 22
-0.73424721 0.94795096 0.18991147 6
-0.86379588 1.115205 -0.12341253 30
-0.73077834 0.94381356 0.23202376 4
-0.81295013 1.0503176 -0.069606826 13
-7.3125024 9.4510345 2.7587998 2
-0.79766971 1.0313201 -0.022757938 30
-7.1938663 9.3044119 3.1513808 26
-0.983935 1.2758223 -0.43171018 7
-0.80581635 1.0452414 0.023037177 32
-0.93855751 1.2178622 -0.35497275 36
-0.75449544 0.9793787 0.064791918 61
-0.95731515 1.2426504 -0.30491278 40
-0.75005406 0.97396511 0.10755019 16
-0.92543495 1.2021357 -0.24028336 20
-0.72759789 0.94548768 0.14648695 11
-0.89204329 1.1595973 -0.17963544 26
-0.72852504 0.94737649 0.18928573 4
-0.86941648 1.1310005 -0.12480702 23
-0.73465866 0.95569772 0.23431346 6
-0.78615642 1.0230591 -0.067618065 19
-7.2865877 9.4857759 2.7614992 2
-0.79893672 1.0404422 -0.022897556 29
-7.180162 9.3539867 3.159663 28
-0.9874717 1.2901584 -0.43533364 7
-0.80459392 1.0512236 0.023106987 32
-0.94022173 1.2288692 -0.35722226 33
-0.75713915 0.98993844 0.065315276 63
-0.94798464 1.239912 -0.3033863 42
-0.75978786 0.99412042 0.10946761 19
-0.9270193 1.2133678 -0.24184772 21
-0.73272943 0.95906347 0.14819314 7
-0.89040011 1.1658591 -0.1801229 24
-0.71802175 0.94049305 0.18740851 5
-0.87513345 1.1466991 -0.12620151 21
-0.72876948 0.95526201 0.23355024 7
-0.77997887 1.0227576 -0.067408718 24
-7.2730398 9.5403137 2.7695973 2
-0.78923851 1.0352732 -0.022723034 27
-7.1603494 9.3958941 3.1653571 31
-0.97711843 1.2859063 -0.43274546 8
-0.80073535 1.0541657 0.023106987 33
-0.95338815 1.2555877 -0.36397079 25
-0.7571286 0.99747926 0.065629296 66
-0.94958597 1.2510322 -0.30529439 35
-0.74426973 0.98089468 0.1077245 21
-0.91919655 1.211875 -0.2409091 20
-0.73160768 0.96490628 0.14868061 5
-0.89571345 1.1817712 -0.18207282 26
-0.71456963 0.94311857 0.18740851 6
-0.88195407 1.1640395 -0.12777032 22
-0.72661567 0.95936525 0.23393184 6
-0.77881545 1.0286586 -0.067618065 29
-7.1938252 9.505043 2.7520511 42
-0.77819937 1.0285908 -0.022513606 22
-7.1363487 9.4359436 3.1700156 31
-0.97960407 1.298563 -0.43585131 8
-0.79343891 1.0521643 0.023002272 37
-0.97715318 1.296255 -0.37476847 18
-0.75965184 1.0080917 0.066152655 59
-0.94993907 1.2606113 -0.30682087 27
-0.73604631 0.97712088 0.10702725 23
-0.90783137 1.2056079 -0.2390319 20
-0.73420447 0.975384 0.1498993 5
-0.89516383 1.1896491 -0.18280403 25
-0.71364814 0.94876415 0.18803425 7
-0.87788576 1.1671108 -0.12777032 24
-0.72208279 0.96032643 0.23355024 4
-0.76801997 1.0217915 -0.066990033 32
-7.1805005 9.5565844 2.7596996 48
-0.77940816 1.0376965 -0.022653224 22
-7.120769 9.4839687 3.1777804 29
-0.97853899 1.3066137 -0.43740419 6
-0.78976154 1.0549273 0.023002272 38
-1.0006454 1.3371028 -0.38556612 17
-0.76689571 1.0251309 0.067094706 61
-0.94906068 1.2686359 -0.30796573 22
-0.73740405 0.9860664 0.1077245 29
-0.90479988 1.2103518 -0.23934476 22
-0.72128886 0.96522003 0.1479494 5
-0.89456987 1.1975373 -0.18353525 24
-0.72569668 0.97182584 0.19210154 8
-0.88572693 1.1861324 -0.12951343 33
-0.71872592 0.96284139 0.23355024 5
-0.75489318 1.0116601 -0.066152655 33
-0.77697623 1.042014 -0.022688128 20
-7.1037807 9.5304527 3.1850274 29
-1.0027882 1.3487792 -0.45034516 6
-0.79084539 1.0640979 0.023141891 40
-1.1238092 1.5126586 -0.43505535 6
-0.75378633 1.0149739 0.066257328 61
-0.94228578 1.2687886 -0.30720252 22
-0.73633254 0.99183404 0.10807312 32
-0.90645587 1.221434 -0.2409091 21
-0.71791536 0.96773183 0.1479494 6
-0.88801908 1.197464 -0.18304777 24
-0.71524191 0.96483165 0.19022433 8
-0.89937925 1.2132252 -0.1321281 36
-0.72120523 0.97323096 0.23545831 6
-0.75135696 1.0142891 -0.066152655 32
-7.1715984 9.684783 2.7821946 12
-0.77452421 1.046327 -0.022723034 16
-7.0911565 9.5831432 3.194345 30
-1.0111715 1.3690161 -0.45603919 6
-0.79937649 1.0826641 0.023490939 37
-1.1572407 1.5679228 -0.44990209 5
-0.7553367 1.0237659 0.066676013 57
-0.92758554 1.257686 -0.30376795 20
-0.72966534 0.98933184 0.10755019 33
-0.91081989 1.2354052 -0.24309918 21
-0.72311527 0.98116845 0.14965557 8
-0.89014012 1.2082386 -0.18426646 22
-0.71103603 0.96548313 0.18991147 8
-0.91188753 1.238664 -0.13456847 26
-0.7226283 0.9819423 0.23698479 6
-0.74917305 1.0183839 -0.066257328 31
-7.1515317 9.7213917 2.7862437 9
-0.77360237 1.0519773 -0.022792844 16
-7.0758872 9.6256113 3.2010741 26
-0.99929434 1.3633645 -0.45293337 6
-0.81904018 1.1178479 0.024189034 37
-1.1526374 1.5737263 -0.45035201 5
-0.74921989 1.0233043 0.066466674 49
-0.92528832 1.2642461 -0.30453119 20
-0.72250396 0.98717642 0.10702725 31
-0.90861827 1.241924 -0.24372493 20
-0.72185814 0.98701674 0.15014306 9
-0.89039171 1.2179033 -0.18524142 20
-0.70632678 0.966488 0.18959859 7
-0.89793938 1.2291274 -0.13317397 21
-0.72018254 0.98616964 0.23736641 5
-0.74543512 1.0211231 -0.066257328 31
-7.1307874 9.7680006 2.7920926 1
-0.80156863 1.0984191 -0.023735272 27
-7.0530853 9.6686468 3.206768 26
-0.99315459 1.3654552 -0.4524157 6
-0.82904935 1.1402509 0.024607893 43
-1.1457162 1.5763637 -0.44990209 6
-0.76208299 1.0485319 0.067932077 42
-0.92548519 1.2738217 -0.30605766 20
-0.72122276 0.99304193 0.10737588 31
-0.89941835 1.2388518 -0.24247345 22
-0.71473753 0.98483622 0.14941183 9
-0.89896029 1.2386765 -0.18792254 19
-0.70874888 0.97694206 0.19116293 6
-0.88428611 1.2193508 -0.13177948 18
-0.71327853 0.98390907 0.23622155 4
-0.73835051 1.018867 -0.065943316 31
-7.1286674 9.8370142 2.8046896 1
-0.81063372 1.1190243 -0.024119226 38
-7.0374198 9.7182455 3.2150505 29
-0.98862129 1.3687409 -0.4524157 7
-0.81706917 1.1316451 0.024363559 38
-1.1347797 1.5722541 -0.44765261 6
-0.75509483 1.0461949 0.067618065 42
-0.92700034 1.2848437 -0.30796573 22
-0.72258735 1.0018921 0.10807312 39
-0.90108109 1.2498395 -0.24403779 24
-0.71146798 0.98720086 0.14941183 15
-0.90761501 1.2593656 -0.19060367 25
-0.71243316 0.98890394 0.19304016 6
-0.88140172 1.2238936 -0.13195379 18
-0.71574718 0.99423552 0.23812963 2
-0.72563457 1.0083411 -0.065105937 31
-7.0379534 9.779932 2.7817447 6
-0.81509298 1.1330693 -0.024363559 47
-7.023201 9.7666216 3.2233324 29
-0.98632848 1.3751518 -0.45345098 7
-0.81214702 1.1327231 0.024328655 57
-1.1272895 1.5728402 -0.44675279 6
-0.74562234 1.0407063 0.067094706 38
-0.92022324 1.2848799 -0.30720252 24
-0.73318243 1.0237205 0.11016486 51
-0.9015314 1.2592453 -0.24528927 25
-0.71050113 0.99278313 0.1498993 17
-0.90898871 1.2705983 -0.19182236 32
-0.71127516 0.99459803 0.19366589 5
-0.87712443 1.2269627 -0.13195379 15
-0.71227252 0.99672771 0.23812963 2
-0.71978861 1.0076174 -0.064896591 32
-7.01057 9.8139524 2.7844441 6
-0.81461877 1.14079 -0.024468275 76
-7.0115161 9.8225231 3.2336853 28
-0.98464197 1.3834797 -0.45500392 6
-0.81610489 1.1470978 0.024572989 80
-1.1249051 1.581726 -0.4481025 6
-0.73833096 1.0385488 0.066780686 28
-0.91323274 1.2850436 -0.30643925 24
-0.71903765 1.0117844 0.10859605 41
-0.90491772 1.273814 -0.24747935 27
-0.71030545 1.0002363 0.15063052 16
-0.90317625 1.2723027 -0.19157861 38
-0.70991111 1.0004205 0.19429164 6
-0.81728983 1.1521666 -0.12358684 9
-0.71769911 1.0121437 0.24118258 2
-0.71378052 1.0069901 -0.064687252 32
-6.9993439 9.8745613 2.794342 9
-0.81043231 1.143768 -0.024468275 88
-6.9855151 9.8623457 3.2383442 28
-0.97399282 1.3791889 -0.4524157 7
-0.8061285 1.1419133 0.024398465 75
-1.1235949 1.5922068 -0.44990209 6
-0.75427824 1.0688611 0.068560109 29
-0.91213691 1.2930362 -0.30758414 28
-0.71188015 1.0095282 0.10807312 36
-0.90251952 1.280351 -0.24810509 30
-0.71463883 1.0141917 0.15233669 14
-0.90650922 1.2869648 -0.19328479 44
-0.70186484 0.99643248 0.19304016 5
-0.73182225 1.0393481 -0.11121072 12
-0.71416187 1.0146427 0.24118258 2
-0.71485853 1.0160092 -0.065105937 33
-6.9832859 9.9288368 2.8024402 4
-0.80528474 1.144954 -0.024433369 84
-6.9654927 9.9072132 3.2450736 27
-0.96695453 1.3794169 -0.45138043 7
-0.79889351 1.1396681 0.024293751 90
-1.11719 1.5943285 -0.44945222 5
-0.77002257 1.099297 0.070339531 30
-0.90761751 1.2962126 -0.30758414 29
-0.70835155 1.012007 0.10807312 28
-0.89600277 1.2801003 -0.24747935 36
-0.72037619 1.0295678 0.15428659 11
-0.90564936 1.294844 -0.19401602 50
-0.7017777 1.0037333 0.19397876 4
-0.70878679 1.014134 -0.10824744 15
-0.71979088 1.0298787 0.24423553 1
-0.70690966 1.0118252 -0.064687252 32
-6.9670568 9.9759083 2.8091888 2
-0.80586171 1.1543169 -0.024572989 73
-6.9463434 9.9536476 3.2523203 24
-0.96458238 1.3857867 -0.4524157 6
-0.79376864 1.1408081 0.024258846 97
-1.1016039 1.58382 -0.4454031 6
-0.78784311 1.1331356 0.072328299 63
-0.91003877 1.3088865 -0.30987382 30
-0.7152257 1.0290748 0.10964192 22
-0.8915292 1.2832201 -0.24747935 36
-0.71338069 1.027185 0.15355539 8
-0.90225637 1.2996279 -0.19425975 48
-0.70953238 1.0224054 0.19710746 4
-0.7088275 1.0213897 -0.10877036 19
-0.71842945 1.0356114 0.24499875 2
-0.69654477 1.0044391 -0.06405922 33
-6.9521775 10.028993 2.817287 2
-0.80296665 1.1587663 -0.024607893 54
-6.9291587 10.003242 3.2606025 24
-0.9630332 1.3939139 -0.45396861 7
-0.79546368 1.1517988 0.024433369 70
-1.0993903 1.5924665 -0.44675279 6
-0.78388268 1.1358789 0.072328299 89
-0.90546405 1.3120553 -0.30987382 33
-0.73312539 1.0627251 0.11295383 21
-0.88928771 1.2895765 -0.24810509 36
-0.71091717 1.0313034 0.15379913 7
-0.88194543 1.2798851 -0.19084741 39
-0.71268278 1.0346364 0.19898467 4
-0.70638824 1.0254983 -0.10894467 24
-0.7170366 1.041347 0.24576201 2
-0.69076973 1.0035738 -0.063849874 33
-6.9546824 10.107787 2.8325837 1
-0.79098409 1.1500291 -0.024363559 45
-6.9171853 10.060797 3.2714727 26
-0.9570694 1.3956735 -0.45345098 6
-0.78013176 1.138075 0.024084322 93
-1.0960275 1.5995097 -0.44765261 5
-0.78124082 1.1401194 0.072432972 78
-0.8942222 1.3054897 -0.30758414 34
-0.76430571 1.1162403 0.11835749 33
-0.88924348 1.2991936 -0.24935657 36
-0.72188538 1.0550768 0.15696773 8
-0.81807745 1.1961148 -0.17792925 13
-0.70478696 1.0304723 0.19773319 3
-0.69830614 1.0213791 -0.10824744 28
-7.0209827 10.273106 2.418695 1
-0.68951547 1.0092775 -0.06405922 34
-6.9874978 10.231774 2.8604777 2
-0.77363336 1.1328293 -0.023944702 37
-6.902298 10.110805 3.2802727 29
-0.95110512 1.3974086 -0.45293337 7
-0.78310466 1.1505743 0.024293751 100
-1.0951024 1.60958 -0.44945222 5
-0.77950287 1.1461424 0.072642311 81
-0.88965994 1.3086029 -0.30758414 39
-0.77384353 1.1386757 0.12044924 74
-0.87715816 1.2906984 -0.24716648 21
-0.73846191 1.0870212 0.16135503 10
-0.76503724 1.1265632 -0.16720475 13
-0.71006113 1.0460014 0.20023614 2
-0.68914306 1.0155671 -0.10737588 31
-6.9538078 10.247594 2.4072464 1
-0.68392259 1.0082525 -0.063849874 34
-6.949152 10.24844 2.8586779 2
-0.75172299 1.1090381 -0.023386225 23
-6.8821354 10.157226 3.2875197 28
-0.94105715 1.392552 -0.45034516 6
-0.77236706 1.1433588 0.024084322 100
-1.093839 1.6198531 -0.4512518 4
-0.77549708 1.1488565 0.072642311 100
-0.88861036 1.3164277 -0.30872896 35
-0.77006304 1.1412358 0.12044924 90
-0.84834558 1.2577242 -0.24028336 8
-0.74132121 1.0994679 0.16281746 17
-0.75888085 1.1259348 -0.16671728 19
-0.71082091 1.0550265 0.20148762 2
-0.67909163 1.0079328 -0.10633 34
-6.9344435 10.296233 2.4129708 6
-0.68262959 1.0139474 -0.06405922 34
-6.9405394 10.313051 2.8699255 9
-0.73222023 1.0884271 -0.022897556 20
-6.8584938 10.198823 3.2932138 26
-0.94049501 1.4022458 -0.4524157 6
-0.75946277 1.1327602 0.023805084 96
-1.079499 1.6107109 -0.44765261 6
-0.77148235 1.1515564 0.072642311 100
-0.88291734 1.3178904 -0.30834734 31
-0.76940084 1.148883 0.12097216 96
-0.82417035 1.2311305 -0.23465173 10
-0.73416698 1.0970993 0.16208623 27
-0.74832392 1.118677 -0.16525485 20
-6.857224 10.254805 1.9538667 5
-0.67889196 1.0152657 -0.10685294 35
-0.67020929 1.0030386 -0.063221842 35
-6.9001703 10.330732 2.8681259 53
-0.73174781 1.0959654 -0.023002272 27
-6.8432307 10.25323 3.3030488 28
-0.9388063 1.4103444 -0.45396861 7
-0.76104271 1.1437287 0.023979606 86
-1.0738696 1.6144695 -0.44765261 6
-0.75861144 1.1409369 0.071804941 100
-0.86852872 1.3062503 -0.30491278 17
-0.7686941 1.1565399 0.12149511 65
-0.80674958 1.2142559 -0.23089729 8
-0.72813678 1.096348 0.16159877 32
-0.73453254 1.1063982 -0.1630612 24
-6.8355827 10.300076 1.957934 18
-0.67847073 1.0227278 -0.10737588 36
-6.8634834 10.346025 2.4133523 9
-0.6667037 1.0053722 -0.063221842 35
-0.72239459 1.0901785 -0.022827748 28
-6.8297987 10.310879 3.3139193 22
-0.93469501 1.4153881 -0.45448625 7
-0.75924987 1.1497154 0.024049416 75
-1.0628599 1.6100762 -0.4454031 7
-0.75022376 1.1369101 0.071386255 100
-0.86049193 1.3045087 -0.30376795 16
-0.75457931 1.1443794 0.1199263 79
-0.77185464 1.1710234 -0.22213697 8
-0.73085976 1.1088277 0.1630612 20
-0.72520542 1.1006672 -0.1618425 25
-6.806108 10.333771 1.9598112 23
-0.67051387 1.0184337 -0.10667863 37
-0.66740537 1.0144831 -0.063640527 34
-6.895668 10.485678 2.8973696 2
-0.71418995 1.0860102 -0.022688128 29
-6.8118072 10.362098 3.3227189 25
-0.92445433 1.4105631 -0.45189807 7
-0.75393528 1.1508175 0.024014512 100
-1.0409366 1.5895073 -0.43865454 5
-0.74734455 1.141193 0.071490921 95
-0.84733099 1.2943635 -0.300715 15
-0.75167125 1.1486733 0.12010061 83
-0.75802982 1.1588328 -0.21932115 13
-0.76590085 1.1713105 0.1718358 6
-0.72116607 1.103318 -0.1618425 28
-6.7808003 10.374002 1.9629399 31
-0.66150552 1.0124286 -0.10580707 38
-8.9042101 13.632999 3.1651399 4
-0.66385984 1.0168067 -0.063640527 34
-6.8888426 10.55538 2.9099669 1
-0.70602274 1.0817982 -0.02254851 28
-6.7861538 10.401991 3.3278954 26
-0.91425806 1.4056845 -0.44930989 6
-0.74139231 1.1399009 0.023735272 96
-0.82534152 1.2694588 -0.34957394 5
-0.74662179 1.1488185 0.071804941 100
-0.8438769 1.29896 -0.30109662 16
-0.74765682 1.1512903 0.12010061 73
-0.74772787 1.1513999 -0.21744394 15
-6.7781258 10.441385 1.5284854 3
-0.72398704 1.1156945 -0.16330492 27
-6.7638988 10.427438 1.9685715 31
-0.65796769 1.0147314 -0.10580707 38
-8.8739033 13.685517 3.1704824 2
-0.6583119 1.0156505 -0.063431181 34
-6.8601623 10.587977 2.9126663 2
-0.70767778 1.0926481 -0.022723034 27
-6.7623987 10.445077 3.3341072 25
-0.91378361 1.4152001 -0.45138043 7
-0.73415577 1.1374415 0.023630559 90
-0.80083197 1.2412195 -0.3410258 21
-0.73827732 1.1447039 0.071386255 92
-0.84275723 1.3067007 -0.30224147 16
-0.73951679 1.147065 0.11940337 65
-0.74263436 1.1523422 -0.21713105 19
-6.7427139 10.466649 1.5287292 6
-0.71793836 1.1148772 -0.16281746 26
-6.7531233 10.490848 1.9760804 25
-0.65873432 1.0237237 -0.10650431 38
-8.8218317 13.709804 3.168956 2
-0.64935994 1.0095435 -0.062907822 37
-6.8421292 10.641366 2.9207644 12
-0.70385969 1.0951116 -0.022723034 25
-6.7457352 10.499501 3.3439424 26
-0.91484195 1.4283006 -0.45448625 7
-0.73341626 1.1450491 0.023735272 63
-0.79334176 1.2390841 -0.33967611 32
-0.72781688 1.1371808 0.070758224 100
-0.82526559 1.2899357 -0.29766205 16
-0.74496824 1.1648744 0.12097216 79
-0.73521352 1.1500635 -0.21619245 21
-0.75700623 1.184153 0.172567 9
-0.70442224 1.1023219 -0.1606238 27
-6.7302837 10.535999 1.9801477 27
-0.65193975 1.0209793 -0.10598138 37
-6.8553901 10.740111 2.4767008 2
-0.64135849 1.0051817 -0.062489137 37
-6.8083224 10.674585 2.9230139 31
-0.6871286 1.0773305 -0.022304177 25
-6.7339711 10.562077 3.3563654 26
-0.90570581 1.4249635 -0.4524157 7
-0.72599763 1.1426659 0.023630559 61
-0.79088473 1.2452734 -0.3405759 39
-0.72063082 1.1346563 0.070444204 86
-0.80076528 1.261317 -0.29041129 11
-0.73342478 1.155692 0.11975199 73
-0.73648518 1.1609634 -0.21775681 20
-0.76222903 1.2020074 0.17476064 14
-0.70037752 1.1048962 -0.1606238 27
-6.7072158 10.581118 1.984215 29
-0.64410597 1.0165169 -0.10528414 37
-8.7256012 13.775896 3.1697192 2
-0.64211977 1.0141641 -0.062907822 37
-6.7897763 10.727928 2.9311123 55
-0.67159981 1.0611358 -0.021920223 51
-6.711524 10.608373 3.3636124 24
-0.89557296 1.4199466 -0.44982749 7
-0.70833606 1.1230792 0.023176797 50
-0.78986907 1.2528344 -0.34192562 37
-0.71879512 1.1405445 0.070653543 86
-0.73984832 1.1744046 -0.26980394 16
-0.72089279 1.1447573 0.11835749 90
-0.73052669 1.1600556 -0.21713105 18
-0.77092874 1.2246881 0.17768551 14
-0.69670945 1.1072128 -0.1606238 27
-6.6870651 10.63122 1.9892209 28
-0.63631189 1.0120124 -0.10458689 41
-6.819746 10.846359 2.4904392 3
-0.64512974 1.0264341 -0.063535862 39
-6.7717905 10.778436 2.9387608 72
-0.66044724 1.0516195 -0.02167589 58
-6.6919117 10.659553 3.3724122 23
-0.88778418 1.4179963 -0.44827461 6
-0.68531615 1.095033 0.02254851 56
-0.77825588 1.2440195 -0.33877629 38
-0.71183145 1.1378421 0.070339531 100
-0.73178619 1.1701933 -0.26827747 26
-0.71709234 1.1471417 0.11835749 93
-0.72019184 1.1525475 -0.21525384 16
-0.77506244 1.2408406 0.17963544 7
-0.69809729 1.1180569 -0.1618425 25
-6.670608 10.683496 1.9948525 28
-0.62556827 1.0022855 -0.10336671 43
-8.633708 13.838304 3.1704824 2
-0.63942927 1.0252901 -0.063326515 41
-6.7599006 10.843348 2.9500082 70
-0.65695661 1.0538038 -0.02167589 58
-6.6708326 10.704638 3.3796592 25
-0.83797425 1.3488833 -0.42549852 3
-0.68168139 1.0972995 0.02254851 65
-0.76693016 1.2350049 -0.33562699 37
-0.70785505 1.1403201 0.070339531 100
-0.73080266 1.177745 -0.26942232 29
-0.71623462 1.1547172 0.11888044 79
-0.7080363 1.1414999 -0.2127509 25
-6.6570992 10.736804 1.5511532 10
-0.69124877 1.1153038 -0.16111128 27
-6.6540785 10.740301 2.0011098 25
-0.62416351 1.0078508 -0.10371533 43
-6.7809038 10.949277 2.5034142 3
-0.63182038 1.0206124 -0.062907822 43
-6.739285 10.890564 2.9567568 64
-0.65537775 1.059492 -0.021745699 58
-6.6537433 10.760722 3.390012 23
-0.79090881 1.2825923 -0.40375772 3
-0.68099457 1.1047794 0.022653224 71
-0.75750291 1.2293792 -0.33337748 36
-0.6944437 1.1274787 0.069397487 66
-0.72689283 1.1801621 -0.26942232 31
-0.71344572 1.1587827 0.11905474 45
-0.70508248 1.1456469 -0.21306378 30
-6.6351843 10.785336 1.5548092 11
-0.68839103 1.1194011 -0.16135503 26
-6.6351709 10.793754 2.0067415 24
-0.62272799 1.0134182 -0.10406395 43
-6.7220879 10.939425 2.4957819 2
-0.62407273 1.0160041 -0.062489137 44
-6.7155066 10.93727 2.9630554 75
-0.65167564 1.0617731 -0.021745699 52
-6.6383686 10.820107 3.4013999 25
-0.77309942 1.2640576 -0.39702842 6
-0.66878742 1.093502 0.022373985 75
-0.75320715 1.2320157 -0.33337748 35
-0.69154555 1.1316 0.06950216 92
-0.71539795 1.171091 -0.26675099 32
-0.70296341 1.1511875 0.11800887 38
-0.70293742 1.1515955 -0.21368951 30
-6.6171494 10.840623 1.5594403 14
-0.67827535 1.11163 -0.15989259 27
-6.6118507 10.840461 2.0111217 25
-0.61918694 1.0155857 -0.10406395 43
-6.735074 11.051167 2.515626 4
-0.62450087 1.0251074 -0.062907822 44
-6.6915932 10.98844 2.9702537 77
-0.638605 1.0486699 -0.021431556 51
-6.6206455 10.876218 3.4117527 23
-0.75866014 1.2502332 -0.39185205 10
-0.66581196 1.097656 0.02240889 83
-0.75272775 1.2414337 -0.33517709 36
-0.68759096 1.1340072 0.06950216 100
-0.71130592 1.1735809 -0.26675099 35
-0.69687611 1.1502261 0.11766025 49
-0.69686639 1.1506631 -0.21306378 31
-6.5989575 10.900466 1.5645587 15
-0.67830759 1.1209017 -0.16086754 27
-6.5923805 10.893892 2.0167532 25
-0.60945058 1.0075125 -0.10301808 44
-6.6903644 11.064528 2.5133362 1
-0.62401843 1.0324088 -0.063221842 45
-6.6723404 11.043423 2.978802 63
-0.6297698 1.042335 -0.021257032 58
-6.5946274 10.919105 3.4179645 22
-0.75429159 1.2528737 -0.39185205 15
-0.65082294 1.0810128 0.022024937 78
-0.74659741 1.2405834 -0.33427727 39
-0.68980539 1.1466693 0.070130184 100
-0.70619351 1.174374 -0.26636937 35
-0.68875122 1.1458209 0.116963 56
-0.68694079 1.142809 -0.21118654 33
-6.5791302 10.949516 1.5684586 18
-0.67765343 1.12825 -0.16159877 29
-6.5746522 10.950708 2.0230107 28
-0.60490441 1.0079255 -0.10284378 48
-6.6596942 11.096755 2.515626 7
-0.62059164 1.0344723 -0.063221842 45
-6.6457071 11.0822 2.9833009 52
-0.63023973 1.0513878 -0.02139665 86
-6.5723624 10.968572 3.4262466 23
-0.74616867 1.2487347 -0.3897815 22
-0.64909613 1.0867116 0.022094747 81
-0.73526967 1.2314695 -0.33112797 42
-0.68068099 1.1404948 0.069606826 100
-0.70631957 1.1834528 -0.26789585 35
-0.68596828 1.1498098 0.11713732 54
-0.68497133 1.1485931 -0.2118123 32
-6.5530686 10.992875 1.5713835 22
-0.67167836 1.1271981 -0.16111128 31
-6.5606451 11.014324 2.0305195 28
-0.60359812 1.0133493 -0.1031924 48
-0.60880464 1.0229023 -0.062384464 48
-6.6169424 11.12208 2.9877999 57
-0.62963253 1.0587374 -0.021501366 75
-6.5537748 11.024659 3.4365995 25
-0.74476099 1.256317 -0.39133441 27
-0.64937675 1.0958519 0.022234365 78
-0.72699356 1.2273221 -0.32932836 43
-0.66652006 1.1256779 0.068560109 100
-0.70018393 1.1825323 -0.26713261 31
-0.6880396 1.1624845 0.11818319 58
-0.68296921 1.1543775 -0.21243803 30
-6.5308266 11.043019 1.5752833 22
-0.66167861 1.1192827 -0.15964885 31
-6.5362301 11.060966 2.0348997 25
-0.60411185 1.0223111 -0.10388964 52
-6.5950484 11.164949 2.520587 60
-0.60523063 1.0250211 -0.062384464 48
-6.5899677 11.165247 2.9931986 49
-0.62796545 1.0643731 -0.021571174 73
-6.5407643 11.090735 3.450058 24
-0.73449534 1.2489177 -0.3882286 32
-0.64757466 1.1015598 0.022304177 81
-0.72270465 1.2298524 -0.32932836 41
-0.66278327 1.1278821 0.068560109 100
-0.69505721 1.1832767 -0.26675099 26
-0.68397725 1.1648794 0.11818319 64
-0.68293482 1.1635691 -0.21368951 28
-6.5173497 11.108555 1.5813768 24
-0.66178417 1.1284351 -0.1606238 31
-6.5125022 11.104733 2.0389671 26
-0.59751654 1.0192574 -0.10336671 53
-6.5480905 11.174353 2.517534 24
-0.60366762 1.0305743 -0.06259381 54
-6.5283027 11.149505 2.9828508 23
-0.62039042 1.0595473 -0.021431556 72
-6.5215173 11.142374 3.4593754 25
-0.72234291 1.2381251 -0.38408747 38
-0.63988709 1.0967925 0.022164557 75
-0.72451288 1.2423425 -0.33202776 42
-0.65884238 1.1301887 0.068560109 100
-0.68795747 1.1806066 -0.26560614 23
-0.67389029 1.15693 0.11713732 64
-0.68106133 1.1692412 -0.21431525 28
-6.5014544 11.16613 1.5864953 22
-0.66003579 1.1340547 -0.16111128 32
-6.4886036 11.153009 2.0436602 25
-0.58994883 1.0144475 -0.10266946 56
-6.4961977 11.170547 2.5118098 23
-0.60024703 1.0325704 -0.06259381 56
-6.5050044 11.194681 2.9891498 24
-0.61467963 1.0582479 -0.021361746 72
-6.4961658 11.188459 3.4666226 25
-0.71920139 1.2421852 -0.38460511 35
-0.63204825 1.0920962 0.022024937 72
-0.71236485 1.2313697 -0.32842854 36
-0.65989268 1.1411264 0.069083467 100
-0.6850217 1.1845809 -0.26598775 24
-0.66207296 1.145359 0.11574282 63
-0.67203397 1.1630596 -0.2127509 27
-6.475347 11.211102 1.5896639 21
-0.66004306 1.1432284 -0.16208623 32
-6.4753013 11.220076 2.0517945 28
-0.58640432 1.0165005 -0.10266946 55
-6.4659972 11.208459 2.5152442 25
-0.59464324 1.0311991 -0.062384464 56
-6.4863219 11.252776 2.9985976 31
-0.60798711 1.0551891 -0.021257032 69
-6.4802084 11.251245 3.4790456 21
-0.71560526 1.2464886 -0.38512275 32
-0.62723637 1.0925617 0.021990033 63
-0.70903242 1.2355387 -0.32887843 30
-0.65590513 1.1434231 0.069083467 100
-0.68751121 1.1990058 -0.26865909 30
-0.66183394 1.1546922 0.11644007 60
-0.66776687 1.1655147 -0.2127509 27
-6.4529467 11.262919 1.5938075 22
-0.65802181 1.1489706 -0.16257372 31
-6.4576902 11.280325 2.0586779 25
-0.5848313 1.0219998 -0.10301808 47
-6.4463158 11.269576 2.5236399 24
-0.58986861 1.0316377 -0.062279794 59
-6.4614754 11.305234 3.0062459 28
-0.61223811 1.0711942 -0.02153627 67
-6.4581466 11.303988 3.4883633 22
-0.71507406 1.2556937 -0.38719329 26
-0.62520641 1.0983289 0.022059841 63
-0.71510011 1.2567607 -0.33382738 33
-0.64578551 1.1354027 0.068455435 100
-0.68720442 1.2082243 -0.27018553 28
-0.6617384 1.1639233 0.11713732 60
-0.66759813 1.1747084 -0.21400237 27
-6.4292746 11.317562 1.5981947 19
-0.65184593 1.147922 -0.16208623 31
-6.4358015 11.338277 2.0649352 24
-0.58519411 1.030966 -0.10371533 45
-6.4311614 11.334698 2.5331805 28
-0.58724946 1.0354276 -0.062384464 54
-6.4335041 11.348064 3.0116446 27
-0.609294 1.0751705 -0.021571174 72
-6.4376168 11.364564 3.4997511 24
-0.70783585 1.2531362 -0.38564041 18
-0.62825072 1.112694 0.022304177 61
-0.72411865 1.2830085 -0.34012601 42
-0.64378065 1.1411291 0.068664782 100
-0.69359374 1.229425 -0.27438337 27
-0.65473515 1.1610199 0.11661438 59
-0.66737396 1.1839147 -0.21525384 26
-6.4150634 11.384902 1.6045319 22
-0.64978307 1.1536498 -0.16257372 29
-6.4087853 11.383049 2.0690024 23
-0.58061463 1.0312663 -0.10354102 39
-6.4136992 11.396429 2.5419576 26
-0.58754826 1.0444342 -0.062803157 53
-6.4148688 11.407822 3.0215428 25
-0.59573871 1.0598592 -0.021222128 75
-6.4149442 11.417281 3.5090687 23
-0.70629025 1.2606552 -0.38719329 13
-0.62143183 1.1096458 0.022199461 53
-0.72820306 1.300832 -0.34417513 48
-0.64194447 1.1467432 0.068874128 100
-0.69409174 1.2404047 -0.27629143 24
-0.65748703 1.1754702 0.11783457 54
-0.66709358 1.1931337 -0.21650532 22
-6.3936863 11.440147 1.6091629 20
-0.65156126 1.1663088 -0.16403615 26
-6.3873825 11.433554 2.0743213 21
-0.57701147 1.0332866 -0.10354102 34
-6.3891869 11.446178 2.5480635 24
-0.58973813 1.0569434 -0.063431181 48
-6.3977928 11.470988 3.0323403 28
-0.59319502 1.0635751 -0.021257032 69
-6.392096 11.465491 3.5173512 23
-0.69625562 1.2529809 -0.38408747 6
-0.61580628 1.1082044 0.022129651 48
-0.72767007 1.3100543 -0.34597474 54
-0.64084584 1.1542156 0.06918814 100
-0.69833165 1.2582695 -0.279726 20
-0.64854681 1.169047 0.116963 51
-0.66984099 1.2074311 -0.21869542 15
-6.3720775 11.490803 1.6133065 18
-0.65635121 1.1840891 -0.1662298 27
-6.3704076 11.497251 2.08183 25
-0.57436615 1.0370375 -0.10371533 38
-6.3664165 11.494781 2.5541694 26
-0.58622962 1.0588933 -0.063431181 45
-6.3851919 11.538179 3.0444875 30
-0.59431827 1.0743885 -0.021431556 63
-6.3726029 11.524925 3.528739 21
-0.69582736 1.2620502 -0.38615805 4
-0.6167599 1.119104 0.022304177 41
-0.7174511 1.3023448 -0.34327531 47
-0.63970345 1.161694 0.06950216 96
-0.72067171 1.3087314 -0.29041129 13
-0.64947063 1.1799184 0.11783457 45
-0.68466741 1.2443758 -0.22495279 14
-6.3481932 11.542542 1.61745 16
-0.65795219 1.19681 -0.16769223 24
-6.3540215 11.562696 2.0896518 30
-0.5670861 1.0319519 -0.10301808 35
-6.3432693 11.547905 2.5610385 24
-0.57964629 1.0556811 -0.063117169 44
-6.3598819 11.587731 3.051686 31
-0.59537315 1.0852226 -0.021606078 52
-6.3546314 11.587751 3.5411625 21
-0.70161259 1.2831165 -0.39185205 4
-0.62148106 1.1370425 0.022618318 45
-0.70916361 1.2980007 -0.34147573 35
-0.62894309 1.1516498 0.068769448 82
-0.75938445 1.3904994 -0.30796573 12
-0.64916617 1.1891735 0.1185318 37
-0.72479135 1.3282568 -0.23965763 15
-6.3278222 11.601232 1.6225686 19
-0.6575712 1.2060711 -0.16866718 16
-6.3344202 11.622963 2.096535 29
-0.59113032 1.084659 -0.10807312 20
-6.3273368 11.614803 2.5709605 26
-0.57786775 1.0612062 -0.063326515 44
-6.3287125 11.626975 3.056185 54
-0.59158164 1.0872941 -0.021606078 52
-6.2975268 11.579316 3.5318449 27
-0.69620872 1.2838594 -0.39133441 6
-0.62132031 1.146237 0.022757938 48
-0.70926994 1.3090353 -0.34372523 28
-0.62702388 1.1572412 0.068978801 66
-0.75639629 1.3965942 -0.30872896 10
-0.64880574 1.1984406 0.11922905 18
-0.73613256 1.3603131 -0.2449764 22
-6.2693453 11.590073 1.6179376 24
-0.69773287 1.2904296 -0.1801229 14
-6.2601366 11.577877 2.0846457 52
-0.6489163 1.2006459 -0.11940337 18
-6.2466316 11.562544 2.5545509 55
-0.58270133 1.0790333 -0.064268559 48
-6.2334704 11.54782 3.0296407 58
-0.58892286 1.0910095 -0.021640982 60
-6.2361617 11.557631 3.518904 46
-0.69172323 1.2862816 -0.39133441 8
-0.61751604 1.1482909 0.022757938 38
-0.71138412 1.3233953 -0.34687454 16
-0.62770689 1.1682199 0.06950216 54
-0.75523281 1.4061441 -0.31025544 8
-6.2086959 11.564616 1.1483641 32
-0.73255217 1.3644871 -0.24528927 24
-6.2158551 11.582814 1.6140378 67
-0.70752555 1.3189758 -0.18377897 13
-6.2047515 11.571803 2.0796399 79
-0.70119298 1.308268 -0.12986206 28
-6.1971216 11.562431 2.5499716 55
-0.58855206 1.0985646 -0.065315276 47
-6.2006593 11.578737 3.0323403 58
-0.58699816 1.0965847 -0.021710794 56
-6.1939545 11.575924 3.5178688 33
-0.6865443 1.2868642 -0.39081678 8
-0.61538565 1.1539687 0.022827748 21
-0.90017927 1.6887223 -0.44180387 7
-0.62644309 1.1756917 0.069816172 21
-0.91489571 1.717052 -0.37818345 4
-6.1759281 11.595695 1.1494099 73
-0.73335415 1.377498 -0.24716648 24
-6.1744552 11.602687 1.613794 42
-0.72156179 1.3564889 -0.18865377 11
-6.1837921 11.630019 2.0862103 37
-0.7136876 1.3422509 -0.13299966 45
-6.2166162 11.696676 2.5747766 31
-0.58190238 1.0953212 -0.065001264 43
-6.2680559 11.803401 3.0854287 28
-0.58316702 1.098627 -0.021710794 56
-6.2612615 11.800549 3.5794675 48
-0.70643955 1.3353585 -0.40479302 5
-5.9013424 11.159817 0.22035408 41
-0.90065408 1.703914 -0.44495317 6
-6.2224221 11.776944 0.69805706 22
-1.0574753 2.0014436 -0.44000554 100
-6.2405581 11.816261 1.1691071 23
-0.73315269 1.3887838 -0.24873082 27
-6.2534294 11.850648 1.6452364 19
-0.72793621 1.380069 -0.19157861 16
-6.2509518 11.855977 2.1228158 24
-0.71271503 1.3517835 -0.1336969 38
-6.2416558 11.843355 2.6022532 24
-0.57993692 1.10088 -0.065210611 19
-6.2531447 11.875216 3.0984759 27
-0.58677995 1.1148121 -0.021990033 47
-6.2092347 11.801818 3.573256 49
-0.75113106 1.4319082 -0.43326309 6
-5.8781347 11.210457 0.22094747 22
-0.89470035 1.7070477 -0.44495317 6
-6.2278361 11.882429 0.70308131 31
-1.0486598 2.0016448 -0.43924233 99
-6.23347 11.903281 1.1755567 24
-0.73562884 1.4053355 -0.25123379 16
-6.2212243 11.889995 1.6476736 17
-0.72679406 1.3896379 -0.19255358 18
-6.2253304 11.902898 2.1275089 27
-0.71814555 1.3736857 -0.13561434 27
-6.2239146 11.910313 2.6121752 26
-3.4926085 6.6864271 -0.39534587 5
-6.230597 11.933246 3.1079237 27
-0.59140927 1.1327056 -0.022304177 40
-6.1468272 11.777813 3.5597973 49
-0.77287149 1.4859378 -0.44879225 6
-5.8612299 11.268915 0.22171538 16
-0.89083284 1.7134632 -0.44585299 6
-6.2075052 11.944855 0.70548874 33
-1.0362369 1.99484 -0.43695265 100
-6.201983 11.944415 1.177474 22
-0.74006778 1.4252985 -0.25436246 15
-6.2064538 11.958129 1.6542546 18
-0.72858053 1.4043753 -0.19425975 29
-6.2019339 11.959627 2.1337664 22
-0.73718566 1.4221746 -0.14014643 29
-6.2033601 11.967488 2.6201892 23
-3.4796028 6.7157068 -0.39639258 7
-6.2035398 11.978066 3.1142225 30
-0.58469403 1.1294354 -0.022199461 19
-6.0825901 11.75459 3.5463388 49
-0.7670542 1.4867756 -0.44827461 6
-5.8328538 11.310635 0.22213423 19
-0.88752449 1.721759 -0.44720268 5
-6.1916509 12.011534 0.70821023 31
-1.0287172 1.9965198 -0.436571 100
-6.1851435 12.0092 1.1818318 21
-0.73960847 1.4366548 -0.25592682 16
-6.1855688 12.020317 1.6598606 20
-0.72730625 1.4139708 -0.19523472 15
-6.1766939 12.008236 2.1387722 23
-0.73975337 1.4387867 -0.14154093 31
-6.1777039 12.020498 2.6270583 21
-3.4579663 6.7313643 -0.39660192 7
-6.1857224 12.046455 3.1263697 31
-6.1638646 12.003888 -0.23553768 7
-6.0188799 11.726572 3.5318449 52
-0.76273912 1.4911643 -0.44879225 6
-5.8053341 11.349499 0.22251819 27
-0.88181043 1.7246926 -0.44720268 5
-6.1669564 12.066862 0.710199 28
-1.0226344 2.0018473 -0.43695265 100
-6.1576858 12.059107 1.1846209 23
-0.72855228 1.4267844 -0.25373673 14
-6.1619148 12.072592 1.664248 16
-0.73343927 1.4375937 -0.19815956 10
-6.1607671 12.080754 2.1478455 25
-0.73744142 1.4466854 -0.14206386 35
-6.1574197 12.079399 2.6354539 22
-3.4347198 6.741014 -0.39649725 7
-6.1687379 12.11205 3.1380672 31
-6.1464229 12.073444 -0.2364801 12
-5.9551325 11.702744 3.5183864 53
-0.75814229 1.4956727 -0.44930989 6
-5.7761755 11.400245 0.22307666 30
-0.86901796 1.7158966 -0.44405338 6
-6.1416349 12.126804 0.7123971 31
-1.0223845 2.0195944 -0.44000554 100
-6.1350379 12.12426 1.1888043 25
-1.2312664 2.4343257 -0.43207204 3
-6.1325278 12.129822 1.6688789 15
-1.5727645 3.1108468 -0.42800516 2
-6.1378331 12.145566 2.1553543 25
-0.73482859 1.4547137 -0.14258678 33
-6.1278028 12.136253 2.6427047 24
-3.4016099 6.7398891 -0.39565986 7
-6.1427388 12.171113 3.1475151 27
-6.0597949 12.01198 -0.23483957 6
-5.8913212 11.683094 3.5059628 52
-0.75491339 1.5016309 -0.45034516 6
-5.7652721 11.472941 0.22412381 24
-0.86419809 1.72051 -0.44450328 6
-6.1184225 12.181012 0.71438587 35
-1.0103956 2.0124466 -0.43771586 96
-6.1233921 12.201523 1.1943823 25
-1.2223018 2.4366295 -0.43175918 4
-6.1100678 12.185581 1.6737536 15
-1.5571021 3.1053979 -0.42654276 3
-6.1143374 12.199409 2.161299 22
-6.1121411 12.20566 2.6533902 24
-3.3756666 6.743988 -0.3952412 8
-6.119792 12.226268 3.1565132 25
-6.1094069 12.210844 -0.23833007 31
-5.8352661 11.668009 3.4956102 49
-0.75079191 1.5058546 -0.4508628 6
-5.7512798 11.540319 0.22506624 26
-0.86022615 1.7268548 -0.4454031 6
-6.0954471 12.241631 0.71668863 34
-0.99724174 2.0036581 -0.43504456 100
-6.0953279 12.246733 1.1968226 27
-1.2203746 2.4530494 -0.43394926 5
-6.0970225 12.260879 1.6813096 16
-1.5489041 3.1161466 -0.42727396 3
-6.0901704 12.257829 2.1678691 19
-2.1242158 4.2773323 -0.41782463 7
-6.0913234 12.270881 2.6629305 22
-3.3521032 6.7557306 -0.3952412 7
-6.0969958 12.287707 3.1668611 27
-6.0880671 12.275092 -0.23916778 31
-5.7721944 11.643304 3.4821515 49
-0.74098903 1.4999366 -0.44827461 6
-5.7257628 11.59539 0.22572944 26
-0.85734069 1.7369862 -0.44720268 6
-6.0744009 12.312248 0.71951485 31
-0.99510074 2.0178647 -0.43733424 100
-6.0697842 12.308305 1.2006575 23
-1.2105013 2.455734 -0.43363637 4
-6.0739803 12.32766 1.6874031 15
-1.5418569 3.1307075 -0.42849267 3
-6.0635262 12.317284 2.1744394 16
-2.1067662 4.2815132 -0.41747603 7
-6.0662336 12.333645 2.6717076 19
-3.3264399 6.7661781 -0.39513651 9
-6.0716953 12.350192 3.1772087 25
-6.0580311 12.327832 -0.23976116 28
-5.7158504 11.63664 3.4738693 28
-0.73548687 1.5026422 -0.44827461 7
-5.6972885 11.645036 0.2262879 28
-0.84925669 1.7366154 -0.44630289 6
-6.0476556 12.37211 0.72171295 30
-0.98891354 2.0230894 -0.43771586 100
-6.0412521 12.364479 1.2039695 23
-1.1954237 2.4477298 -0.43144631 5
-6.0461755 12.385514 1.6922778 15
-1.5286314 3.1327691 -0.42800516 3
-6.0425839 12.389139 2.1831996 20
-2.0961738 4.2977953 -0.41834757 6
-6.0360518 12.381214 2.6774321 17
-3.301053 6.774157 -0.39492717 9
-6.04772 12.416164 3.1884563 19
-6.0329423 12.391303 -0.24056397 27
-5.6714735 11.654036 3.4728339 26
-0.73192322 1.5086766 -0.44930989 7
-5.6845284 11.722428 0.22740486 37
-0.83723927 1.7272943 -0.44315359 6
-6.0279408 12.441676 0.72453904 31
-0.98698115 2.0371301 -0.44000554 100
-6.0284462 12.448255 1.2100704 25
-1.1885942 2.4554434 -0.43207204 5
-6.0201936 12.442284 1.6971526 15
-1.5133644 3.1291509 -0.42678648 4
-6.0233765 12.459952 2.1919601 22
-2.0802927 4.3032918 -0.41817325 7
-6.0175638 12.453475 2.688499 20
-3.2791219 6.7892356 -0.39513651 7
-6.0280676 12.486336 3.2010534 24
-6.0131135 12.460915 -0.2415064 26
-5.6341128 11.680722 3.4749045 26
-0.73251295 1.5234096 -0.45293337 7
-5.6548333 11.765632 0.22785862 77
-0.83204901 1.7319627 -0.44360349 6
-6.0004902 12.4904 0.72621381 31
-0.97816503 2.0370231 -0.43924233 99
-6.0065136 12.514127 1.2144281 24
-1.1817253 2.4631391 -0.43269777 5
-5.9990454 12.509759 1.7034898 18
-1.4972851 3.1236739 -0.42532405 4
-6.0008121 12.519046 2.198843 22
-2.0669813 4.3141203 -0.41852185 7
-5.9961061 12.520439 2.6984208 20
-3.2623034 6.8150525 -0.39597389 7
-6.0004287 12.5407 3.2096016 25
-5.9933386 12.525882 -0.24237902 29
-5.6053519 11.720255 3.4811163 25
-0.72469783 1.5207251 -0.45138043 7
-5.638155 11.831254 0.22876614 38
-0.82797658 1.7382313 -0.44450328 6
-5.9791741 12.558158 0.72893524 30
-0.96429968 2.026243 -0.43618938 94
-5.9781961 12.567403 1.2175657 23
-1.17355 2.4670446 -0.43269777 5
-5.9754257 12.567234 1.7086083 18
-1.4903257 3.1357937 -0.42629901 4
-5.982501 12.593447 2.2082293 28
-2.0493445 4.3159103 -0.41799891 8
-6.0025511 12.641345 2.7201731 32
-3.2413969 6.8294425 -0.39618322 6
-5.9788523 12.602787 3.2203994 24
-5.9641414 12.577444 -0.2429724 28
-5.5660582 11.743243 3.4821515 23
-0.71552408 1.5143867 -0.44879225 6
-5.6198754 11.899684 0.22970858 42
-0.82689565 1.7516842 -0.44720268 6
-5.9566116 12.624108 0.73155206 27
-0.95589906 2.0258789 -0.43542615 100
-5.9534883 12.623198 1.2210519 22
-1.1640896 2.4693391 -0.43238491 4
-5.9569087 12.641887 1.7159206 18
-1.4793713 3.1409764 -0.42629901 4
-6.0007706 12.746507 2.2313814 49
-2.0307791 4.3136692 -0.41712737 7
-3.22434 6.8551736 -0.39702061 6
-5.955555 12.667668 3.231647 22
-5.9397645 12.639811 -0.2437752 27
-5.5233922 11.759102 3.4811163 25
-0.71023387 1.5168749 -0.44879225 6
-5.5927105 11.950021 0.23030196 9
-0.81747359 1.7474991 -0.4454031 6
-5.9345064 12.691863 0.73427355 33
-0.95214832 2.0363171 -0.43695265 95
-5.9287887 12.685419 1.2250611 22
-1.1504469 2.4626489 -0.43050769 4
-5.9320579 12.703973 1.7215265 20
-1.4692371 3.1479206 -0.42654276 4
-5.9746161 12.806757 2.2382646 41
-2.0106559 4.3098974 -0.41608149 7
-5.9423618 12.743439 2.7331481 1
-3.1978583 6.8609567 -0.39670658 5
-5.9368143 12.743137 3.2455938 25
-5.917552 12.707601 -0.24468274 26
-5.4806786 11.77481 3.4800811 28
-0.70574731 1.5210974 -0.44930989 6
-5.9093637 12.742278 0.2451714 26
-0.80890954 1.7450383 -0.44405338 6
-5.9136748 12.763244 0.73720431 33
-0.9466846 2.043191 -0.43771586 96
-5.9062438 12.753041 1.2295932 22
-1.1443324 2.472028 -0.43144631 4
-5.9018507 12.755227 1.7256701 18
-1.4640734 3.165642 -0.42824891 4
-5.9497662 12.87057 2.2457736 41
-2.0047946 4.3367839 -0.41799891 8
-5.9390197 12.853212 2.7522292 1
-3.1730537 6.8702641 -0.39660192 5
-5.9135294 12.809787 3.2572913 25
-5.8932691 12.771756 -0.24552046 24
-5.44521 11.806148 3.4837046 32
-0.7036615 1.5305727 -0.45138043 5
-5.8873954 12.811886 0.24611384 24
-0.80037266 1.7425387 -0.44270366 6
-5.8824224 12.81285 0.73887914 33
-0.93627065 2.039346 -0.43618938 100
-5.8849616 12.824283 1.2344739 22
-1.1340487 2.4724166 -0.43082058 4
-5.8763208 12.817253 1.731276 17
-1.4422642 3.1472728 -0.4250803 4
-5.924542 12.934363 2.2532823 41
-1.9854946 4.3346992 -0.41712737 7
-5.9153686 12.920275 2.7621512 1
-3.1415741 6.8649526 -0.39565986 5
-5.8833661 12.86225 3.2653894 24
-5.8686099 12.835896 -0.24635819 26
-5.4119968 11.842652 3.4888809 25
-0.69751334 1.5312616 -0.4508628 6
-5.8633499 12.877859 0.24698645 21
-0.79751438 1.7524166 -0.44450328 6
-5.856678 12.875119 0.74128658 33
-0.92914569 2.0426021 -0.43618938 94
-5.8558254 12.879209 1.2377858 21
-1.1270466 2.4799566 -0.43144631 5
-5.8537083 12.886487 1.737857 15
-1.4345512 3.1595182 -0.42605525 4
-5.8956861 12.990939 2.2595396 39
-1.9703525 4.3416028 -0.41712737 8
-5.8734736 12.947999 2.7636778 1
-3.11759 6.8758774 -0.39565986 5
-5.8537192 12.916432 3.2739377 24
-5.8386168 12.889091 -0.24698645 26
-5.3650446 11.849154 3.4852574 40
-0.68898559 1.5266435 -0.44879225 6
-5.8413882 12.949285 0.2479638 24
-0.79379582 1.7605191 -0.44585299 6
-5.8322186 12.941006 0.74390334 28
-0.91878384 2.0386732 -0.43466291 91
-5.8312936 12.944984 1.2421436 22
-1.1175725 2.4820743 -0.43113342 4
-5.8339481 12.962958 1.7454128 16
-1.4235144 3.1645062 -0.42605525 4
-5.8705583 13.05648 2.2673614 39
-1.9527351 4.3430023 -0.41660443 8
-5.8749208 13.072282 2.7858114 1
-3.0992999 6.8994699 -0.39639258 4
-5.8365369 12.999008 3.2896843 25
-5.81815 12.964127 -0.24803361 25
-5.310997 11.839609 3.4769752 23
-0.68286419 1.5272756 -0.44827461 5
-5.8116498 13.004285 0.24862698 39
-0.78843993 1.7650589 -0.44630289 6
-5.818594 13.025927 0.74767154 34
-0.91406363 2.0472457 -0.43580776 100
-5.8055553 13.008929 1.2463272 22
-1.1064869 2.4805484 -0.43019485 5
-5.8080606 13.026758 1.7512627 16
-1.4156909 3.1767094 -0.42703021 4
-5.8521523 13.131812 2.2770603 40
-1.9367515 4.3479724 -0.41643015 8
-5.8803563 13.207497 2.810235 7
-3.0703232 6.8992991 -0.39576453 4
-5.8164673 13.076281 3.3040812 26
-5.7978859 13.034507 -0.24901094 26
-5.2638597 11.839501 3.4717989 7
-0.68144023 1.5384817 -0.4508628 6
-5.7846937 13.060052 0.24932507 31
-0.78258276 1.7676635 -0.44630289 5
-5.789257 13.082685 0.74976498 30
-0.91247028 2.0629926 -0.4384791 100
-5.785893 13.087425 1.2519051 22
-1.0982555 2.4842038 -0.43019485 5
-5.7824845 13.085891 1.7566248 16
-1.4051495 3.1813862 -0.42703021 4
-5.828619 13.202757 2.2858207 39
-1.9231718 4.3583517 -0.41677874 8
-5.8460398 13.248478 2.8148146 7
-3.042593 6.898478 -0.39513651 3
-5.7911558 13.136509 3.314429 24
-5.7733121 13.102245 -0.24991846 26
-5.2326255 11.880786 3.478528 0
-0.67633504 1.5407329 -0.4508628 6
-5.7623668 13.133271 0.25033733 22
-0.77327746 1.7632456 -0.44450328 5
-5.7579837 13.135741 0.75164908 28
-0.90247089 2.0588152 -0.43695265 100
-5.7632465 13.153989 1.2564372 23
-1.0879929 2.4844031 -0.42956907 5
-5.7550759 13.147824 1.7622309 18
-1.3908521 3.1789973 -0.42605525 4
-5.8062439 13.277318 2.2952068 25
-1.9119028 4.3720074 -0.41747603 8
-5.8327799 13.344358 2.8308423 2
-3.0144947 6.8999062 -0.39461315 3
-5.7616453 13.194146 3.3238769 26
-5.7491426 13.171801 -0.2508609 26
-5.7650771 13.214597 3.8631332 15
-0.67018205 1.5413129 -0.45034516 7
-5.742794 13.213826 0.25148919 24
-0.77022314 1.7730839 -0.44630289 5
-5.7367582 13.212552 0.7548939 31
-0.89215153 2.054749 -0.43542615 93
-5.7387142 13.223373 1.2611436 26
-1.0856023 2.5026839 -0.43207204 5
-5.7336278 13.22429 1.7697867 17
-1.3765903 3.1765471 -0.4250803 4
-5.7739916 13.330133 2.3008385 7
-1.8926691 4.369513 -0.41660443 8
-5.8158073 13.4331 2.8453438 1
-2.9895995 6.9085536 -0.39450848 3
-5.7372117 13.264259 3.3364739 27
-5.7182097 13.226662 -0.25152409 26
-5.7373085 13.2772 3.8755567 18
-0.66479808 1.5436429 -0.45034516 7
-5.7219377 13.292567 0.25260612 26
-0.76556909 1.7793419 -0.44720268 5
-5.714221 13.28104 0.75772005 30
-0.88187176 2.0506365 -0.4338997 100
-5.7106204 13.285423 1.2651527 25
-1.07374 2.4991987 -0.43082058 5
-5.7124996 13.302591 1.7775863 19
-1.3639284 3.1776843 -0.42459282 4
-5.7687144 13.439967 2.3164818 2
-1.877404 4.3760939 -0.41660443 8
-5.7967391 13.518275 2.8590822 1
-2.9686143 6.9262896 -0.39492717 3
-5.712359 13.334363 3.3490713 26
-5.694787 13.293344 -0.2524316 26
-5.7107344 13.337 3.8874621 17
-0.65788943 1.5424001 -0.44930989 7
-5.6927295 13.346418 0.25326934 22
-0.75966471 1.7818708 -0.44720268 5
-5.691319 13.356027 0.7608602 31
-0.8793236 2.0645399 -0.43618938 94
-5.6844978 13.352942 1.2696848 23
-1.065447 2.5027452 -0.43082058 5
-5.6885595 13.368955 1.7839236 17
-1.3611516 3.2004576 -0.42703021 4
-5.7472639 13.520016 2.3268065 5
-1.8543267 4.3642831 -0.41486132 8
-5.7319136 13.490444 2.8491602 9
-2.9417241 6.9269047 -0.39440379 4
-5.6886706 13.401665 3.3612187 24
-5.6741261 13.37389 -0.25358346 26
-5.6814942 13.397758 3.899368 16
-0.65201932 1.5427938 -0.44879225 7
-5.6640062 13.408574 0.25407213 26
-0.74889272 1.7737397 -0.44450328 5
-5.6640792 13.421813 0.76347697 28
-0.87552619 2.0746794 -0.43771586 96
-5.6603217 13.419447 1.2742169 22
-1.0551699 2.5028083 -0.43019485 5
-5.6572781 13.425316 1.7887983 17
-1.3484312 3.2015302 -0.42654276 3
-5.7061634 13.554562 2.3293095 38
-1.8452638 4.3854198 -0.4162558 8
-5.6977348 13.541132 2.8556476 22
-2.9152052 6.9316068 -0.39408979 3
-5.6629968 13.471744 3.373816 26
-5.6498737 13.447076 -0.2545957 26
-5.6586256 13.474508 3.9159324 16
-0.64710611 1.5469551 -0.44930989 6
-5.6418648 13.487296 0.25518909 26
-0.74194443 1.7745454 -0.44405338 6
-5.6364431 13.487574 0.76609379 30
-0.86564565 2.0724401 -0.436571 95
-5.6379609 13.504455 1.2803178 25
-1.0444674 2.5030131 -0.42956907 5
-5.6302528 13.492615 1.7951355 17
-1.3311336 3.191561 -0.42459282 4
-1.8284109 4.3881569 -0.4159072 8
-5.715239 13.723227 2.8896117 4
-2.8836381 6.927495 -0.3932524 4
-5.635294 13.544585 3.386863 26
-5.6213326 13.511029 -0.25543341 24
-5.6375208 13.556607 3.9340496 17
-0.64170188 1.5492048 -0.44930989 6
-5.6168675 13.567009 0.25630605 26
-0.73841631 1.7844554 -0.44585299 6
-5.6052938 13.552436 0.76860595 32
-0.85390449 2.0645638 -0.43428129 73
-5.6082978 13.566401 1.284327 23
-1.0387419 2.5139463 -0.43082058 5
-5.6042552 13.570038 1.8026915 16
-1.3179129 3.1927483 -0.42410538 3
-5.6866226 13.783132 2.3615351 3
-1.8062397 4.3800931 -0.41451269 8
-5.6942482 13.808431 2.9033499 4
-2.8624849 6.9449039 -0.3936711 4
-5.6080189 13.612823 3.3990104 24
-5.5915737 13.579616 -0.25634095 28
-5.6083856 13.6272 3.9485435 17
-0.63308883 1.5443962 -0.44723931 6
-5.5869231 13.629087 0.25710884 22
-0.73439884 1.7924318 -0.44720268 6
-5.5829272 13.632915 0.7720601 29
-0.85079443 2.0785809 -0.436571 76
-5.5758843 13.629279 1.2883362 23
-1.0317632 2.5232222 -0.43175918 6
-5.5793891 13.644641 1.8100036 15
-1.3052572 3.1936543 -0.42361787 3
-5.6579013 13.850442 2.3696697 3
-1.789432 4.3826828 -0.4141641 8
-5.6613994 13.872835 2.9125087 4
-2.8339922 6.9479523 -0.3932524 5
-5.5801611 13.687423 3.4125075 24
-5.5622525 13.643495 -0.25717866 26
-5.5797338 13.69321 3.962002 15
-0.62796348 1.5464872 -0.44723931 6
-5.5596156 13.698537 0.25805128 24
-0.72520792 1.7877612 -0.4454031 5
-5.5608234 13.71525 0.77561897 29
-0.84389633 2.0813911 -0.436571 76
-5.5486193 13.69201 1.2925197 20
-1.0196828 2.5174749 -0.43019485 6
-5.5518422 13.713714 1.8165846 17
-1.3000587 3.2129121 -0.42556778 3
-5.6347036 13.93237 2.3803072 3
-1.7719016 4.3812046 -0.41346684 8
-5.6330252 13.935216 2.9216673 4
